VERSION .7
FIELDS x y z
SIZE 4 4 4
TYPE F F F
COUNT 1 1 1
WIDTH     2431
HEIGHT 1
VIEWPOINT 0 0 0 1 0 0 0
POINTS     2431
DATA ascii
1.311 -0.456 -0.960
1.313 -0.443 -0.961
1.318 -0.430 -0.963
1.308 -0.413 -0.954
1.294 -0.395 -0.943
1.292 -0.381 -0.940
1.298 -0.369 -0.943
1.306 -0.358 -0.947
1.300 -0.343 -0.942
1.301 -0.330 -0.942
1.247 0.415 -0.917
1.237 0.439 -0.913
1.381 -0.943 -1.063
1.370 -0.917 -1.051
1.372 -0.902 -1.050
1.372 -0.884 -1.046
1.373 -0.850 -1.041
1.351 -0.820 -1.021
1.362 -0.794 -1.024
1.360 -0.776 -1.020
1.345 -0.736 -1.003
1.337 -0.715 -0.995
1.330 -0.696 -0.987
1.314 -0.672 -0.973
1.315 -0.658 -0.971
1.318 -0.644 -0.971
1.318 -0.630 -0.970
1.319 -0.615 -0.968
1.320 -0.601 -0.967
1.316 -0.584 -0.962
1.319 -0.571 -0.963
1.310 -0.553 -0.954
1.319 -0.542 -0.959
1.320 -0.528 -0.958
1.321 -0.514 -0.957
1.322 -0.500 -0.956
1.324 -0.487 -0.956
1.317 -0.470 -0.949
1.311 -0.454 -0.944
1.313 -0.441 -0.944
1.312 -0.427 -0.942
1.303 -0.410 -0.934
1.297 -0.395 -0.929
1.296 -0.381 -0.927
1.296 -0.368 -0.926
1.295 -0.354 -0.924
1.297 -0.341 -0.924
1.306 -0.330 -0.930
1.354 -0.921 -1.024
1.366 -0.911 -1.029
1.366 -0.895 -1.027
1.338 -0.859 -1.002
1.354 -0.853 -1.011
1.381 -0.852 -1.028
1.362 -0.824 -1.011
1.365 -0.810 -1.011
1.356 -0.787 -1.001
1.349 -0.767 -0.994
1.355 -0.754 -0.995
1.348 -0.735 -0.988
1.337 -0.713 -0.978
1.325 -0.691 -0.966
1.319 -0.673 -0.960
1.323 -0.645 -0.959
1.325 -0.631 -0.958
1.320 -0.614 -0.952
1.323 -0.600 -0.952
1.331 -0.589 -0.956
1.333 -0.575 -0.956
1.317 -0.554 -0.943
1.313 -0.538 -0.938
1.323 -0.528 -0.944
1.332 -0.517 -0.948
1.331 -0.502 -0.946
1.330 -0.488 -0.944
1.307 -0.465 -0.926
1.306 -0.451 -0.924
1.307 -0.438 -0.923
1.304 -0.423 -0.920
1.300 -0.408 -0.916
1.306 -0.396 -0.919
1.307 -0.383 -0.918
1.301 -0.368 -0.914
1.294 -0.353 -0.907
1.294 -0.339 -0.906
1.301 -0.328 -0.910
0.331 0.002 -0.229
1.403 -0.969 -1.045
1.354 -0.918 -1.005
1.360 -0.905 -1.007
1.342 -0.859 -0.988
1.352 -0.848 -0.992
1.376 -0.847 -1.007
1.375 -0.829 -1.003
1.358 -0.803 -0.988
1.356 -0.785 -0.984
1.351 -0.766 -0.978
1.349 -0.749 -0.974
1.353 -0.735 -0.974
1.330 -0.707 -0.956
1.320 -0.686 -0.946
1.315 -0.669 -0.940
1.321 -0.657 -0.942
1.328 -0.645 -0.946
1.337 -0.635 -0.950
1.328 -0.616 -0.942
1.337 -0.605 -0.946
1.339 -0.591 -0.945
1.336 -0.575 -0.941
1.309 -0.549 -0.921
1.313 -0.536 -0.922
1.324 -0.526 -0.928
1.336 -0.517 -0.935
1.343 -0.505 -0.938
1.325 -0.484 -0.924
1.309 -0.465 -0.911
1.301 -0.448 -0.904
1.300 -0.434 -0.903
1.301 -0.421 -0.902
1.306 -0.409 -0.904
1.311 -0.397 -0.907
1.315 -0.384 -0.908
1.313 -0.370 -0.905
1.301 -0.354 -0.896
1.296 -0.339 -0.892
1.293 -0.325 -0.889
0.324 0.002 -0.220
1.407 -0.969 -1.029
1.376 -0.930 -1.004
1.372 -0.909 -0.997
1.378 -0.896 -0.999
1.363 -0.870 -0.985
1.369 -0.856 -0.986
1.364 -0.836 -0.980
1.366 -0.821 -0.979
1.356 -0.798 -0.969
1.357 -0.783 -0.967
1.364 -0.771 -0.970
1.355 -0.750 -0.961
1.332 -0.721 -0.942
1.321 -0.685 -0.930
1.311 -0.665 -0.921
1.314 -0.651 -0.921
1.333 -0.645 -0.932
1.318 -0.623 -0.919
1.349 -0.623 -0.939
1.343 -0.606 -0.934
1.344 -0.591 -0.932
1.327 -0.569 -0.918
1.319 -0.551 -0.911
1.314 -0.535 -0.907
1.325 -0.525 -0.912
1.334 -0.515 -0.917
1.327 -0.498 -0.910
1.322 -0.482 -0.906
1.312 -0.464 -0.898
1.300 -0.447 -0.888
1.295 -0.431 -0.883
1.302 -0.420 -0.887
1.310 -0.409 -0.891
1.315 -0.397 -0.894
1.310 -0.382 -0.889
1.313 -0.369 -0.890
1.312 -0.356 -0.888
1.298 -0.339 -0.878
1.300 -0.326 -0.878
0.297 -0.010 -0.199
1.493 -1.289 -1.123
1.403 -0.945 -1.005
1.395 -0.922 -0.996
1.405 -0.893 -0.997
1.378 -0.842 -0.972
1.381 -0.827 -0.972
1.359 -0.798 -0.954
1.348 -0.775 -0.944
1.363 -0.768 -0.952
1.355 -0.731 -0.941
1.329 -0.702 -0.921
1.321 -0.683 -0.914
1.314 -0.664 -0.907
1.317 -0.651 -0.906
1.321 -0.638 -0.908
1.334 -0.629 -0.914
1.332 -0.613 -0.911
1.344 -0.604 -0.918
1.331 -0.584 -0.907
1.332 -0.570 -0.906
1.324 -0.552 -0.899
1.324 -0.538 -0.897
1.324 -0.523 -0.895
1.327 -0.510 -0.896
1.327 -0.496 -0.895
1.317 -0.479 -0.887
1.299 -0.458 -0.873
1.309 -0.448 -0.878
1.300 -0.432 -0.871
1.301 -0.418 -0.870
1.313 -0.409 -0.878
1.313 -0.395 -0.877
1.311 -0.381 -0.874
1.310 -0.367 -0.872
1.307 -0.353 -0.869
1.308 -0.340 -0.869
1.304 -0.326 -0.865
1.414 -0.931 -0.991
1.407 -0.909 -0.983
1.394 -0.883 -0.972
1.389 -0.863 -0.965
1.394 -0.849 -0.966
1.392 -0.831 -0.962
1.378 -0.806 -0.950
1.353 -0.775 -0.930
1.356 -0.761 -0.929
1.374 -0.755 -0.940
1.386 -0.746 -0.945
1.346 -0.709 -0.916
1.330 -0.685 -0.903
1.323 -0.667 -0.896
1.318 -0.649 -0.891
1.321 -0.636 -0.891
1.327 -0.624 -0.894
1.330 -0.611 -0.893
1.328 -0.595 -0.890
1.327 -0.580 -0.888
1.329 -0.566 -0.887
1.327 -0.552 -0.885
1.325 -0.537 -0.882
1.321 -0.521 -0.878
1.321 -0.507 -0.876
1.324 -0.494 -0.877
1.317 -0.477 -0.870
1.319 -0.464 -0.871
1.321 -0.451 -0.871
1.316 -0.436 -0.866
1.315 -0.422 -0.864
1.317 -0.409 -0.865
1.314 -0.395 -0.862
1.312 -0.380 -0.859
1.308 -0.366 -0.856
1.309 -0.353 -0.855
1.306 -0.339 -0.852
1.303 -0.325 -0.850
1.418 -0.949 -0.979
1.417 -0.930 -0.975
1.393 -0.880 -0.953
1.381 -0.856 -0.942
1.382 -0.839 -0.940
1.379 -0.821 -0.935
1.372 -0.801 -0.929
1.352 -0.773 -0.913
1.359 -0.761 -0.915
1.371 -0.751 -0.920
1.367 -0.734 -0.916
1.354 -0.711 -0.905
1.342 -0.689 -0.895
1.319 -0.663 -0.878
1.326 -0.651 -0.880
1.326 -0.637 -0.879
1.325 -0.621 -0.876
1.325 -0.607 -0.874
1.320 -0.590 -0.869
1.315 -0.573 -0.864
1.319 -0.561 -0.865
1.321 -0.548 -0.865
1.325 -0.535 -0.866
1.327 -0.521 -0.865
1.325 -0.507 -0.863
1.323 -0.492 -0.860
1.330 -0.481 -0.864
1.332 -0.468 -0.864
1.326 -0.452 -0.859
1.324 -0.437 -0.856
1.321 -0.423 -0.853
1.322 -0.409 -0.852
1.315 -0.394 -0.847
1.314 -0.380 -0.845
1.314 -0.367 -0.844
1.315 -0.354 -0.844
1.308 -0.338 -0.838
1.307 -0.325 -0.837
0.356 0.019 -0.226
0.344 0.042 -0.219
0.318 0.042 -0.202
0.319 0.046 -0.203
1.411 -0.906 -0.950
1.375 -0.849 -0.921
1.375 -0.833 -0.918
1.368 -0.812 -0.911
1.366 -0.794 -0.907
1.375 -0.783 -0.911
1.354 -0.756 -0.895
1.369 -0.748 -0.902
1.361 -0.728 -0.895
1.324 -0.678 -0.867
1.327 -0.665 -0.866
1.329 -0.651 -0.866
1.336 -0.639 -0.868
1.333 -0.623 -0.865
1.325 -0.605 -0.858
1.313 -0.585 -0.848
1.315 -0.572 -0.849
1.310 -0.555 -0.843
1.320 -0.545 -0.848
1.327 -0.534 -0.851
1.331 -0.522 -0.853
1.331 -0.508 -0.851
1.339 -0.497 -0.855
1.335 -0.481 -0.851
1.332 -0.466 -0.848
1.329 -0.451 -0.845
1.327 -0.437 -0.842
1.325 -0.423 -0.840
1.320 -0.408 -0.836
1.319 -0.394 -0.834
1.317 -0.380 -0.832
1.317 -0.367 -0.831
1.317 -0.353 -0.830
1.311 -0.338 -0.825
0.337 0.015 -0.209
0.320 0.042 -0.200
0.313 0.045 -0.196
0.323 0.049 -0.202
0.314 0.051 -0.197
0.140 -0.098 -0.094
1.414 -0.905 -0.934
1.396 -0.876 -0.920
1.386 -0.853 -0.911
1.379 -0.833 -0.904
1.376 -0.814 -0.899
1.377 -0.799 -0.898
1.371 -0.779 -0.891
1.381 -0.768 -0.896
1.377 -0.750 -0.891
1.344 -0.687 -0.864
1.336 -0.667 -0.856
1.345 -0.657 -0.860
1.352 -0.645 -0.863
1.344 -0.627 -0.856
1.336 -0.608 -0.849
1.330 -0.591 -0.844
1.320 -0.572 -0.836
1.320 -0.558 -0.834
1.325 -0.546 -0.836
1.334 -0.536 -0.841
1.337 -0.523 -0.841
1.340 -0.510 -0.841
1.339 -0.495 -0.839
1.330 -0.478 -0.833
1.333 -0.465 -0.833
1.327 -0.449 -0.828
1.324 -0.435 -0.825
1.315 -0.418 -0.818
1.311 -0.404 -0.815
1.313 -0.391 -0.815
1.314 -0.378 -0.815
1.314 -0.365 -0.814
1.314 -0.352 -0.813
1.312 -0.338 -0.811
0.297 -0.056 -0.183
0.320 -0.054 -0.196
0.338 0.041 -0.207
0.327 0.043 -0.201
0.319 0.045 -0.196
0.311 0.047 -0.191
0.322 0.052 -0.198
0.202 -0.139 -0.132
0.205 -0.139 -0.134
0.207 -0.137 -0.135
1.454 -0.946 -0.946
1.411 -0.866 -0.910
1.387 -0.835 -0.892
1.382 -0.799 -0.884
1.369 -0.775 -0.873
1.367 -0.759 -0.870
1.352 -0.735 -0.858
1.357 -0.691 -0.856
1.363 -0.679 -0.857
1.364 -0.664 -0.857
1.363 -0.649 -0.854
1.344 -0.625 -0.840
1.337 -0.607 -0.834
1.347 -0.597 -0.839
1.340 -0.580 -0.833
1.338 -0.564 -0.830
1.336 -0.535 -0.826
1.338 -0.522 -0.826
1.341 -0.509 -0.827
1.333 -0.492 -0.820
1.333 -0.478 -0.819
1.334 -0.465 -0.819
1.334 -0.451 -0.817
1.323 -0.433 -0.809
1.307 -0.415 -0.798
1.301 -0.400 -0.794
1.306 -0.388 -0.796
1.312 -0.377 -0.799
1.311 -0.363 -0.797
1.313 -0.350 -0.797
1.321 -0.339 -0.802
0.302 -0.057 -0.182
0.328 -0.030 -0.197
0.328 0.040 -0.198
0.321 0.042 -0.194
0.319 0.045 -0.192
0.324 0.049 -0.195
0.312 0.050 -0.189
0.314 0.054 -0.190
1.516 -1.306 -1.022
0.203 -0.139 -0.131
0.207 -0.139 -0.133
0.208 -0.138 -0.133
1.429 -0.892 -0.906
1.408 -0.862 -0.891
1.412 -0.847 -0.891
1.386 -0.799 -0.870
1.368 -0.773 -0.856
1.357 -0.735 -0.845
1.341 -0.711 -0.833
1.357 -0.704 -0.841
1.364 -0.693 -0.844
1.373 -0.682 -0.848
1.388 -0.674 -0.855
1.371 -0.651 -0.843
1.343 -0.623 -0.824
1.336 -0.605 -0.818
1.346 -0.595 -0.822
1.358 -0.571 -0.827
1.365 -0.560 -0.830
1.334 -0.533 -0.810
1.341 -0.521 -0.812
1.345 -0.509 -0.814
1.332 -0.476 -0.803
1.338 -0.465 -0.806
1.333 -0.449 -0.801
1.322 -0.432 -0.794
1.304 -0.413 -0.782
1.299 -0.398 -0.778
1.304 -0.387 -0.780
1.324 -0.379 -0.791
1.320 -0.364 -0.787
1.317 -0.351 -0.785
1.326 -0.340 -0.790
0.326 0.030 -0.192
0.316 0.032 -0.186
0.315 0.035 -0.186
0.314 0.038 -0.185
0.308 0.040 -0.182
0.312 0.044 -0.185
0.321 0.048 -0.190
0.333 0.053 -0.197
0.317 0.054 -0.188
0.309 0.056 -0.183
0.375 0.156 -0.230
0.129 -0.091 -0.082
0.204 -0.140 -0.129
0.207 -0.139 -0.130
0.209 -0.138 -0.131
0.209 -0.135 -0.131
1.427 -0.888 -0.888
1.390 -0.783 -0.854
1.383 -0.763 -0.847
1.354 -0.732 -0.827
1.340 -0.694 -0.815
1.369 -0.694 -0.831
1.373 -0.680 -0.832
1.372 -0.664 -0.829
1.367 -0.647 -0.824
1.347 -0.608 -0.809
1.349 -0.595 -0.809
1.360 -0.585 -0.814
1.374 -0.576 -0.820
1.345 -0.522 -0.800
1.346 -0.508 -0.798
1.336 -0.463 -0.789
1.336 -0.449 -0.788
1.322 -0.431 -0.779
1.315 -0.415 -0.774
1.316 -0.402 -0.773
1.325 -0.392 -0.777
1.325 -0.378 -0.777
1.323 -0.365 -0.775
1.322 -0.351 -0.773
1.329 -0.340 -0.776
0.283 -0.050 -0.164
0.337 -0.047 -0.195
0.327 -0.029 -0.189
0.330 0.024 -0.191
0.337 0.028 -0.195
0.327 0.030 -0.189
0.304 0.031 -0.176
0.305 0.034 -0.177
0.307 0.037 -0.178
0.306 0.040 -0.177
0.323 0.048 -0.187
0.336 0.054 -0.195
0.329 0.056 -0.191
0.324 0.058 -0.188
0.353 0.147 -0.212
1.499 -1.326 -0.979
0.206 -0.141 -0.128
0.208 -0.139 -0.128
0.210 -0.138 -0.129
0.210 -0.136 -0.129
1.436 -0.891 -0.876
1.432 -0.872 -0.871
1.423 -0.849 -0.864
1.397 -0.818 -0.846
1.397 -0.801 -0.843
1.392 -0.766 -0.836
1.358 -0.732 -0.814
1.338 -0.706 -0.800
1.348 -0.696 -0.804
1.369 -0.692 -0.815
1.381 -0.682 -0.820
1.369 -0.661 -0.811
1.363 -0.644 -0.806
1.366 -0.630 -0.806
1.366 -0.615 -0.805
1.358 -0.597 -0.799
1.359 -0.583 -0.798
0.241 -0.096 -0.141
1.325 -0.499 -0.771
1.339 -0.490 -0.778
1.344 -0.478 -0.780
1.340 -0.463 -0.777
1.334 -0.448 -0.772
1.325 -0.431 -0.765
1.323 -0.417 -0.764
1.331 -0.406 -0.767
1.334 -0.393 -0.768
1.318 -0.376 -0.758
1.319 -0.363 -0.758
1.330 -0.352 -0.763
1.335 -0.341 -0.765
0.285 -0.050 -0.162
0.284 -0.047 -0.161
0.307 -0.048 -0.175
0.335 -0.046 -0.191
0.333 -0.033 -0.189
0.315 -0.025 -0.178
0.310 -0.022 -0.176
0.339 0.015 -0.192
0.332 0.018 -0.188
0.314 0.020 -0.178
0.313 0.023 -0.178
0.321 0.026 -0.182
0.327 0.030 -0.186
0.310 0.031 -0.176
0.301 0.033 -0.171
0.310 0.037 -0.176
0.298 0.039 -0.170
0.323 0.045 -0.184
0.318 0.048 -0.181
0.311 0.050 -0.177
0.321 0.054 -0.183
0.329 0.059 -0.188
0.350 0.145 -0.206
0.164 -0.115 -0.100
0.207 -0.141 -0.126
0.210 -0.140 -0.127
0.210 -0.138 -0.127
0.211 -0.136 -0.127
0.203 -0.128 -0.122
1.452 -0.899 -0.868
1.392 -0.796 -0.824
1.379 -0.757 -0.812
1.368 -0.735 -0.804
1.355 -0.713 -0.794
1.363 -0.702 -0.797
1.379 -0.695 -0.805
1.381 -0.681 -0.804
1.366 -0.658 -0.794
1.362 -0.642 -0.790
1.366 -0.585 -0.787
0.240 -0.098 -0.138
0.243 -0.096 -0.139
1.365 -0.513 -0.779
1.345 -0.492 -0.767
1.339 -0.475 -0.762
1.337 -0.461 -0.760
1.338 -0.448 -0.759
1.334 -0.433 -0.756
1.332 -0.419 -0.754
1.335 -0.406 -0.755
1.304 -0.384 -0.737
1.310 -0.372 -0.739
1.321 -0.362 -0.744
1.333 -0.352 -0.750
1.334 -0.340 -0.750
0.293 -0.049 -0.164
0.299 -0.047 -0.167
0.311 -0.046 -0.173
0.314 -0.034 -0.175
0.309 -0.028 -0.172
0.310 -0.025 -0.173
0.306 -0.022 -0.170
0.305 -0.019 -0.170
0.327 0.014 -0.182
0.327 0.017 -0.182
0.313 0.020 -0.174
0.308 0.022 -0.172
0.318 0.026 -0.177
0.322 0.029 -0.179
0.321 0.032 -0.179
0.312 0.035 -0.174
0.298 0.036 -0.166
0.313 0.041 -0.175
0.320 0.045 -0.179
0.324 0.048 -0.181
0.304 0.048 -0.170
0.291 0.049 -0.163
0.339 0.061 -0.190
0.357 0.148 -0.207
0.362 0.153 -0.210
0.176 -0.124 -0.105
0.166 -0.115 -0.099
0.203 -0.138 -0.121
0.210 -0.140 -0.125
0.210 -0.137 -0.124
0.210 -0.135 -0.124
0.203 -0.128 -0.119
1.464 -0.904 -0.858
1.424 -0.845 -0.830
1.389 -0.776 -0.804
1.386 -0.759 -0.800
1.380 -0.740 -0.795
1.372 -0.720 -0.788
1.379 -0.709 -0.791
1.382 -0.695 -0.791
1.377 -0.677 -0.786
1.367 -0.657 -0.779
1.378 -0.603 -0.779
0.243 -0.099 -0.137
0.244 -0.097 -0.137
1.361 -0.510 -0.762
1.353 -0.493 -0.756
1.338 -0.474 -0.747
1.327 -0.457 -0.739
1.324 -0.442 -0.737
1.330 -0.431 -0.739
1.343 -0.421 -0.746
1.312 -0.398 -0.727
1.300 -0.382 -0.720
1.304 -0.370 -0.722
1.332 -0.364 -0.736
1.332 -0.351 -0.735
1.331 -0.338 -0.734
0.303 -0.056 -0.166
0.309 -0.054 -0.169
0.300 -0.050 -0.164
0.293 -0.046 -0.160
0.295 -0.043 -0.162
0.312 -0.043 -0.171
0.310 -0.040 -0.170
0.302 -0.033 -0.165
0.306 -0.030 -0.167
0.309 -0.028 -0.169
0.303 -0.024 -0.165
0.324 0.017 -0.176
0.316 0.020 -0.173
0.314 0.023 -0.171
0.314 0.026 -0.172
0.317 0.029 -0.173
0.319 0.032 -0.174
0.327 0.036 -0.179
0.321 0.039 -0.176
0.313 0.041 -0.171
0.319 0.045 -0.175
0.319 0.048 -0.175
0.302 0.048 -0.166
0.287 0.048 -0.157
1.485 -1.552 -0.957
0.201 -0.136 -0.117
0.209 -0.139 -0.121
0.209 -0.137 -0.121
0.210 -0.134 -0.121
0.205 -0.129 -0.118
1.410 -0.803 -0.802
1.392 -0.776 -0.790
1.389 -0.759 -0.786
1.397 -0.747 -0.789
1.373 -0.719 -0.773
1.378 -0.707 -0.775
1.386 -0.695 -0.778
1.377 -0.660 -0.769
1.374 -0.585 -0.760
0.265 -0.108 -0.146
0.254 -0.100 -0.140
1.358 -0.508 -0.745
1.349 -0.491 -0.739
1.339 -0.473 -0.732
1.329 -0.456 -0.726
1.320 -0.440 -0.720
1.325 -0.428 -0.722
1.335 -0.418 -0.726
1.316 -0.399 -0.715
1.317 -0.386 -0.715
1.329 -0.376 -0.721
1.329 -0.363 -0.720
1.323 -0.348 -0.716
1.317 -0.334 -0.712
0.306 -0.057 -0.164
0.314 -0.055 -0.168
0.311 -0.052 -0.167
0.301 -0.047 -0.162
0.293 -0.043 -0.157
0.301 -0.041 -0.162
0.303 -0.033 -0.162
0.309 -0.031 -0.165
0.303 -0.027 -0.162
0.308 -0.025 -0.165
0.302 -0.021 -0.161
0.293 -0.018 -0.156
0.317 0.017 -0.170
0.324 0.020 -0.173
0.323 0.023 -0.173
0.316 0.026 -0.169
0.304 0.028 -0.163
0.305 0.031 -0.164
0.319 0.035 -0.171
0.325 0.039 -0.174
0.321 0.042 -0.173
0.314 0.044 -0.169
0.322 0.048 -0.173
0.301 0.048 -0.162
0.303 0.051 -0.163
0.321 0.066 -0.173
0.208 -0.138 -0.119
0.209 -0.136 -0.119
0.209 -0.133 -0.118
0.208 -0.130 -0.117
1.430 -0.828 -0.799
1.404 -0.765 -0.778
1.382 -0.722 -0.763
1.387 -0.709 -0.764
1.399 -0.700 -0.768
1.411 -0.675 -0.772
1.362 -0.579 -0.738
1.351 -0.504 -0.726
1.343 -0.487 -0.721
1.333 -0.470 -0.715
1.325 -0.454 -0.709
1.330 -0.442 -0.711
1.333 -0.430 -0.712
1.324 -0.414 -0.706
1.326 -0.401 -0.706
1.334 -0.390 -0.710
1.336 -0.377 -0.710
1.335 -0.364 -0.709
1.316 -0.346 -0.698
1.308 -0.331 -0.693
0.300 -0.055 -0.158
0.312 -0.055 -0.164
0.311 -0.048 -0.163
0.306 -0.045 -0.161
0.308 -0.042 -0.162
0.312 -0.040 -0.164
0.312 -0.037 -0.164
0.311 -0.031 -0.163
0.320 -0.029 -0.168
0.314 -0.022 -0.165
0.298 -0.018 -0.156
0.314 0.017 -0.164
0.333 0.021 -0.175
0.327 0.023 -0.171
0.320 0.026 -0.168
0.298 0.027 -0.157
0.300 0.030 -0.157
0.314 0.034 -0.165
0.319 0.038 -0.168
0.320 0.041 -0.168
0.316 0.047 -0.166
0.312 0.049 -0.164
0.302 0.051 -0.159
0.307 0.055 -0.162
0.346 0.082 -0.183
0.351 0.148 -0.191
0.162 -0.111 -0.091
0.208 -0.137 -0.116
0.209 -0.135 -0.116
0.209 -0.133 -0.116
0.209 -0.131 -0.116
1.429 -0.809 -0.780
1.427 -0.776 -0.775
1.360 -0.577 -0.722
1.338 -0.498 -0.705
1.335 -0.483 -0.702
1.330 -0.468 -0.699
1.328 -0.454 -0.696
1.326 -0.440 -0.695
1.328 -0.427 -0.695
1.323 -0.412 -0.691
1.326 -0.400 -0.692
1.335 -0.390 -0.696
1.334 -0.376 -0.695
1.327 -0.361 -0.690
1.325 -0.347 -0.688
0.307 -0.057 -0.158
0.318 -0.056 -0.164
0.315 -0.052 -0.162
0.310 -0.048 -0.159
0.303 -0.044 -0.156
0.305 -0.042 -0.157
0.311 -0.040 -0.160
0.311 -0.037 -0.160
0.315 -0.034 -0.162
0.326 -0.032 -0.167
0.319 -0.028 -0.164
0.324 -0.026 -0.166
0.314 -0.019 -0.161
0.321 0.020 -0.165
0.322 0.023 -0.166
0.316 0.026 -0.163
0.315 0.029 -0.162
0.315 0.032 -0.162
0.323 0.035 -0.166
0.320 0.038 -0.165
0.323 0.042 -0.166
0.324 0.045 -0.167
0.333 0.049 -0.172
0.312 0.049 -0.161
0.312 0.052 -0.161
0.358 0.150 -0.191
0.360 0.155 -0.193
0.188 0.232 -0.125
0.189 0.236 -0.126
0.249 -0.177 -0.138
0.155 -0.106 -0.085
0.208 -0.137 -0.114
0.209 -0.135 -0.114
0.210 -0.133 -0.114
0.210 -0.131 -0.114
0.201 -0.123 -0.109
0.310 -0.161 -0.164
0.316 -0.161 -0.167
0.319 -0.159 -0.168
0.323 -0.158 -0.170
0.327 -0.156 -0.172
0.330 -0.154 -0.173
0.339 -0.154 -0.177
0.346 -0.154 -0.181
1.334 -0.496 -0.689
1.327 -0.480 -0.684
1.330 -0.467 -0.684
1.324 -0.438 -0.679
1.312 -0.421 -0.672
1.324 -0.412 -0.678
1.327 -0.400 -0.678
1.330 -0.387 -0.679
1.333 -0.375 -0.680
1.326 -0.360 -0.676
1.305 -0.342 -0.664
1.297 -0.327 -0.659
0.315 -0.058 -0.159
0.302 -0.053 -0.153
0.302 -0.050 -0.152
0.298 -0.046 -0.150
0.305 -0.044 -0.154
0.312 -0.040 -0.157
0.318 -0.037 -0.160
0.324 -0.035 -0.163
0.324 -0.032 -0.163
0.322 -0.029 -0.162
0.320 -0.025 -0.161
0.327 -0.023 -0.165
0.319 -0.019 -0.160
0.306 -0.016 -0.154
0.315 -0.013 -0.158
0.324 0.020 -0.163
0.315 0.023 -0.159
0.317 0.026 -0.159
0.319 0.029 -0.161
0.327 0.033 -0.165
0.330 0.036 -0.166
0.325 0.039 -0.164
0.321 0.041 -0.162
0.322 0.044 -0.163
0.322 0.047 -0.163
0.321 0.050 -0.162
0.320 0.060 -0.162
0.333 0.068 -0.169
0.317 0.071 -0.161
0.336 0.092 -0.172
0.335 0.102 -0.172
0.374 0.160 -0.196
0.203 0.231 -0.129
0.194 0.225 -0.124
0.189 0.222 -0.121
0.181 0.216 -0.117
0.196 0.238 -0.127
0.194 0.238 -0.126
0.195 0.243 -0.127
0.130 -0.088 -0.070
0.208 -0.137 -0.111
0.209 -0.135 -0.111
0.210 -0.133 -0.111
0.211 -0.131 -0.112
0.208 -0.127 -0.110
0.319 -0.180 -0.167
0.322 -0.178 -0.168
0.324 -0.175 -0.169
0.316 -0.167 -0.164
0.323 -0.168 -0.167
0.322 -0.164 -0.167
0.323 -0.161 -0.167
0.328 -0.160 -0.169
0.328 -0.156 -0.169
0.332 -0.154 -0.170
0.335 -0.152 -0.171
0.339 -0.150 -0.173
0.280 -0.113 -0.142
1.334 -0.495 -0.674
1.327 -0.479 -0.670
1.326 -0.465 -0.668
1.335 -0.455 -0.672
1.314 -0.434 -0.660
1.313 -0.421 -0.659
1.328 -0.412 -0.666
1.331 -0.400 -0.666
1.327 -0.386 -0.664
1.322 -0.371 -0.660
1.329 -0.360 -0.663
1.317 -0.344 -0.656
0.279 -0.051 -0.138
0.303 -0.053 -0.150
0.298 -0.049 -0.147
0.297 -0.046 -0.147
0.302 -0.044 -0.149
0.304 -0.041 -0.150
0.304 -0.038 -0.150
0.325 -0.038 -0.160
0.329 -0.035 -0.162
0.323 -0.032 -0.159
0.315 -0.028 -0.155
0.321 -0.025 -0.158
0.328 -0.023 -0.162
0.325 -0.020 -0.160
0.313 -0.016 -0.154
0.310 -0.013 -0.153
0.321 -0.010 -0.158
0.318 0.026 -0.157
0.320 0.029 -0.158
0.331 0.033 -0.163
0.329 0.036 -0.163
0.333 0.039 -0.165
0.324 0.042 -0.160
0.311 0.043 -0.154
0.311 0.046 -0.154
0.317 0.050 -0.157
0.331 0.055 -0.164
0.335 0.092 -0.168
0.197 0.224 -0.123
0.189 0.218 -0.118
0.184 0.216 -0.116
0.184 0.219 -0.116
0.192 0.233 -0.122
0.199 0.244 -0.127
0.209 -0.137 -0.109
0.209 -0.135 -0.109
0.210 -0.133 -0.109
0.211 -0.131 -0.109
0.223 -0.136 -0.116
0.305 -0.182 -0.157
0.320 -0.187 -0.165
0.317 -0.182 -0.162
0.317 -0.178 -0.162
0.320 -0.176 -0.163
0.318 -0.172 -0.162
0.324 -0.171 -0.165
0.325 -0.169 -0.165
0.327 -0.166 -0.166
0.326 -0.162 -0.165
0.327 -0.159 -0.165
0.330 -0.157 -0.166
0.332 -0.154 -0.167
0.339 -0.153 -0.170
0.343 -0.152 -0.172
1.341 -0.496 -0.663
1.333 -0.480 -0.658
1.327 -0.464 -0.654
1.323 -0.449 -0.651
1.314 -0.433 -0.646
1.318 -0.422 -0.648
1.323 -0.410 -0.649
1.326 -0.398 -0.650
1.322 -0.383 -0.647
1.314 -0.368 -0.642
1.314 -0.355 -0.642
1.302 -0.340 -0.636
1.283 -0.322 -0.625
0.288 -0.053 -0.139
0.304 -0.053 -0.147
0.300 -0.049 -0.145
0.301 -0.047 -0.146
0.301 -0.044 -0.146
0.301 -0.041 -0.145
0.299 -0.038 -0.145
0.307 -0.036 -0.148
0.317 -0.034 -0.153
0.303 -0.030 -0.146
0.305 -0.027 -0.147
0.321 -0.025 -0.155
0.332 -0.023 -0.160
0.323 -0.020 -0.156
0.314 -0.016 -0.152
0.320 -0.013 -0.154
0.321 -0.010 -0.155
0.315 -0.007 -0.152
0.305 -0.004 -0.147
0.318 -0.001 -0.153
0.341 0.002 -0.164
0.314 0.028 -0.151
0.319 0.032 -0.154
0.310 0.043 -0.150
0.308 0.045 -0.149
0.320 0.050 -0.155
0.329 0.055 -0.160
0.338 0.059 -0.164
0.344 0.094 -0.169
0.344 0.101 -0.169
0.356 0.152 -0.179
0.227 0.215 -0.131
0.228 0.219 -0.132
0.229 0.224 -0.133
0.234 0.232 -0.137
0.226 0.229 -0.133
0.219 0.225 -0.129
0.209 0.218 -0.124
0.209 0.234 -0.127
0.187 0.212 -0.114
0.186 0.214 -0.114
0.185 0.216 -0.114
0.187 0.222 -0.115
0.189 0.228 -0.117
0.183 0.224 -0.114
0.187 0.233 -0.117
0.186 0.235 -0.117
0.184 0.235 -0.116
0.213 -0.139 -0.109
0.210 -0.135 -0.107
0.209 -0.132 -0.106
0.209 -0.130 -0.106
0.223 -0.136 -0.113
0.311 -0.185 -0.157
0.314 -0.184 -0.158
0.314 -0.180 -0.158
0.315 -0.177 -0.158
0.316 -0.174 -0.158
0.318 -0.172 -0.159
0.321 -0.169 -0.159
0.324 -0.168 -0.161
0.324 -0.164 -0.161
0.326 -0.161 -0.161
0.326 -0.158 -0.161
0.328 -0.155 -0.161
0.331 -0.153 -0.163
0.336 -0.152 -0.165
0.344 -0.152 -0.168
1.360 -0.502 -0.658
1.343 -0.483 -0.649
1.334 -0.466 -0.644
1.325 -0.449 -0.639
1.332 -0.438 -0.641
1.319 -0.421 -0.634
1.319 -0.408 -0.633
1.316 -0.394 -0.631
1.316 -0.381 -0.630
1.309 -0.366 -0.626
1.307 -0.353 -0.625
1.302 -0.339 -0.622
0.302 -0.055 -0.143
0.309 -0.054 -0.146
0.306 -0.050 -0.145
0.298 -0.046 -0.141
0.294 -0.043 -0.139
0.292 -0.040 -0.138
0.291 -0.037 -0.137
0.301 -0.035 -0.142
0.300 -0.032 -0.142
0.303 -0.030 -0.143
0.300 -0.027 -0.142
0.320 -0.025 -0.151
0.327 -0.023 -0.154
0.314 -0.019 -0.148
0.319 -0.016 -0.150
0.322 -0.013 -0.152
0.322 -0.010 -0.152
0.309 -0.007 -0.146
0.308 -0.004 -0.145
0.331 0.002 -0.156
0.336 0.008 -0.159
0.346 0.012 -0.163
0.320 0.032 -0.151
0.317 0.037 -0.150
0.318 0.041 -0.151
0.334 0.059 -0.159
0.341 0.063 -0.162
0.324 0.066 -0.155
0.340 0.089 -0.163
0.338 0.092 -0.163
0.335 0.095 -0.161
0.359 0.123 -0.174
0.359 0.153 -0.176
0.220 0.193 -0.121
0.217 0.194 -0.120
0.221 0.201 -0.123
0.225 0.208 -0.126
0.226 0.213 -0.127
0.223 0.213 -0.126
0.226 0.220 -0.128
0.226 0.224 -0.129
0.226 0.228 -0.130
0.217 0.222 -0.125
0.214 0.223 -0.124
0.195 0.220 -0.116
0.187 0.215 -0.112
0.187 0.219 -0.113
0.195 0.231 -0.118
0.195 0.235 -0.119
0.185 0.226 -0.113
0.185 0.229 -0.113
0.183 0.231 -0.113
0.184 0.235 -0.114
0.319 -0.232 -0.162
0.324 -0.231 -0.164
0.215 -0.141 -0.108
0.210 -0.135 -0.105
0.208 -0.131 -0.104
0.207 -0.128 -0.103
0.212 -0.128 -0.105
0.310 -0.184 -0.153
0.314 -0.183 -0.155
0.315 -0.180 -0.155
0.314 -0.176 -0.154
0.317 -0.174 -0.155
0.316 -0.170 -0.154
0.317 -0.167 -0.154
0.317 -0.163 -0.154
0.319 -0.161 -0.155
0.324 -0.160 -0.157
0.326 -0.157 -0.157
0.327 -0.154 -0.157
0.332 -0.153 -0.159
0.335 -0.151 -0.161
0.339 -0.150 -0.163
0.355 -0.135 -0.168
0.354 -0.131 -0.168
1.333 -0.465 -0.629
1.331 -0.451 -0.628
1.324 -0.435 -0.624
1.316 -0.419 -0.619
1.316 -0.406 -0.618
1.315 -0.393 -0.617
1.318 -0.381 -0.618
1.311 -0.366 -0.614
1.315 -0.354 -0.615
1.304 -0.339 -0.609
0.315 -0.055 -0.146
0.305 -0.050 -0.141
0.298 -0.046 -0.138
0.298 -0.043 -0.138
0.300 -0.041 -0.139
0.297 -0.037 -0.137
0.306 -0.036 -0.141
0.315 -0.034 -0.145
0.306 -0.030 -0.142
0.319 -0.028 -0.147
0.323 -0.026 -0.149
0.324 -0.023 -0.150
0.319 -0.019 -0.147
0.318 -0.016 -0.147
0.323 -0.013 -0.149
0.317 -0.010 -0.146
0.307 -0.007 -0.142
0.313 -0.004 -0.144
0.316 -0.001 -0.146
0.307 0.002 -0.142
0.293 0.004 -0.135
0.353 0.012 -0.163
0.318 0.034 -0.147
0.293 0.040 -0.136
0.337 0.056 -0.156
0.318 0.083 -0.149
0.326 0.089 -0.153
0.316 0.092 -0.149
0.349 0.149 -0.168
0.350 0.153 -0.169
0.245 0.200 -0.130
0.234 0.194 -0.124
0.226 0.191 -0.121
0.221 0.190 -0.118
0.221 0.194 -0.119
0.221 0.197 -0.119
0.221 0.200 -0.120
0.220 0.203 -0.120
0.217 0.203 -0.119
0.216 0.206 -0.119
0.223 0.217 -0.124
0.225 0.222 -0.125
0.220 0.221 -0.124
0.227 0.231 -0.128
0.215 0.223 -0.122
0.196 0.210 -0.112
0.209 0.236 -0.122
0.181 0.225 -0.109
0.187 0.235 -0.113
0.183 0.233 -0.111
0.182 0.236 -0.111
0.327 -0.254 -0.165
0.329 -0.251 -0.166
0.332 -0.249 -0.166
0.330 -0.244 -0.165
0.326 -0.236 -0.162
0.323 -0.230 -0.160
0.325 -0.228 -0.161
0.318 -0.219 -0.157
0.212 -0.136 -0.103
0.206 -0.130 -0.100
0.208 -0.128 -0.101
0.212 -0.128 -0.103
0.301 -0.179 -0.145
0.311 -0.181 -0.150
0.315 -0.180 -0.151
0.316 -0.176 -0.151
0.314 -0.172 -0.150
0.314 -0.169 -0.150
0.313 -0.165 -0.149
0.315 -0.162 -0.150
0.317 -0.159 -0.150
0.322 -0.159 -0.152
0.325 -0.157 -0.153
0.330 -0.156 -0.155
0.332 -0.153 -0.156
0.336 -0.151 -0.157
0.336 -0.148 -0.157
0.309 -0.123 -0.144
0.313 -0.121 -0.145
0.360 -0.136 -0.167
0.362 -0.133 -0.168
0.361 -0.129 -0.167
1.323 -0.447 -0.610
1.321 -0.433 -0.608
1.316 -0.419 -0.605
1.309 -0.403 -0.601
1.320 -0.394 -0.606
1.319 -0.381 -0.605
1.316 -0.367 -0.602
1.311 -0.353 -0.600
1.307 -0.339 -0.597
0.307 -0.053 -0.139
0.292 -0.048 -0.132
0.308 -0.048 -0.140
0.305 -0.044 -0.138
0.307 -0.042 -0.139
0.306 -0.039 -0.138
0.310 -0.036 -0.140
0.311 -0.033 -0.141
0.329 -0.032 -0.149
0.329 -0.029 -0.149
0.326 -0.026 -0.147
0.326 -0.023 -0.147
0.318 -0.019 -0.143
0.320 -0.016 -0.145
0.320 -0.013 -0.144
0.318 -0.010 -0.143
0.307 -0.007 -0.139
0.311 -0.004 -0.140
0.311 -0.001 -0.140
0.296 0.002 -0.133
0.309 0.004 -0.139
0.350 0.012 -0.158
0.317 0.016 -0.143
0.347 0.031 -0.157
0.356 0.035 -0.161
0.314 0.055 -0.143
0.337 0.075 -0.154
0.330 0.077 -0.151
0.318 0.080 -0.146
0.323 0.085 -0.148
0.313 0.085 -0.144
0.319 0.090 -0.147
0.314 0.092 -0.145
0.372 0.127 -0.173
0.348 0.151 -0.164
0.257 0.191 -0.130
0.253 0.191 -0.129
0.259 0.200 -0.132
0.258 0.203 -0.132
0.245 0.196 -0.126
0.237 0.193 -0.122
0.230 0.191 -0.120
0.223 0.188 -0.116
0.221 0.190 -0.116
0.223 0.195 -0.117
0.222 0.197 -0.118
0.220 0.199 -0.117
0.216 0.199 -0.115
0.208 0.195 -0.112
0.226 0.215 -0.122
0.222 0.215 -0.120
0.229 0.225 -0.125
0.230 0.231 -0.126
0.227 0.232 -0.125
0.223 0.231 -0.124
0.220 0.244 -0.125
0.213 0.239 -0.121
0.208 0.237 -0.119
0.212 0.247 -0.122
0.188 0.232 -0.110
0.191 0.240 -0.113
0.180 0.228 -0.106
0.181 0.233 -0.107
0.325 -0.274 -0.163
0.328 -0.272 -0.164
0.331 -0.270 -0.165
0.331 -0.265 -0.164
0.331 -0.261 -0.164
0.331 -0.257 -0.163
0.331 -0.252 -0.163
0.330 -0.247 -0.161
0.330 -0.243 -0.161
0.326 -0.236 -0.159
0.323 -0.230 -0.157
0.322 -0.225 -0.156
0.320 -0.220 -0.154
0.213 -0.136 -0.101
0.208 -0.130 -0.099
0.209 -0.129 -0.099
0.211 -0.128 -0.100
0.308 -0.179 -0.145
0.310 -0.177 -0.146
0.314 -0.175 -0.147
0.314 -0.172 -0.147
0.313 -0.168 -0.146
0.314 -0.164 -0.146
0.314 -0.161 -0.146
0.317 -0.159 -0.147
0.320 -0.157 -0.148
0.323 -0.156 -0.149
0.328 -0.154 -0.151
0.334 -0.153 -0.153
0.334 -0.150 -0.153
0.334 -0.147 -0.153
0.298 -0.119 -0.136
0.311 -0.121 -0.141
0.364 -0.137 -0.165
0.367 -0.135 -0.166
0.371 -0.132 -0.168
0.375 -0.130 -0.169
1.313 -0.430 -0.591
1.311 -0.416 -0.589
1.308 -0.402 -0.587
1.309 -0.390 -0.587
1.329 -0.383 -0.595
1.321 -0.368 -0.591
1.311 -0.352 -0.586
1.286 -0.333 -0.574
0.293 -0.051 -0.130
0.296 -0.048 -0.131
0.300 -0.046 -0.133
0.320 -0.046 -0.142
0.313 -0.042 -0.139
0.313 -0.039 -0.138
0.308 -0.036 -0.136
0.306 -0.033 -0.135
0.315 -0.031 -0.139
0.328 -0.029 -0.145
0.325 -0.026 -0.143
0.318 -0.022 -0.141
0.312 -0.019 -0.138
0.316 -0.016 -0.139
0.321 -0.013 -0.142
0.316 -0.010 -0.139
0.313 -0.007 -0.138
0.312 -0.004 -0.138
0.313 -0.001 -0.138
0.317 0.002 -0.140
0.320 0.005 -0.141
0.325 0.008 -0.143
0.335 0.011 -0.148
0.344 0.015 -0.152
0.338 0.027 -0.149
0.353 0.031 -0.156
0.352 0.035 -0.156
0.347 0.041 -0.153
0.347 0.054 -0.154
0.319 0.053 -0.142
0.320 0.068 -0.143
0.329 0.073 -0.147
0.330 0.077 -0.148
0.325 0.078 -0.145
0.319 0.080 -0.143
0.329 0.086 -0.148
0.342 0.093 -0.154
0.332 0.093 -0.149
0.336 0.098 -0.151
0.314 0.101 -0.142
0.325 0.108 -0.147
0.345 0.121 -0.157
0.251 0.176 -0.123
0.258 0.185 -0.127
0.253 0.184 -0.125
0.254 0.189 -0.126
0.262 0.198 -0.130
0.261 0.200 -0.130
0.256 0.200 -0.128
0.245 0.195 -0.123
0.236 0.191 -0.119
0.229 0.189 -0.116
0.223 0.187 -0.114
0.221 0.189 -0.113
0.222 0.193 -0.114
0.219 0.194 -0.113
0.216 0.195 -0.112
0.216 0.198 -0.112
0.220 0.206 -0.116
0.215 0.204 -0.113
0.223 0.215 -0.118
0.229 0.225 -0.122
0.235 0.235 -0.126
0.227 0.230 -0.122
0.219 0.227 -0.119
0.214 0.232 -0.118
0.221 0.244 -0.122
0.219 0.246 -0.122
0.215 0.245 -0.120
0.211 0.244 -0.118
0.209 0.246 -0.118
0.207 0.248 -0.118
0.176 0.221 -0.101
0.179 0.227 -0.103
0.182 0.234 -0.106
0.331 -0.292 -0.164
0.330 -0.287 -0.163
0.332 -0.284 -0.164
0.329 -0.277 -0.162
0.329 -0.272 -0.161
0.330 -0.268 -0.161
0.330 -0.264 -0.160
0.331 -0.260 -0.160
0.330 -0.256 -0.159
0.329 -0.250 -0.158
0.328 -0.245 -0.157
0.329 -0.242 -0.157
0.327 -0.236 -0.156
0.320 -0.227 -0.151
0.318 -0.222 -0.150
0.313 -0.215 -0.148
0.305 -0.205 -0.143
0.214 -0.136 -0.099
0.209 -0.131 -0.097
0.210 -0.129 -0.097
0.211 -0.127 -0.097
0.302 -0.175 -0.139
0.311 -0.177 -0.143
0.312 -0.174 -0.143
0.313 -0.171 -0.143
0.313 -0.167 -0.143
0.313 -0.164 -0.142
0.314 -0.161 -0.143
0.316 -0.159 -0.143
0.319 -0.156 -0.144
0.321 -0.154 -0.145
0.325 -0.153 -0.146
0.330 -0.152 -0.148
0.333 -0.149 -0.149
0.331 -0.145 -0.148
0.361 -0.136 -0.160
0.368 -0.135 -0.163
0.373 -0.133 -0.165
0.378 -0.131 -0.166
0.383 -0.129 -0.169
1.316 -0.417 -0.578
1.317 -0.405 -0.578
1.326 -0.394 -0.581
1.331 -0.383 -0.583
1.325 -0.368 -0.580
1.302 -0.349 -0.569
1.286 -0.332 -0.561
0.352 -0.067 -0.153
0.301 -0.055 -0.131
0.291 -0.050 -0.126
0.291 -0.047 -0.126
0.308 -0.047 -0.133
0.303 -0.044 -0.131
0.314 -0.042 -0.136
0.304 -0.038 -0.132
0.299 -0.035 -0.129
0.299 -0.032 -0.129
0.302 -0.029 -0.130
0.309 -0.027 -0.133
0.323 -0.025 -0.139
0.310 -0.021 -0.134
0.308 -0.019 -0.133
0.311 -0.016 -0.134
0.307 -0.013 -0.132
0.312 -0.010 -0.134
0.311 -0.007 -0.134
0.320 -0.004 -0.138
0.319 -0.001 -0.138
0.322 0.002 -0.139
0.317 0.005 -0.137
0.306 0.007 -0.132
0.308 0.010 -0.133
0.330 0.014 -0.143
0.310 0.019 -0.134
0.350 0.044 -0.152
0.349 0.054 -0.151
0.326 0.057 -0.142
0.335 0.071 -0.146
0.335 0.074 -0.146
0.334 0.077 -0.146
0.323 0.078 -0.141
0.319 0.080 -0.140
0.324 0.084 -0.142
0.357 0.097 -0.157
0.346 0.101 -0.152
0.341 0.102 -0.150
0.340 0.106 -0.150
0.332 0.110 -0.147
0.337 0.118 -0.149
0.273 0.171 -0.128
0.271 0.173 -0.127
0.274 0.178 -0.129
0.278 0.184 -0.131
0.260 0.175 -0.123
0.252 0.173 -0.120
0.249 0.174 -0.119
0.247 0.176 -0.119
0.247 0.179 -0.119
0.247 0.183 -0.120
0.268 0.202 -0.130
0.274 0.210 -0.134
0.261 0.204 -0.128
0.250 0.199 -0.123
0.242 0.196 -0.119
0.238 0.196 -0.118
0.224 0.187 -0.111
0.223 0.190 -0.111
0.221 0.192 -0.111
0.221 0.195 -0.112
0.219 0.197 -0.111
0.217 0.198 -0.110
0.224 0.208 -0.115
0.224 0.212 -0.115
0.219 0.210 -0.113
0.221 0.217 -0.115
0.231 0.230 -0.121
0.221 0.224 -0.116
0.216 0.222 -0.114
0.220 0.230 -0.117
0.229 0.244 -0.122
0.202 0.241 -0.112
0.221 0.272 -0.124
0.179 0.224 -0.101
0.186 0.236 -0.105
0.188 0.242 -0.107
0.322 -0.307 -0.159
0.324 -0.305 -0.160
0.330 -0.305 -0.162
0.331 -0.301 -0.162
0.333 -0.298 -0.162
0.332 -0.293 -0.161
0.333 -0.289 -0.161
0.332 -0.283 -0.160
0.332 -0.279 -0.159
0.331 -0.273 -0.158
0.329 -0.268 -0.157
0.329 -0.263 -0.156
0.328 -0.258 -0.155
0.329 -0.254 -0.155
0.324 -0.246 -0.152
0.326 -0.243 -0.152
0.327 -0.240 -0.152
0.326 -0.235 -0.151
0.317 -0.225 -0.147
0.315 -0.219 -0.145
0.313 -0.214 -0.144
0.307 -0.206 -0.141
0.221 -0.140 -0.100
0.209 -0.131 -0.095
0.210 -0.129 -0.095
0.210 -0.126 -0.095
0.302 -0.174 -0.135
0.310 -0.176 -0.139
0.305 -0.170 -0.136
0.307 -0.167 -0.137
0.312 -0.167 -0.139
0.313 -0.164 -0.139
0.313 -0.160 -0.139
0.316 -0.158 -0.139
0.318 -0.156 -0.140
0.319 -0.153 -0.141
0.324 -0.152 -0.142
0.329 -0.151 -0.144
0.331 -0.148 -0.145
0.332 -0.145 -0.145
0.343 -0.143 -0.149
0.326 -0.126 -0.141
0.351 -0.132 -0.152
0.367 -0.134 -0.158
0.373 -0.133 -0.161
0.379 -0.131 -0.163
0.383 -0.129 -0.165
0.386 -0.126 -0.166
0.397 -0.126 -0.170
1.334 -0.409 -0.572
1.337 -0.397 -0.572
1.331 -0.382 -0.569
1.324 -0.367 -0.565
1.308 -0.350 -0.558
1.294 -0.334 -0.551
0.349 -0.067 -0.148
0.290 -0.050 -0.123
0.295 -0.048 -0.125
0.305 -0.047 -0.129
0.307 -0.044 -0.130
0.298 -0.040 -0.126
0.302 -0.038 -0.127
0.294 -0.034 -0.124
0.293 -0.031 -0.124
0.295 -0.029 -0.125
0.302 -0.027 -0.127
0.313 -0.025 -0.132
0.317 -0.022 -0.134
0.314 -0.019 -0.132
0.311 -0.016 -0.131
0.308 -0.013 -0.130
0.307 -0.010 -0.129
0.315 -0.007 -0.133
0.317 -0.004 -0.134
0.325 -0.001 -0.137
0.305 0.002 -0.128
0.298 0.004 -0.125
0.296 0.007 -0.125
0.295 0.010 -0.124
0.305 0.013 -0.129
0.322 0.017 -0.136
0.347 0.028 -0.147
0.320 0.034 -0.135
0.319 0.037 -0.135
0.372 0.051 -0.158
0.341 0.059 -0.145
0.355 0.072 -0.151
0.342 0.076 -0.146
0.323 0.075 -0.138
0.316 0.079 -0.135
0.337 0.088 -0.144
0.347 0.094 -0.149
0.345 0.097 -0.148
0.349 0.105 -0.150
0.333 0.110 -0.144
0.342 0.119 -0.148
0.355 0.154 -0.156
0.290 0.170 -0.131
0.284 0.171 -0.129
0.278 0.170 -0.127
0.272 0.170 -0.124
0.270 0.172 -0.124
0.272 0.176 -0.125
0.267 0.176 -0.123
0.257 0.173 -0.119
0.258 0.177 -0.120
0.257 0.180 -0.120
0.254 0.180 -0.119
0.253 0.183 -0.119
0.245 0.181 -0.115
0.272 0.204 -0.129
0.275 0.211 -0.131
0.277 0.216 -0.132
0.259 0.205 -0.124
0.254 0.205 -0.122
0.247 0.203 -0.119
0.235 0.196 -0.114
0.224 0.190 -0.109
0.224 0.194 -0.110
0.227 0.200 -0.112
0.228 0.205 -0.113
0.227 0.207 -0.113
0.228 0.212 -0.114
0.232 0.219 -0.116
0.221 0.212 -0.112
0.220 0.215 -0.112
0.216 0.215 -0.110
0.214 0.216 -0.109
0.209 0.214 -0.107
0.236 0.267 -0.125
0.224 0.258 -0.120
0.323 -0.339 -0.161
0.324 -0.334 -0.160
0.328 -0.333 -0.161
0.335 -0.335 -0.164
0.336 -0.331 -0.164
0.330 -0.319 -0.160
0.328 -0.313 -0.159
0.331 -0.310 -0.159
0.331 -0.305 -0.158
0.332 -0.301 -0.158
0.332 -0.297 -0.158
0.330 -0.290 -0.156
0.329 -0.285 -0.155
0.331 -0.282 -0.155
0.331 -0.278 -0.155
0.330 -0.272 -0.154
0.330 -0.268 -0.153
0.329 -0.262 -0.152
0.329 -0.258 -0.151
0.325 -0.251 -0.149
0.324 -0.245 -0.148
0.323 -0.240 -0.147
0.325 -0.238 -0.148
0.318 -0.229 -0.144
0.315 -0.223 -0.142
0.316 -0.219 -0.142
0.312 -0.213 -0.140
0.309 -0.207 -0.138
0.209 -0.130 -0.092
0.209 -0.128 -0.092
0.212 -0.127 -0.093
0.301 -0.173 -0.132
0.304 -0.172 -0.133
0.303 -0.168 -0.132
0.303 -0.165 -0.132
0.307 -0.163 -0.133
0.311 -0.162 -0.135
0.313 -0.160 -0.135
0.315 -0.157 -0.136
0.318 -0.156 -0.137
0.320 -0.153 -0.138
0.323 -0.151 -0.138
0.327 -0.149 -0.140
0.331 -0.148 -0.141
0.337 -0.147 -0.144
0.328 -0.126 -0.139
0.355 -0.133 -0.150
0.359 -0.131 -0.151
0.374 -0.133 -0.158
0.379 -0.131 -0.159
0.383 -0.129 -0.161
0.386 -0.126 -0.162
0.390 -0.123 -0.164
0.398 -0.122 -0.166
1.329 -0.394 -0.555
1.327 -0.380 -0.554
1.323 -0.366 -0.552
1.313 -0.351 -0.547
1.309 -0.337 -0.545
0.388 -0.078 -0.161
0.303 -0.055 -0.126
0.291 -0.050 -0.120
0.293 -0.048 -0.121
0.305 -0.047 -0.126
0.309 -0.044 -0.127
0.305 -0.041 -0.126
0.300 -0.038 -0.124
0.291 -0.034 -0.120
0.286 -0.030 -0.118
0.310 -0.030 -0.128
0.308 -0.027 -0.127
0.309 -0.024 -0.127
0.317 -0.022 -0.130
0.318 -0.019 -0.131
0.313 -0.016 -0.129
0.306 -0.013 -0.126
0.307 -0.010 -0.126
0.306 -0.007 -0.126
0.310 -0.004 -0.127
0.308 -0.001 -0.127
0.293 0.001 -0.120
0.299 0.004 -0.123
0.298 0.007 -0.122
0.298 0.010 -0.123
0.308 0.013 -0.127
0.321 0.016 -0.132
0.334 0.020 -0.138
0.332 0.026 -0.137
0.343 0.030 -0.142
0.333 0.033 -0.137
0.322 0.038 -0.133
0.328 0.041 -0.136
0.319 0.043 -0.132
0.342 0.063 -0.142
0.329 0.063 -0.136
0.349 0.070 -0.145
0.347 0.073 -0.144
0.334 0.074 -0.139
0.324 0.075 -0.135
0.325 0.078 -0.135
0.334 0.084 -0.139
0.352 0.092 -0.147
0.352 0.095 -0.147
0.343 0.096 -0.144
0.337 0.097 -0.141
0.345 0.124 -0.146
0.351 0.130 -0.149
0.344 0.149 -0.148
0.313 0.159 -0.136
0.312 0.162 -0.136
0.309 0.164 -0.135
0.299 0.162 -0.131
0.295 0.163 -0.130
0.288 0.162 -0.127
0.282 0.162 -0.125
0.282 0.166 -0.125
0.280 0.168 -0.124
0.277 0.169 -0.124
0.274 0.171 -0.122
0.271 0.172 -0.122
0.277 0.179 -0.124
0.273 0.180 -0.123
0.267 0.179 -0.121
0.266 0.182 -0.121
0.262 0.183 -0.119
0.260 0.185 -0.119
0.260 0.188 -0.119
0.253 0.186 -0.117
0.271 0.203 -0.125
0.279 0.213 -0.129
0.285 0.221 -0.133
0.264 0.209 -0.124
0.263 0.211 -0.123
0.239 0.199 -0.113
0.229 0.194 -0.109
0.227 0.196 -0.109
0.236 0.207 -0.113
0.237 0.212 -0.114
0.238 0.217 -0.115
0.239 0.225 -0.117
0.234 0.224 -0.115
0.228 0.222 -0.112
0.228 0.225 -0.113
0.213 0.215 -0.106
0.216 0.221 -0.108
0.338 -0.370 -0.166
0.332 -0.358 -0.162
0.333 -0.353 -0.162
0.334 -0.349 -0.162
0.332 -0.342 -0.160
0.335 -0.339 -0.161
0.338 -0.337 -0.161
0.338 -0.332 -0.161
0.334 -0.323 -0.158
0.332 -0.316 -0.157
0.331 -0.309 -0.155
0.330 -0.304 -0.154
0.330 -0.299 -0.153
0.330 -0.294 -0.153
0.328 -0.288 -0.151
0.325 -0.280 -0.149
0.326 -0.277 -0.149
0.331 -0.277 -0.151
0.329 -0.271 -0.149
0.324 -0.262 -0.147
0.329 -0.262 -0.148
0.326 -0.255 -0.146
0.321 -0.247 -0.144
0.322 -0.243 -0.144
0.324 -0.240 -0.144
0.316 -0.231 -0.140
0.312 -0.224 -0.138
0.311 -0.220 -0.137
0.315 -0.218 -0.138
0.312 -0.213 -0.137
0.306 -0.205 -0.134
0.209 -0.130 -0.090
0.208 -0.127 -0.089
0.207 -0.124 -0.089
0.215 -0.127 -0.092
0.294 -0.169 -0.126
0.300 -0.169 -0.128
0.300 -0.166 -0.127
0.301 -0.163 -0.128
0.304 -0.162 -0.129
0.308 -0.160 -0.130
0.311 -0.158 -0.131
0.314 -0.157 -0.132
0.318 -0.156 -0.134
0.323 -0.154 -0.135
0.323 -0.151 -0.135
0.325 -0.149 -0.136
0.327 -0.146 -0.136
0.334 -0.146 -0.139
0.352 -0.132 -0.145
0.360 -0.131 -0.148
0.366 -0.130 -0.150
0.379 -0.131 -0.156
0.383 -0.128 -0.157
0.385 -0.125 -0.157
0.390 -0.123 -0.159
0.397 -0.121 -0.162
0.407 -0.120 -0.166
1.313 -0.363 -0.534
1.315 -0.351 -0.534
0.389 -0.078 -0.157
0.310 -0.056 -0.125
0.295 -0.051 -0.119
0.290 -0.047 -0.117
0.302 -0.046 -0.122
0.306 -0.044 -0.123
0.306 -0.041 -0.123
0.303 -0.038 -0.122
0.306 -0.035 -0.123
0.290 -0.031 -0.117
0.298 -0.029 -0.120
0.308 -0.027 -0.124
0.303 -0.024 -0.122
0.308 -0.021 -0.124
0.313 -0.019 -0.126
0.315 -0.016 -0.126
0.312 -0.013 -0.125
0.313 -0.010 -0.126
0.311 -0.007 -0.125
0.306 -0.004 -0.123
0.302 -0.001 -0.121
0.310 0.002 -0.124
0.304 0.004 -0.122
0.316 0.007 -0.127
0.315 0.010 -0.127
0.318 0.013 -0.128
0.332 0.017 -0.133
0.347 0.021 -0.139
0.328 0.023 -0.132
0.335 0.027 -0.135
0.337 0.030 -0.135
0.333 0.036 -0.134
0.339 0.039 -0.136
0.325 0.044 -0.131
0.334 0.051 -0.135
0.332 0.064 -0.134
0.327 0.069 -0.133
0.330 0.073 -0.134
0.327 0.075 -0.133
0.329 0.079 -0.134
0.337 0.084 -0.137
0.357 0.093 -0.146
0.349 0.097 -0.142
0.331 0.095 -0.135
0.315 0.094 -0.129
0.311 0.096 -0.127
0.315 0.100 -0.130
0.327 0.107 -0.134
0.330 0.112 -0.136
0.339 0.118 -0.140
0.343 0.123 -0.142
0.349 0.129 -0.144
0.327 0.141 -0.137
0.323 0.143 -0.135
0.324 0.147 -0.136
0.316 0.146 -0.133
0.307 0.145 -0.130
0.308 0.149 -0.130
0.298 0.148 -0.126
0.299 0.151 -0.127
0.305 0.158 -0.130
0.301 0.159 -0.128
0.297 0.160 -0.127
0.289 0.159 -0.124
0.284 0.160 -0.122
0.284 0.163 -0.122
0.284 0.166 -0.123
0.284 0.169 -0.123
0.281 0.171 -0.122
0.278 0.173 -0.121
0.282 0.179 -0.123
0.280 0.181 -0.123
0.276 0.181 -0.121
0.274 0.183 -0.121
0.269 0.184 -0.119
0.268 0.186 -0.119
0.267 0.189 -0.119
0.263 0.190 -0.118
0.278 0.208 -0.125
0.271 0.218 -0.124
0.236 0.203 -0.110
0.238 0.209 -0.111
0.247 0.220 -0.116
0.335 -0.399 -0.165
0.333 -0.391 -0.163
0.335 -0.388 -0.163
0.332 -0.373 -0.160
0.341 -0.378 -0.164
0.339 -0.369 -0.162
0.336 -0.361 -0.160
0.334 -0.354 -0.158
0.333 -0.347 -0.157
0.335 -0.344 -0.157
0.335 -0.338 -0.157
0.336 -0.334 -0.156
0.337 -0.330 -0.156
0.335 -0.323 -0.155
0.330 -0.313 -0.151
0.327 -0.305 -0.149
0.326 -0.299 -0.148
0.325 -0.294 -0.147
0.328 -0.292 -0.148
0.327 -0.286 -0.147
0.323 -0.278 -0.145
0.322 -0.273 -0.144
0.324 -0.270 -0.144
0.324 -0.265 -0.143
0.324 -0.262 -0.143
0.324 -0.257 -0.142
0.322 -0.251 -0.141
0.320 -0.245 -0.140
0.317 -0.239 -0.138
0.316 -0.234 -0.137
0.314 -0.229 -0.136
0.313 -0.224 -0.135
0.312 -0.219 -0.134
0.310 -0.214 -0.133
0.310 -0.211 -0.132
0.308 -0.206 -0.131
0.212 -0.131 -0.089
0.208 -0.126 -0.087
0.212 -0.126 -0.089
0.214 -0.125 -0.089
0.263 -0.143 -0.109
0.301 -0.160 -0.124
0.305 -0.159 -0.126
0.308 -0.157 -0.127
0.313 -0.156 -0.128
0.317 -0.155 -0.130
0.321 -0.153 -0.131
0.323 -0.151 -0.132
0.326 -0.148 -0.133
0.329 -0.147 -0.134
0.332 -0.144 -0.135
0.353 -0.132 -0.142
0.363 -0.132 -0.146
0.370 -0.131 -0.148
0.375 -0.129 -0.150
0.383 -0.128 -0.153
0.384 -0.125 -0.153
0.388 -0.122 -0.155
0.394 -0.120 -0.157
0.406 -0.120 -0.162
0.416 -0.119 -0.165
1.303 -0.347 -0.517
1.312 -0.337 -0.520
0.375 -0.075 -0.148
0.300 -0.051 -0.118
0.292 -0.047 -0.115
0.292 -0.045 -0.115
0.303 -0.044 -0.119
0.309 -0.041 -0.121
0.307 -0.038 -0.121
0.300 -0.035 -0.118
0.294 -0.031 -0.115
0.296 -0.029 -0.116
0.299 -0.026 -0.117
0.301 -0.024 -0.118
0.306 -0.021 -0.120
0.309 -0.019 -0.121
0.310 -0.016 -0.121
0.310 -0.013 -0.122
0.317 -0.010 -0.124
0.319 -0.007 -0.125
0.311 -0.004 -0.122
0.316 -0.001 -0.124
0.310 0.002 -0.121
0.320 0.005 -0.125
0.331 0.008 -0.130
0.328 0.014 -0.129
0.331 0.020 -0.130
0.328 0.023 -0.128
0.340 0.030 -0.133
0.328 0.032 -0.129
0.342 0.037 -0.134
0.345 0.040 -0.136
0.337 0.042 -0.132
0.329 0.044 -0.130
0.332 0.048 -0.131
0.327 0.050 -0.129
0.317 0.052 -0.125
0.322 0.059 -0.127
0.330 0.063 -0.130
0.334 0.067 -0.132
0.346 0.086 -0.137
0.340 0.088 -0.135
0.352 0.095 -0.140
0.343 0.095 -0.137
0.322 0.093 -0.128
0.314 0.097 -0.126
0.328 0.104 -0.132
0.324 0.106 -0.130
0.345 0.117 -0.139
0.346 0.120 -0.139
0.353 0.133 -0.143
0.340 0.132 -0.138
0.333 0.133 -0.135
0.342 0.140 -0.139
0.322 0.135 -0.131
0.318 0.137 -0.130
0.326 0.144 -0.133
0.319 0.144 -0.130
0.310 0.143 -0.127
0.307 0.145 -0.126
0.308 0.149 -0.127
0.306 0.151 -0.126
0.301 0.152 -0.125
0.299 0.154 -0.124
0.296 0.156 -0.123
0.294 0.158 -0.123
0.295 0.162 -0.123
0.290 0.163 -0.122
0.292 0.167 -0.123
0.293 0.171 -0.123
0.294 0.175 -0.124
0.286 0.174 -0.121
0.286 0.177 -0.122
0.286 0.181 -0.122
0.289 0.186 -0.124
0.281 0.188 -0.121
0.333 -0.408 -0.161
0.335 -0.405 -0.161
0.339 -0.404 -0.163
0.341 -0.399 -0.163
0.341 -0.394 -0.162
0.339 -0.386 -0.160
0.334 -0.375 -0.157
0.337 -0.373 -0.158
0.339 -0.369 -0.158
0.337 -0.362 -0.157
0.332 -0.350 -0.153
0.330 -0.343 -0.152
0.331 -0.339 -0.151
0.329 -0.332 -0.150
0.329 -0.327 -0.149
0.333 -0.325 -0.150
0.331 -0.318 -0.149
0.324 -0.307 -0.145
0.322 -0.300 -0.143
0.323 -0.296 -0.143
0.324 -0.292 -0.143
0.324 -0.288 -0.143
0.324 -0.283 -0.142
0.321 -0.276 -0.140
0.320 -0.270 -0.139
0.320 -0.267 -0.139
0.321 -0.263 -0.138
0.321 -0.259 -0.138
0.321 -0.254 -0.137
0.320 -0.249 -0.136
0.319 -0.244 -0.135
0.316 -0.238 -0.134
0.312 -0.231 -0.132
0.313 -0.227 -0.132
0.315 -0.225 -0.132
0.312 -0.219 -0.131
0.308 -0.213 -0.129
0.308 -0.209 -0.128
0.307 -0.205 -0.127
0.299 -0.195 -0.124
0.217 -0.134 -0.089
0.207 -0.126 -0.085
0.208 -0.124 -0.085
0.212 -0.124 -0.086
0.247 -0.136 -0.100
0.251 -0.136 -0.101
0.261 -0.138 -0.105
0.300 -0.156 -0.121
0.308 -0.157 -0.123
0.311 -0.155 -0.124
0.315 -0.153 -0.126
0.321 -0.153 -0.128
0.324 -0.151 -0.129
0.326 -0.148 -0.129
0.327 -0.145 -0.129
0.337 -0.146 -0.133
0.295 -0.122 -0.116
0.359 -0.134 -0.141
0.365 -0.133 -0.143
0.369 -0.130 -0.144
0.372 -0.128 -0.145
0.378 -0.126 -0.147
0.388 -0.126 -0.151
0.389 -0.122 -0.151
0.393 -0.120 -0.153
0.398 -0.118 -0.155
1.289 -0.343 -0.498
1.320 -0.339 -0.510
0.372 -0.078 -0.143
0.370 -0.074 -0.142
0.312 -0.056 -0.120
0.296 -0.051 -0.113
0.291 -0.047 -0.112
0.296 -0.045 -0.113
0.304 -0.044 -0.117
0.310 -0.042 -0.119
0.307 -0.038 -0.117
0.300 -0.035 -0.115
0.297 -0.032 -0.114
0.293 -0.028 -0.112
0.298 -0.026 -0.114
0.300 -0.023 -0.114
0.306 -0.021 -0.117
0.303 -0.018 -0.116
0.300 -0.015 -0.115
0.310 -0.013 -0.118
0.319 -0.010 -0.122
0.321 -0.007 -0.123
0.321 -0.004 -0.123
0.313 -0.001 -0.120
0.314 0.002 -0.120
0.327 0.008 -0.125
0.337 0.011 -0.129
0.328 0.014 -0.125
0.330 0.017 -0.126
0.329 0.020 -0.126
0.334 0.023 -0.128
0.339 0.027 -0.130
0.331 0.029 -0.127
0.329 0.032 -0.126
0.338 0.036 -0.130
0.336 0.042 -0.129
0.336 0.045 -0.129
0.314 0.054 -0.121
0.317 0.058 -0.122
0.333 0.064 -0.128
0.331 0.067 -0.128
0.324 0.074 -0.125
0.312 0.075 -0.121
0.350 0.090 -0.136
0.337 0.090 -0.131
0.339 0.094 -0.132
0.328 0.094 -0.127
0.324 0.099 -0.126
0.328 0.104 -0.128
0.350 0.122 -0.137
0.350 0.125 -0.137
0.352 0.129 -0.139
0.353 0.133 -0.139
0.349 0.135 -0.138
0.334 0.133 -0.132
0.327 0.134 -0.130
0.323 0.135 -0.128
0.321 0.138 -0.128
0.318 0.140 -0.127
0.317 0.143 -0.127
0.308 0.142 -0.123
0.309 0.146 -0.124
0.311 0.150 -0.125
0.310 0.153 -0.125
0.302 0.152 -0.122
0.297 0.153 -0.120
0.296 0.156 -0.120
0.298 0.160 -0.121
0.300 0.164 -0.122
0.302 0.169 -0.123
0.299 0.171 -0.122
0.306 0.179 -0.126
0.334 -0.431 -0.160
0.338 -0.431 -0.161
0.341 -0.428 -0.162
0.342 -0.423 -0.162
0.339 -0.415 -0.160
0.340 -0.410 -0.159
0.339 -0.402 -0.158
0.341 -0.399 -0.158
0.343 -0.395 -0.159
0.340 -0.386 -0.156
0.337 -0.377 -0.154
0.335 -0.369 -0.153
0.337 -0.366 -0.153
0.334 -0.357 -0.151
0.327 -0.345 -0.147
0.327 -0.339 -0.146
0.324 -0.332 -0.145
0.325 -0.327 -0.144
0.327 -0.324 -0.144
0.325 -0.317 -0.143
0.325 -0.312 -0.142
0.325 -0.307 -0.141
0.322 -0.299 -0.140
0.319 -0.292 -0.138
0.324 -0.292 -0.139
0.322 -0.286 -0.138
0.323 -0.282 -0.138
0.318 -0.273 -0.135
0.318 -0.269 -0.135
0.318 -0.264 -0.134
0.318 -0.260 -0.133
0.317 -0.255 -0.133
0.317 -0.251 -0.132
0.317 -0.247 -0.132
0.316 -0.242 -0.131
0.313 -0.235 -0.129
0.310 -0.229 -0.128
0.312 -0.226 -0.128
0.310 -0.221 -0.127
0.308 -0.216 -0.126
0.305 -0.210 -0.124
0.305 -0.207 -0.124
0.304 -0.202 -0.123
0.300 -0.196 -0.121
0.217 -0.134 -0.087
0.208 -0.126 -0.083
0.208 -0.124 -0.083
0.208 -0.122 -0.083
0.219 -0.126 -0.087
0.245 -0.137 -0.097
0.248 -0.136 -0.098
0.247 -0.133 -0.097
0.250 -0.132 -0.098
0.308 -0.156 -0.120
0.312 -0.155 -0.121
0.316 -0.154 -0.123
0.322 -0.153 -0.125
0.324 -0.151 -0.126
0.326 -0.148 -0.126
0.328 -0.146 -0.127
0.330 -0.143 -0.127
0.357 -0.133 -0.136
0.364 -0.132 -0.139
0.368 -0.130 -0.140
0.371 -0.127 -0.141
0.376 -0.125 -0.143
0.390 -0.126 -0.148
0.393 -0.124 -0.149
0.394 -0.120 -0.149
0.404 -0.119 -0.153
0.421 -0.120 -0.159
0.434 -0.119 -0.164
0.383 -0.084 -0.144
0.383 -0.080 -0.144
0.376 -0.075 -0.141
0.288 -0.049 -0.108
0.291 -0.047 -0.109
0.298 -0.045 -0.111
0.304 -0.044 -0.114
0.312 -0.042 -0.117
0.311 -0.039 -0.116
0.304 -0.035 -0.113
0.297 -0.032 -0.111
0.298 -0.029 -0.111
0.296 -0.026 -0.110
0.309 -0.024 -0.115
0.311 -0.021 -0.116
0.288 -0.017 -0.107
0.288 -0.015 -0.107
0.301 -0.012 -0.112
0.329 -0.011 -0.122
0.326 -0.007 -0.121
0.317 -0.004 -0.118
0.310 0.001 -0.115
0.315 0.004 -0.117
0.326 0.008 -0.121
0.336 0.011 -0.125
0.340 0.014 -0.126
0.317 0.016 -0.118
0.320 0.019 -0.119
0.332 0.023 -0.124
0.335 0.026 -0.125
0.326 0.029 -0.122
0.321 0.031 -0.120
0.325 0.035 -0.121
0.327 0.038 -0.122
0.328 0.041 -0.123
0.327 0.044 -0.122
0.323 0.047 -0.121
0.318 0.049 -0.119
0.323 0.059 -0.121
0.325 0.062 -0.122
0.323 0.065 -0.121
0.330 0.072 -0.124
0.322 0.074 -0.121
0.323 0.077 -0.122
0.342 0.085 -0.129
0.333 0.086 -0.126
0.332 0.089 -0.126
0.329 0.091 -0.125
0.339 0.097 -0.128
0.330 0.098 -0.125
0.328 0.101 -0.125
0.336 0.106 -0.128
0.333 0.109 -0.127
0.343 0.115 -0.131
0.351 0.129 -0.135
0.352 0.133 -0.135
0.346 0.134 -0.133
0.331 0.131 -0.127
0.330 0.135 -0.127
0.332 0.139 -0.129
0.326 0.140 -0.126
0.321 0.141 -0.124
0.318 0.143 -0.124
0.317 0.146 -0.124
0.316 0.149 -0.123
0.319 0.153 -0.125
0.321 0.158 -0.126
0.310 0.156 -0.122
0.304 0.157 -0.120
0.309 0.162 -0.122
0.316 -0.423 -0.149
0.320 -0.423 -0.150
0.329 -0.429 -0.154
0.337 -0.434 -0.157
0.340 -0.432 -0.158
0.342 -0.429 -0.158
0.345 -0.427 -0.159
0.340 -0.414 -0.156
0.338 -0.406 -0.154
0.340 -0.403 -0.154
0.341 -0.399 -0.154
0.340 -0.392 -0.153
0.337 -0.382 -0.151
0.331 -0.369 -0.147
0.331 -0.365 -0.147
0.330 -0.358 -0.146
0.330 -0.352 -0.145
0.328 -0.345 -0.143
0.325 -0.337 -0.142
0.324 -0.331 -0.141
0.323 -0.324 -0.139
0.325 -0.321 -0.140
0.326 -0.317 -0.139
0.325 -0.312 -0.139
0.326 -0.307 -0.138
0.324 -0.301 -0.137
0.320 -0.292 -0.134
0.319 -0.287 -0.133
0.321 -0.284 -0.134
0.318 -0.277 -0.132
0.320 -0.274 -0.132
0.315 -0.266 -0.130
0.315 -0.262 -0.129
0.316 -0.258 -0.129
0.314 -0.252 -0.128
0.313 -0.247 -0.127
0.313 -0.243 -0.127
0.311 -0.237 -0.125
