VERSION .7
FIELDS x y z
SIZE 4 4 4
TYPE F F F
COUNT 1 1 1
WIDTH     2585
HEIGHT 1
VIEWPOINT 0 0 0 1 0 0 0
POINTS     2585
DATA ascii
0.178 -0.113 0.059
0.196 -0.122 0.065
0.210 -0.129 0.070
0.212 -0.128 0.070
0.212 -0.125 0.070
0.209 -0.121 0.069
0.209 -0.119 0.069
0.211 -0.117 0.069
0.211 -0.116 0.069
0.212 -0.114 0.069
0.208 -0.109 0.068
0.208 -0.107 0.068
0.208 -0.105 0.067
0.207 -0.102 0.067
0.210 -0.101 0.068
0.209 -0.099 0.067
0.212 -0.098 0.068
0.202 -0.091 0.065
0.209 -0.092 0.067
0.211 -0.091 0.067
0.201 -0.085 0.064
0.203 -0.084 0.065
0.205 -0.082 0.065
0.206 -0.081 0.066
0.212 -0.081 0.067
0.212 -0.079 0.067
0.211 -0.076 0.067
0.211 -0.074 0.067
0.215 -0.073 0.068
0.223 -0.074 0.070
0.223 -0.072 0.070
0.231 -0.072 0.073
0.241 -0.073 0.075
0.248 -0.072 0.078
0.252 -0.071 0.079
0.256 -0.070 0.080
0.269 -0.071 0.084
0.274 -0.070 0.085
0.271 -0.066 0.084
0.266 -0.063 0.083
0.266 -0.060 0.083
0.268 -0.058 0.083
0.271 -0.056 0.084
0.268 -0.053 0.083
0.264 -0.050 0.082
0.265 -0.047 0.082
0.263 -0.045 0.081
0.259 -0.042 0.080
0.222 -0.032 0.069
0.218 -0.029 0.067
0.215 -0.027 0.066
0.214 -0.025 0.066
0.215 -0.023 0.066
0.218 -0.021 0.067
0.220 -0.019 0.068
0.269 -0.018 0.083
0.270 -0.016 0.083
0.269 -0.014 0.083
0.267 -0.011 0.082
0.269 -0.009 0.083
0.272 -0.006 0.084
0.271 -0.004 0.083
0.269 -0.001 0.083
0.268 0.001 0.083
0.271 0.004 0.083
0.283 0.006 0.087
0.287 0.009 0.088
0.284 0.012 0.087
0.281 0.014 0.087
0.258 0.015 0.079
0.257 0.018 0.079
0.265 0.021 0.082
0.278 0.024 0.086
0.273 0.026 0.084
0.273 0.029 0.084
0.272 0.031 0.084
0.275 0.034 0.085
0.277 0.037 0.086
0.280 0.040 0.087
0.279 0.042 0.087
0.277 0.045 0.086
0.278 0.047 0.086
0.281 0.051 0.087
0.281 0.053 0.087
0.275 0.055 0.086
0.266 0.055 0.083
0.258 0.056 0.080
0.236 0.054 0.074
0.222 0.053 0.069
0.225 0.056 0.070
0.235 0.060 0.074
0.239 0.064 0.075
0.256 0.070 0.080
0.270 0.077 0.085
0.277 0.082 0.087
0.278 0.085 0.088
0.280 0.088 0.088
0.274 0.089 0.087
0.255 0.085 0.081
0.246 0.085 0.078
0.245 0.087 0.078
0.245 0.089 0.078
0.245 0.092 0.078
0.244 0.094 0.078
0.244 0.096 0.078
0.242 0.098 0.077
0.242 0.101 0.078
0.247 0.105 0.079
0.248 0.108 0.080
0.246 0.110 0.079
0.246 0.112 0.079
0.246 0.115 0.080
0.245 0.117 0.080
0.245 0.120 0.080
0.246 0.123 0.080
0.248 0.127 0.081
0.244 0.127 0.080
0.242 0.129 0.080
0.242 0.132 0.080
0.244 0.135 0.081
0.245 0.139 0.081
0.245 0.142 0.081
0.247 0.146 0.082
0.247 0.148 0.083
0.248 0.152 0.083
0.246 0.154 0.083
0.242 0.154 0.082
0.240 0.155 0.081
0.241 0.159 0.082
0.249 0.168 0.085
0.247 0.169 0.084
0.240 0.167 0.082
0.240 0.171 0.083
0.240 0.174 0.083
0.244 0.180 0.085
0.245 0.184 0.085
0.246 0.188 0.086
0.243 0.189 0.085
0.231 0.183 0.082
0.208 0.174 0.075
0.203 0.172 0.073
0.201 0.174 0.073
0.199 0.174 0.072
0.202 0.181 0.074
0.201 0.182 0.074
0.201 0.186 0.074
0.199 0.187 0.074
0.200 0.191 0.074
0.201 0.196 0.075
0.203 0.201 0.077
0.206 0.208 0.078
0.207 0.211 0.079
0.200 0.208 0.077
0.195 0.206 0.075
0.197 0.212 0.076
0.199 0.218 0.078
0.201 0.224 0.079
0.200 0.226 0.079
0.198 0.228 0.079
0.195 0.228 0.078
0.190 0.225 0.076
0.188 0.227 0.076
0.196 0.240 0.080
0.199 0.247 0.081
0.197 0.249 0.081
0.194 0.249 0.080
0.193 0.251 0.081
0.195 0.258 0.082
0.196 0.263 0.083
0.103 -0.140 0.044
0.103 -0.138 0.044
0.104 -0.137 0.044
0.106 -0.138 0.044
0.106 -0.137 0.044
0.105 -0.133 0.044
0.105 -0.131 0.043
0.105 -0.130 0.043
0.105 -0.128 0.043
0.105 -0.127 0.043
0.105 -0.125 0.043
0.115 -0.134 0.046
0.117 -0.135 0.047
0.111 -0.126 0.044
0.105 -0.117 0.042
0.104 -0.115 0.041
0.098 -0.106 0.038
0.100 -0.106 0.039
0.101 -0.106 0.039
0.119 -0.123 0.046
0.111 -0.113 0.043
0.108 -0.108 0.041
0.107 -0.106 0.041
0.119 -0.116 0.045
0.241 -0.227 0.091
0.244 -0.225 0.091
0.245 -0.223 0.091
0.247 -0.222 0.092
0.249 -0.220 0.092
0.249 -0.216 0.091
0.250 -0.213 0.091
0.249 -0.209 0.091
0.250 -0.206 0.091
0.243 -0.198 0.088
0.242 -0.194 0.087
0.239 -0.188 0.086
0.207 -0.158 0.074
0.197 -0.148 0.070
0.197 -0.145 0.070
0.199 -0.143 0.070
0.201 -0.143 0.071
0.204 -0.143 0.072
0.205 -0.141 0.071
0.195 -0.132 0.068
0.188 -0.124 0.065
0.181 -0.118 0.063
0.191 -0.122 0.066
0.203 -0.127 0.070
0.208 -0.128 0.071
0.211 -0.128 0.072
0.212 -0.126 0.072
0.211 -0.123 0.072
0.209 -0.119 0.071
0.212 -0.118 0.072
0.212 -0.116 0.072
0.212 -0.114 0.071
0.211 -0.111 0.071
0.205 -0.106 0.069
0.204 -0.103 0.068
0.204 -0.101 0.068
0.205 -0.099 0.068
0.209 -0.099 0.069
0.204 -0.094 0.068
0.211 -0.095 0.070
0.205 -0.091 0.068
0.210 -0.091 0.069
0.212 -0.089 0.070
0.204 -0.084 0.067
0.205 -0.082 0.067
0.205 -0.080 0.067
0.207 -0.079 0.068
0.208 -0.077 0.068
0.206 -0.075 0.067
0.211 -0.074 0.069
0.215 -0.073 0.070
0.219 -0.073 0.071
0.230 -0.074 0.074
0.228 -0.071 0.074
0.238 -0.072 0.077
0.246 -0.072 0.079
0.250 -0.071 0.081
0.255 -0.070 0.082
0.266 -0.070 0.086
0.270 -0.069 0.087
0.270 -0.066 0.087
0.267 -0.063 0.086
0.266 -0.060 0.085
0.267 -0.058 0.086
0.266 -0.055 0.085
0.262 -0.052 0.084
0.263 -0.050 0.084
0.263 -0.047 0.084
0.262 -0.045 0.084
0.261 -0.042 0.083
0.262 -0.040 0.083
0.263 -0.038 0.084
0.265 -0.035 0.085
0.262 -0.033 0.084
0.247 -0.028 0.078
0.220 -0.023 0.070
0.218 -0.021 0.069
0.219 -0.019 0.070
0.220 -0.017 0.070
0.221 -0.015 0.070
0.262 -0.013 0.083
0.262 -0.011 0.083
0.260 -0.008 0.083
0.265 -0.006 0.084
0.268 -0.004 0.085
0.268 -0.001 0.085
0.271 0.001 0.086
0.279 0.004 0.089
0.282 0.006 0.090
0.284 0.009 0.090
0.277 0.011 0.088
0.255 0.013 0.081
0.258 0.015 0.082
0.259 0.018 0.082
0.259 0.020 0.082
0.262 0.023 0.083
0.269 0.026 0.086
0.264 0.028 0.084
0.266 0.031 0.085
0.268 0.033 0.085
0.274 0.037 0.087
0.276 0.040 0.088
0.279 0.043 0.089
0.276 0.045 0.088
0.278 0.048 0.089
0.277 0.050 0.089
0.276 0.052 0.088
0.269 0.054 0.086
0.263 0.055 0.084
0.246 0.054 0.079
0.221 0.050 0.071
0.220 0.052 0.071
0.242 0.060 0.078
0.243 0.062 0.079
0.245 0.065 0.079
0.259 0.071 0.084
0.271 0.077 0.088
0.272 0.080 0.088
0.272 0.083 0.088
0.272 0.086 0.088
0.266 0.086 0.087
0.257 0.086 0.084
0.245 0.085 0.080
0.244 0.086 0.080
0.244 0.089 0.080
0.243 0.091 0.080
0.242 0.093 0.080
0.241 0.095 0.079
0.241 0.098 0.080
0.243 0.101 0.080
0.244 0.104 0.081
0.244 0.106 0.081
0.242 0.108 0.081
0.241 0.110 0.080
0.242 0.113 0.081
0.241 0.116 0.081
0.238 0.117 0.080
0.234 0.117 0.079
0.233 0.119 0.078
0.236 0.123 0.080
0.238 0.127 0.081
0.239 0.130 0.081
0.240 0.133 0.082
0.241 0.137 0.082
0.244 0.141 0.084
0.245 0.145 0.084
0.245 0.147 0.084
0.242 0.148 0.084
0.242 0.152 0.084
0.239 0.153 0.083
0.238 0.155 0.083
0.239 0.158 0.084
0.246 0.166 0.087
0.241 0.165 0.085
0.234 0.164 0.083
0.236 0.168 0.084
0.241 0.175 0.086
0.250 0.185 0.089
0.245 0.184 0.088
0.239 0.183 0.086
0.233 0.181 0.084
0.215 0.171 0.078
0.204 0.165 0.075
0.197 0.162 0.072
0.199 0.166 0.073
0.198 0.169 0.073
0.197 0.170 0.073
0.199 0.175 0.074
0.197 0.176 0.074
0.202 0.183 0.076
0.199 0.184 0.075
0.200 0.188 0.076
0.202 0.194 0.078
0.203 0.198 0.078
0.202 0.200 0.078
0.203 0.205 0.079
0.203 0.208 0.080
0.200 0.209 0.079
0.197 0.209 0.078
0.197 0.212 0.079
0.197 0.216 0.079
0.197 0.220 0.080
0.195 0.221 0.080
0.194 0.224 0.080
0.193 0.226 0.080
0.193 0.230 0.080
0.196 0.237 0.082
0.197 0.242 0.083
0.197 0.246 0.083
0.194 0.245 0.082
0.191 0.245 0.082
0.189 0.246 0.081
0.189 0.251 0.082
0.188 0.253 0.082
0.103 -0.139 0.045
0.104 -0.138 0.045
0.105 -0.137 0.045
0.105 -0.136 0.045
0.106 -0.135 0.045
0.105 -0.131 0.045
0.105 -0.130 0.045
0.106 -0.129 0.045
0.106 -0.128 0.045
0.121 -0.144 0.051
0.120 -0.140 0.050
0.106 -0.122 0.044
0.103 -0.117 0.043
0.105 -0.117 0.043
0.098 -0.108 0.040
0.100 -0.108 0.040
0.100 -0.106 0.040
0.101 -0.106 0.040
0.114 -0.118 0.045
0.107 -0.109 0.043
0.105 -0.105 0.041
0.103 -0.102 0.041
0.110 -0.107 0.043
0.237 -0.223 0.092
0.239 -0.221 0.092
0.239 -0.218 0.092
0.240 -0.215 0.092
0.241 -0.213 0.092
0.246 -0.214 0.093
0.242 -0.207 0.091
0.240 -0.202 0.090
0.239 -0.198 0.089
0.241 -0.196 0.090
0.238 -0.191 0.088
0.233 -0.183 0.086
0.203 -0.155 0.074
0.198 -0.148 0.072
0.199 -0.147 0.073
0.202 -0.146 0.073
0.201 -0.143 0.073
0.203 -0.142 0.073
0.202 -0.139 0.073
0.188 -0.127 0.067
0.186 -0.123 0.066
0.188 -0.123 0.067
0.202 -0.129 0.072
0.203 -0.127 0.072
0.206 -0.127 0.073
0.207 -0.125 0.073
0.209 -0.124 0.073
0.208 -0.121 0.073
0.211 -0.121 0.074
0.211 -0.118 0.074
0.212 -0.116 0.074
0.213 -0.115 0.074
0.208 -0.110 0.072
0.206 -0.106 0.071
0.203 -0.102 0.070
0.202 -0.100 0.069
0.204 -0.099 0.070
0.207 -0.098 0.071
0.207 -0.096 0.071
0.207 -0.094 0.071
0.211 -0.094 0.072
0.212 -0.092 0.072
0.208 -0.088 0.071
0.205 -0.084 0.069
0.205 -0.083 0.069
0.205 -0.080 0.069
0.203 -0.078 0.069
0.204 -0.076 0.069
0.210 -0.076 0.071
0.212 -0.075 0.071
0.218 -0.074 0.073
0.224 -0.074 0.075
0.229 -0.074 0.077
0.235 -0.073 0.078
0.237 -0.072 0.079
0.242 -0.071 0.081
0.248 -0.070 0.082
0.253 -0.069 0.084
0.259 -0.069 0.086
0.263 -0.067 0.087
0.263 -0.065 0.087
0.263 -0.062 0.087
0.264 -0.060 0.087
0.262 -0.057 0.087
0.257 -0.054 0.085
0.257 -0.051 0.085
0.259 -0.049 0.085
0.259 -0.047 0.085
0.258 -0.044 0.085
0.260 -0.042 0.085
0.260 -0.040 0.086
0.262 -0.037 0.086
0.262 -0.035 0.086
0.254 -0.032 0.083
0.253 -0.029 0.083
0.254 -0.027 0.083
0.254 -0.024 0.083
0.224 -0.020 0.074
0.220 -0.017 0.072
0.220 -0.015 0.072
0.221 -0.013 0.072
0.221 -0.011 0.072
0.254 -0.010 0.083
0.256 -0.008 0.084
0.259 -0.006 0.085
0.265 -0.004 0.087
0.274 -0.001 0.090
0.281 0.001 0.092
0.279 0.004 0.091
0.279 0.006 0.091
0.274 0.009 0.090
0.256 0.011 0.084
0.247 0.013 0.081
0.251 0.015 0.082
0.265 0.018 0.087
0.263 0.021 0.086
0.260 0.023 0.085
0.258 0.025 0.085
0.256 0.027 0.084
0.261 0.030 0.086
0.267 0.033 0.088
0.273 0.037 0.090
0.275 0.039 0.091
0.277 0.042 0.091
0.273 0.044 0.090
0.273 0.047 0.090
0.271 0.049 0.090
0.265 0.050 0.088
0.262 0.052 0.087
0.255 0.053 0.085
0.233 0.051 0.077
0.220 0.050 0.073
0.230 0.055 0.076
0.248 0.061 0.083
0.255 0.066 0.085
0.254 0.068 0.085
0.258 0.071 0.086
0.264 0.076 0.088
0.266 0.079 0.089
0.262 0.080 0.088
0.259 0.082 0.087
0.258 0.084 0.087
0.252 0.084 0.085
0.241 0.083 0.081
0.242 0.086 0.082
0.241 0.088 0.082
0.239 0.090 0.081
0.237 0.091 0.080
0.237 0.094 0.080
0.237 0.096 0.081
0.238 0.099 0.081
0.236 0.101 0.081
0.238 0.104 0.082
0.236 0.106 0.081
0.236 0.108 0.081
0.236 0.111 0.081
0.236 0.113 0.081
0.233 0.114 0.081
0.230 0.116 0.080
0.230 0.118 0.080
0.231 0.121 0.081
0.234 0.125 0.082
0.234 0.128 0.082
0.236 0.131 0.083
0.240 0.136 0.084
0.239 0.139 0.084
0.239 0.141 0.085
0.237 0.143 0.084
0.238 0.146 0.085
0.237 0.148 0.085
0.234 0.150 0.084
0.235 0.153 0.084
0.236 0.157 0.085
0.245 0.165 0.089
0.236 0.162 0.086
0.231 0.162 0.084
0.236 0.168 0.086
0.251 0.183 0.092
0.250 0.185 0.092
0.240 0.181 0.089
0.231 0.177 0.086
0.217 0.169 0.081
0.208 0.165 0.078
0.200 0.161 0.075
0.196 0.161 0.074
0.196 0.164 0.075
0.196 0.167 0.075
0.199 0.172 0.076
0.197 0.173 0.076
0.201 0.180 0.078
0.199 0.182 0.078
0.198 0.184 0.078
0.199 0.188 0.078
0.203 0.195 0.080
0.204 0.199 0.081
0.202 0.201 0.081
0.201 0.203 0.081
0.197 0.203 0.080
0.197 0.206 0.080
0.197 0.210 0.081
0.194 0.209 0.080
0.195 0.214 0.081
0.193 0.215 0.081
0.192 0.218 0.081
0.193 0.222 0.081
0.192 0.225 0.082
0.191 0.227 0.082
0.193 0.234 0.083
0.194 0.239 0.084
0.193 0.241 0.084
0.191 0.243 0.084
0.187 0.241 0.083
0.185 0.242 0.082
0.185 0.246 0.082
0.184 0.248 0.083
0.104 -0.139 0.047
0.104 -0.138 0.047
0.104 -0.137 0.046
0.105 -0.136 0.047
0.106 -0.135 0.047
0.105 -0.132 0.046
0.105 -0.131 0.046
0.108 -0.133 0.047
0.120 -0.144 0.052
0.120 -0.143 0.052
0.108 -0.127 0.046
0.103 -0.118 0.044
0.105 -0.119 0.044
0.097 -0.109 0.041
0.098 -0.108 0.041
0.099 -0.107 0.041
0.099 -0.106 0.041
0.102 -0.108 0.042
0.106 -0.110 0.043
0.107 -0.109 0.044
0.103 -0.104 0.042
0.103 -0.102 0.042
0.108 -0.105 0.044
0.117 -0.112 0.047
0.233 -0.216 0.092
0.234 -0.214 0.093
0.234 -0.211 0.092
0.235 -0.208 0.092
0.235 -0.205 0.092
0.237 -0.203 0.092
0.238 -0.200 0.092
0.235 -0.195 0.090
0.232 -0.189 0.089
0.232 -0.186 0.089
0.228 -0.180 0.087
0.219 -0.170 0.083
0.199 -0.152 0.075
0.197 -0.147 0.074
0.201 -0.148 0.075
0.207 -0.150 0.077
0.209 -0.149 0.078
0.199 -0.139 0.074
0.189 -0.130 0.070
0.187 -0.126 0.069
0.188 -0.125 0.069
0.202 -0.132 0.074
0.201 -0.129 0.074
0.202 -0.127 0.074
0.204 -0.126 0.074
0.205 -0.124 0.074
0.205 -0.122 0.074
0.206 -0.120 0.074
0.207 -0.118 0.075
0.210 -0.118 0.075
0.210 -0.116 0.075
0.210 -0.113 0.075
0.210 -0.111 0.075
0.207 -0.107 0.073
0.203 -0.103 0.072
0.204 -0.101 0.072
0.204 -0.099 0.072
0.202 -0.096 0.071
0.205 -0.095 0.072
0.206 -0.093 0.072
0.209 -0.093 0.073
0.210 -0.091 0.074
0.207 -0.088 0.072
0.205 -0.085 0.072
0.203 -0.082 0.071
0.206 -0.081 0.072
0.204 -0.078 0.071
0.206 -0.077 0.071
0.212 -0.077 0.073
0.217 -0.076 0.075
0.220 -0.075 0.076
0.224 -0.074 0.077
0.230 -0.074 0.079
0.237 -0.074 0.081
0.241 -0.073 0.083
0.242 -0.071 0.083
0.246 -0.070 0.084
0.250 -0.069 0.086
0.255 -0.068 0.087
0.257 -0.066 0.088
0.258 -0.064 0.088
0.258 -0.061 0.088
0.256 -0.058 0.087
0.253 -0.055 0.086
0.251 -0.052 0.085
0.251 -0.050 0.085
0.252 -0.048 0.085
0.253 -0.046 0.086
0.254 -0.043 0.086
0.253 -0.041 0.086
0.254 -0.039 0.086
0.256 -0.037 0.086
0.253 -0.034 0.086
0.252 -0.031 0.085
0.250 -0.029 0.085
0.250 -0.026 0.084
0.252 -0.024 0.085
0.251 -0.022 0.085
0.251 -0.020 0.085
0.228 -0.016 0.077
0.220 -0.013 0.074
0.219 -0.011 0.074
0.219 -0.009 0.074
0.255 -0.006 0.086
0.268 -0.004 0.090
0.278 -0.001 0.094
0.277 0.001 0.093
0.271 0.004 0.091
0.260 0.006 0.088
0.256 0.008 0.086
0.241 0.010 0.081
0.237 0.012 0.080
0.250 0.015 0.084
0.259 0.018 0.087
0.261 0.020 0.088
0.255 0.022 0.086
0.250 0.024 0.085
0.251 0.027 0.085
0.257 0.030 0.087
0.265 0.033 0.090
0.269 0.036 0.091
0.272 0.039 0.092
0.272 0.042 0.092
0.267 0.043 0.091
0.263 0.045 0.089
0.263 0.048 0.089
0.256 0.049 0.087
0.249 0.050 0.085
0.229 0.048 0.078
0.217 0.047 0.074
0.224 0.051 0.077
0.227 0.054 0.078
0.234 0.058 0.080
0.261 0.067 0.089
0.261 0.070 0.089
0.259 0.072 0.089
0.262 0.075 0.090
0.261 0.077 0.090
0.254 0.078 0.088
0.250 0.079 0.086
0.246 0.080 0.085
0.241 0.081 0.083
0.235 0.081 0.081
0.237 0.084 0.082
0.237 0.087 0.082
0.234 0.088 0.082
0.233 0.090 0.081
0.234 0.093 0.082
0.234 0.095 0.082
0.234 0.097 0.082
0.232 0.099 0.082
0.231 0.101 0.081
0.232 0.104 0.082
0.231 0.106 0.082
0.230 0.108 0.082
0.229 0.110 0.081
0.227 0.112 0.081
0.227 0.114 0.081
0.228 0.117 0.081
0.228 0.119 0.082
0.228 0.122 0.082
0.229 0.125 0.083
0.230 0.128 0.083
0.233 0.133 0.085
0.235 0.137 0.085
0.234 0.139 0.085
0.234 0.141 0.085
0.232 0.143 0.085
0.231 0.145 0.085
0.231 0.148 0.085
0.229 0.149 0.085
0.229 0.152 0.085
0.245 0.166 0.091
0.236 0.163 0.088
0.232 0.163 0.087
0.245 0.175 0.092
0.250 0.182 0.095
0.243 0.180 0.092
0.235 0.177 0.089
0.217 0.167 0.083
0.213 0.166 0.082
0.204 0.162 0.079
0.198 0.160 0.077
0.196 0.161 0.076
0.197 0.165 0.077
0.198 0.169 0.078
0.195 0.170 0.077
0.199 0.176 0.079
0.200 0.180 0.080
0.199 0.182 0.080
0.198 0.184 0.080
0.197 0.187 0.080
0.197 0.190 0.080
0.200 0.196 0.082
0.201 0.200 0.083
0.198 0.201 0.082
0.196 0.202 0.082
0.193 0.202 0.081
0.190 0.203 0.080
0.188 0.204 0.080
0.189 0.208 0.081
0.190 0.212 0.082
0.190 0.216 0.082
0.189 0.219 0.083
0.188 0.221 0.083
0.188 0.224 0.083
0.187 0.227 0.083
0.187 0.231 0.084
0.183 0.230 0.082
0.186 0.236 0.084
0.183 0.236 0.083
0.181 0.238 0.083
0.181 0.241 0.083
0.181 0.244 0.083
0.104 -0.140 0.048
0.104 -0.138 0.048
0.104 -0.137 0.048
0.105 -0.136 0.048
0.106 -0.136 0.048
0.110 -0.139 0.050
0.119 -0.148 0.053
0.115 -0.139 0.051
0.101 -0.121 0.045
0.101 -0.118 0.044
0.101 -0.116 0.044
0.097 -0.110 0.042
0.097 -0.109 0.042
0.097 -0.108 0.042
0.098 -0.107 0.042
0.100 -0.107 0.043
0.107 -0.113 0.045
0.104 -0.108 0.044
0.103 -0.105 0.043
0.100 -0.101 0.042
0.103 -0.103 0.043
0.107 -0.104 0.044
0.114 -0.110 0.047
0.222 -0.206 0.091
0.229 -0.210 0.093
0.228 -0.206 0.092
0.229 -0.203 0.092
0.231 -0.202 0.093
0.233 -0.200 0.093
0.234 -0.198 0.093
0.230 -0.191 0.091
0.229 -0.187 0.090
0.229 -0.184 0.090
0.227 -0.180 0.089
0.222 -0.172 0.086
0.201 -0.153 0.078
0.198 -0.149 0.077
0.203 -0.150 0.078
0.208 -0.151 0.080
0.195 -0.139 0.075
0.191 -0.134 0.073
0.189 -0.130 0.072
0.193 -0.131 0.073
0.201 -0.134 0.076
0.201 -0.131 0.076
0.202 -0.130 0.076
0.203 -0.128 0.076
0.203 -0.126 0.076
0.203 -0.123 0.076
0.203 -0.121 0.076
0.203 -0.119 0.075
0.205 -0.117 0.076
0.207 -0.116 0.076
0.207 -0.114 0.076
0.208 -0.112 0.077
0.209 -0.110 0.076
0.207 -0.107 0.076
0.204 -0.104 0.075
0.205 -0.102 0.075
0.205 -0.100 0.074
0.202 -0.096 0.073
0.204 -0.095 0.074
0.202 -0.092 0.073
0.202 -0.090 0.073
0.204 -0.088 0.073
0.207 -0.088 0.074
0.208 -0.086 0.075
0.203 -0.082 0.073
0.201 -0.079 0.072
0.207 -0.079 0.074
0.209 -0.078 0.074
0.210 -0.076 0.075
0.214 -0.076 0.076
0.219 -0.075 0.078
0.224 -0.075 0.079
0.231 -0.075 0.082
0.238 -0.075 0.084
0.243 -0.074 0.086
0.244 -0.072 0.086
0.244 -0.069 0.086
0.245 -0.068 0.086
0.250 -0.066 0.088
0.254 -0.065 0.089
0.252 -0.062 0.088
0.250 -0.059 0.088
0.250 -0.057 0.088
0.249 -0.054 0.087
0.249 -0.052 0.087
0.248 -0.049 0.086
0.247 -0.047 0.086
0.248 -0.045 0.086
0.247 -0.042 0.086
0.248 -0.040 0.086
0.247 -0.038 0.086
0.247 -0.035 0.086
0.247 -0.033 0.086
0.247 -0.031 0.086
0.246 -0.028 0.085
0.245 -0.026 0.085
0.248 -0.024 0.086
0.248 -0.022 0.086
0.245 -0.019 0.085
0.245 -0.017 0.085
0.247 -0.015 0.086
0.223 -0.011 0.077
0.218 -0.009 0.075
0.265 -0.004 0.092
0.269 -0.001 0.093
0.268 0.001 0.093
0.255 0.004 0.088
0.248 0.006 0.086
0.242 0.008 0.084
0.233 0.010 0.081
0.239 0.012 0.083
0.241 0.014 0.084
0.248 0.017 0.086
0.248 0.019 0.086
0.245 0.022 0.085
0.247 0.024 0.086
0.252 0.027 0.088
0.255 0.029 0.089
0.259 0.032 0.090
0.261 0.035 0.091
0.262 0.038 0.091
0.263 0.040 0.092
0.257 0.042 0.090
0.255 0.044 0.089
0.245 0.044 0.086
0.245 0.047 0.086
0.223 0.045 0.078
0.215 0.045 0.075
0.208 0.046 0.073
0.210 0.048 0.074
0.220 0.052 0.077
0.234 0.058 0.082
0.255 0.066 0.090
0.260 0.069 0.092
0.260 0.072 0.092
0.263 0.076 0.093
0.260 0.077 0.092
0.251 0.077 0.089
0.243 0.077 0.086
0.237 0.077 0.084
0.233 0.078 0.083
0.230 0.080 0.082
0.231 0.082 0.082
0.230 0.084 0.082
0.226 0.085 0.081
0.227 0.088 0.082
0.230 0.091 0.083
0.231 0.094 0.083
0.227 0.095 0.082
0.228 0.098 0.083
0.228 0.100 0.083
0.224 0.101 0.082
0.224 0.103 0.082
0.224 0.105 0.082
0.223 0.107 0.081
0.223 0.110 0.082
0.223 0.112 0.082
0.223 0.114 0.082
0.223 0.117 0.082
0.223 0.119 0.082
0.225 0.123 0.083
0.224 0.125 0.083
0.225 0.128 0.084
0.225 0.131 0.084
0.229 0.136 0.086
0.228 0.138 0.086
0.227 0.140 0.086
0.228 0.143 0.086
0.228 0.146 0.087
0.228 0.149 0.087
0.229 0.153 0.088
0.239 0.162 0.092
0.235 0.162 0.091
0.238 0.167 0.092
0.244 0.175 0.095
0.243 0.178 0.095
0.237 0.176 0.093
0.220 0.166 0.086
0.217 0.167 0.086
0.202 0.159 0.080
0.195 0.156 0.078
0.193 0.157 0.077
0.194 0.160 0.078
0.196 0.165 0.079
0.194 0.166 0.078
0.191 0.166 0.078
0.195 0.173 0.080
0.197 0.177 0.081
0.195 0.179 0.081
0.194 0.181 0.081
0.193 0.183 0.081
0.192 0.185 0.081
0.188 0.185 0.079
0.189 0.188 0.080
0.195 0.198 0.083
0.192 0.198 0.083
0.190 0.199 0.082
0.188 0.200 0.082
0.186 0.202 0.082
0.186 0.205 0.082
0.187 0.210 0.083
0.187 0.213 0.083
0.185 0.214 0.083
0.185 0.218 0.083
0.184 0.221 0.084
0.185 0.225 0.084
0.182 0.225 0.084
0.181 0.227 0.084
0.182 0.232 0.085
0.180 0.233 0.084
0.178 0.233 0.083
0.177 0.236 0.084
0.104 -0.138 0.049
0.104 -0.137 0.049
0.109 -0.141 0.051
0.112 -0.143 0.052
0.111 -0.140 0.051
0.109 -0.136 0.051
0.106 -0.130 0.049
0.103 -0.124 0.047
0.105 -0.126 0.048
0.098 -0.115 0.044
0.098 -0.113 0.044
0.098 -0.112 0.044
0.100 -0.113 0.045
0.109 -0.121 0.048
0.107 -0.117 0.047
0.101 -0.108 0.044
0.102 -0.108 0.045
0.104 -0.108 0.045
0.100 -0.102 0.043
0.101 -0.102 0.044
0.103 -0.102 0.044
0.107 -0.104 0.045
0.110 -0.106 0.047
0.118 -0.112 0.050
0.218 -0.200 0.091
0.219 -0.198 0.091
0.224 -0.199 0.093
0.226 -0.198 0.093
0.228 -0.196 0.094
0.229 -0.194 0.094
0.228 -0.190 0.093
0.227 -0.186 0.092
0.225 -0.181 0.091
0.224 -0.177 0.090
0.215 -0.167 0.086
0.211 -0.162 0.085
0.203 -0.153 0.081
0.206 -0.152 0.082
0.194 -0.141 0.077
0.192 -0.138 0.076
0.191 -0.134 0.075
0.197 -0.136 0.077
0.201 -0.136 0.078
0.201 -0.134 0.078
0.202 -0.132 0.078
0.203 -0.130 0.078
0.203 -0.128 0.078
0.202 -0.125 0.078
0.201 -0.122 0.077
0.202 -0.120 0.077
0.200 -0.117 0.076
0.203 -0.116 0.077
0.205 -0.115 0.078
0.202 -0.111 0.076
0.205 -0.111 0.077
0.205 -0.108 0.077
0.196 -0.101 0.074
0.208 -0.105 0.078
0.203 -0.101 0.076
0.205 -0.100 0.077
0.206 -0.098 0.077
0.203 -0.094 0.076
0.204 -0.093 0.076
0.202 -0.090 0.075
0.203 -0.088 0.075
0.207 -0.088 0.077
0.210 -0.087 0.077
0.209 -0.084 0.077
0.209 -0.082 0.077
0.209 -0.080 0.077
0.210 -0.078 0.077
0.209 -0.076 0.077
0.210 -0.074 0.077
0.215 -0.074 0.078
0.225 -0.075 0.082
0.231 -0.075 0.084
0.237 -0.074 0.086
0.236 -0.072 0.086
0.241 -0.071 0.087
0.237 -0.068 0.086
0.235 -0.065 0.085
0.243 -0.064 0.088
0.249 -0.064 0.090
0.247 -0.061 0.089
0.245 -0.058 0.088
0.244 -0.056 0.088
0.246 -0.054 0.088
0.245 -0.051 0.088
0.244 -0.049 0.088
0.243 -0.046 0.087
0.241 -0.044 0.086
0.241 -0.041 0.086
0.241 -0.039 0.086
0.244 -0.037 0.087
0.243 -0.035 0.087
0.242 -0.032 0.086
0.242 -0.030 0.087
0.243 -0.028 0.087
0.244 -0.026 0.087
0.244 -0.024 0.087
0.244 -0.021 0.087
0.243 -0.019 0.087
0.244 -0.017 0.087
0.247 -0.015 0.088
0.255 -0.013 0.091
0.251 -0.006 0.090
0.253 -0.003 0.090
0.256 -0.001 0.091
0.253 0.001 0.090
0.240 0.003 0.086
0.233 0.005 0.083
0.227 0.007 0.081
0.232 0.010 0.083
0.234 0.012 0.084
0.234 0.014 0.084
0.237 0.016 0.085
0.242 0.019 0.086
0.240 0.021 0.086
0.249 0.024 0.089
0.253 0.027 0.090
0.256 0.030 0.092
0.257 0.032 0.092
0.255 0.034 0.091
0.249 0.036 0.089
0.249 0.038 0.089
0.245 0.040 0.088
0.234 0.040 0.084
0.237 0.043 0.085
0.214 0.041 0.077
0.211 0.042 0.076
0.212 0.045 0.076
0.206 0.045 0.074
0.204 0.047 0.074
0.215 0.051 0.078
0.246 0.061 0.089
0.257 0.066 0.093
0.259 0.069 0.094
0.262 0.073 0.095
0.264 0.076 0.096
0.262 0.078 0.095
0.244 0.075 0.089
0.234 0.074 0.086
0.230 0.075 0.084
0.228 0.077 0.084
0.226 0.078 0.083
0.224 0.080 0.082
0.224 0.082 0.082
0.224 0.085 0.083
0.224 0.087 0.083
0.226 0.090 0.084
0.224 0.091 0.083
0.223 0.093 0.083
0.220 0.094 0.082
0.222 0.098 0.083
0.219 0.099 0.082
0.219 0.101 0.082
0.218 0.103 0.082
0.219 0.105 0.082
0.219 0.108 0.083
0.219 0.111 0.083
0.218 0.112 0.083
0.218 0.114 0.083
0.219 0.118 0.083
0.217 0.119 0.083
0.218 0.122 0.083
0.218 0.124 0.084
0.220 0.128 0.085
0.219 0.130 0.085
0.220 0.134 0.085
0.223 0.138 0.087
0.219 0.138 0.085
0.226 0.145 0.088
0.228 0.149 0.090
0.227 0.152 0.089
0.225 0.153 0.089
0.229 0.158 0.091
0.236 0.167 0.094
0.240 0.172 0.096
0.237 0.173 0.095
0.219 0.163 0.088
0.217 0.164 0.087
0.212 0.164 0.086
0.185 0.145 0.075
0.187 0.149 0.076
0.188 0.153 0.077
0.191 0.158 0.079
0.193 0.162 0.080
0.191 0.164 0.080
0.187 0.163 0.078
0.191 0.169 0.080
0.194 0.175 0.082
0.191 0.176 0.081
0.189 0.177 0.081
0.189 0.179 0.081
0.188 0.182 0.081
0.186 0.183 0.081
0.186 0.186 0.081
0.187 0.190 0.082
0.186 0.193 0.082
0.183 0.193 0.082
0.185 0.198 0.083
0.184 0.201 0.083
0.184 0.204 0.083
0.184 0.207 0.084
0.183 0.209 0.084
0.181 0.211 0.084
0.179 0.212 0.083
0.179 0.215 0.084
0.180 0.220 0.085
0.180 0.223 0.085
0.176 0.221 0.083
0.177 0.226 0.085
0.178 0.230 0.085
0.176 0.231 0.085
0.174 0.232 0.084
0.110 -0.147 0.054
0.114 -0.150 0.055
0.114 -0.148 0.055
0.108 -0.138 0.052
0.105 -0.133 0.050
0.104 -0.129 0.049
0.103 -0.126 0.049
0.094 -0.114 0.044
0.095 -0.114 0.045
0.093 -0.110 0.043
0.099 -0.114 0.046
0.102 -0.116 0.047
0.105 -0.119 0.048
0.103 -0.114 0.047
0.101 -0.110 0.046
0.102 -0.110 0.046
0.103 -0.109 0.046
0.096 -0.101 0.043
0.099 -0.102 0.044
0.101 -0.102 0.045
0.102 -0.101 0.045
0.106 -0.104 0.046
0.108 -0.104 0.047
0.110 -0.105 0.048
0.213 -0.196 0.092
0.216 -0.196 0.093
0.218 -0.194 0.093
0.223 -0.195 0.094
0.224 -0.193 0.094
0.224 -0.190 0.094
0.226 -0.189 0.095
0.221 -0.181 0.092
0.222 -0.179 0.092
0.218 -0.173 0.090
0.211 -0.164 0.087
0.198 -0.152 0.081
0.198 -0.149 0.081
0.195 -0.144 0.079
0.194 -0.141 0.079
0.193 -0.138 0.078
0.198 -0.140 0.080
0.200 -0.138 0.080
0.199 -0.135 0.080
0.203 -0.135 0.081
0.203 -0.133 0.081
0.201 -0.130 0.080
0.202 -0.128 0.080
0.202 -0.125 0.080
0.200 -0.121 0.079
0.201 -0.120 0.079
0.206 -0.121 0.081
0.199 -0.114 0.078
0.204 -0.115 0.080
0.205 -0.113 0.080
0.201 -0.109 0.078
0.203 -0.108 0.079
0.205 -0.106 0.079
0.204 -0.104 0.079
0.207 -0.103 0.080
0.205 -0.100 0.079
0.205 -0.098 0.079
0.205 -0.096 0.078
0.204 -0.093 0.078
0.204 -0.091 0.078
0.203 -0.088 0.077
0.207 -0.088 0.078
0.208 -0.086 0.079
0.206 -0.083 0.078
0.200 -0.079 0.075
0.208 -0.080 0.078
0.209 -0.078 0.079
0.209 -0.076 0.079
0.208 -0.074 0.078
0.213 -0.073 0.080
0.218 -0.073 0.082
0.229 -0.074 0.086
0.230 -0.072 0.086
0.228 -0.070 0.085
0.231 -0.068 0.086
0.231 -0.066 0.086
0.230 -0.063 0.085
0.232 -0.062 0.086
0.240 -0.061 0.089
0.244 -0.060 0.090
0.240 -0.057 0.089
0.237 -0.054 0.088
0.238 -0.052 0.088
0.238 -0.050 0.088
0.239 -0.048 0.088
0.239 -0.045 0.088
0.237 -0.043 0.087
0.234 -0.040 0.086
0.236 -0.038 0.087
0.239 -0.037 0.088
0.239 -0.034 0.088
0.238 -0.032 0.087
0.238 -0.030 0.088
0.241 -0.028 0.088
0.241 -0.026 0.088
0.242 -0.023 0.089
0.240 -0.021 0.088
0.239 -0.019 0.088
0.241 -0.017 0.088
0.253 -0.015 0.093
0.259 -0.013 0.095
0.260 -0.011 0.095
0.258 -0.008 0.094
0.250 -0.006 0.092
0.249 -0.003 0.091
0.246 -0.001 0.090
0.233 0.001 0.085
0.223 0.003 0.082
0.222 0.005 0.081
0.223 0.007 0.082
0.224 0.009 0.082
0.227 0.012 0.083
0.228 0.014 0.084
0.234 0.016 0.086
0.238 0.019 0.087
0.244 0.022 0.090
0.245 0.024 0.090
0.251 0.027 0.092
0.254 0.030 0.094
0.257 0.032 0.094
0.250 0.034 0.092
0.244 0.035 0.090
0.238 0.037 0.088
0.233 0.038 0.086
0.220 0.038 0.081
0.209 0.038 0.077
0.204 0.039 0.075
0.205 0.041 0.076
0.210 0.044 0.078
0.214 0.047 0.079
0.214 0.049 0.079
0.229 0.055 0.085
0.243 0.060 0.090
0.256 0.066 0.095
0.256 0.069 0.095
0.255 0.071 0.095
0.258 0.074 0.096
0.257 0.076 0.096
0.235 0.072 0.088
0.227 0.072 0.085
0.223 0.073 0.084
0.222 0.075 0.083
0.220 0.076 0.083
0.222 0.079 0.084
0.222 0.082 0.084
0.222 0.084 0.084
0.222 0.086 0.084
0.220 0.088 0.084
0.215 0.088 0.082
0.212 0.089 0.081
0.214 0.092 0.082
0.214 0.094 0.082
0.217 0.098 0.083
0.214 0.099 0.082
0.213 0.100 0.082
0.210 0.101 0.081
0.218 0.108 0.085
0.212 0.107 0.082
0.214 0.110 0.083
0.215 0.113 0.084
0.214 0.115 0.084
0.214 0.118 0.084
0.214 0.120 0.084
0.214 0.122 0.084
0.213 0.124 0.084
0.214 0.128 0.085
0.213 0.130 0.085
0.203 0.126 0.081
0.214 0.135 0.086
0.208 0.134 0.084
0.210 0.138 0.085
0.211 0.141 0.085
0.213 0.145 0.086
0.215 0.149 0.087
0.233 0.164 0.095
0.233 0.168 0.096
0.221 0.162 0.091
0.212 0.158 0.088
0.212 0.161 0.088
0.210 0.163 0.088
0.184 0.145 0.077
0.184 0.147 0.077
0.188 0.154 0.080
0.191 0.158 0.081
0.192 0.162 0.082
0.188 0.162 0.081
0.186 0.162 0.080
0.187 0.166 0.081
0.190 0.172 0.083
0.187 0.173 0.082
0.185 0.173 0.081
0.185 0.176 0.082
0.184 0.178 0.082
0.185 0.183 0.083
0.184 0.184 0.083
0.183 0.186 0.083
0.182 0.189 0.083
0.182 0.192 0.083
0.182 0.195 0.084
0.182 0.198 0.084
0.181 0.201 0.084
0.179 0.202 0.084
0.178 0.204 0.084
0.177 0.207 0.084
0.177 0.210 0.085
0.176 0.212 0.085
0.175 0.214 0.085
0.173 0.215 0.084
0.174 0.219 0.085
0.174 0.223 0.086
0.174 0.227 0.086
0.174 0.230 0.087
0.171 0.229 0.086
0.112 -0.150 0.056
0.111 -0.147 0.055
0.105 -0.137 0.052
0.101 -0.130 0.050
0.098 -0.124 0.048
0.097 -0.121 0.047
0.097 -0.119 0.047
0.092 -0.112 0.045
0.100 -0.120 0.048
0.105 -0.124 0.050
0.104 -0.121 0.049
0.103 -0.118 0.049
0.103 -0.116 0.048
0.101 -0.113 0.048
0.101 -0.111 0.047
0.102 -0.110 0.047
0.109 -0.116 0.051
0.105 -0.110 0.048
0.102 -0.105 0.046
0.102 -0.103 0.046
0.103 -0.103 0.047
0.106 -0.104 0.048
0.107 -0.104 0.048
0.109 -0.104 0.049
0.118 -0.111 0.053
0.212 -0.192 0.093
0.217 -0.194 0.095
0.218 -0.191 0.095
0.212 -0.183 0.092
0.206 -0.175 0.089
0.203 -0.169 0.087
0.201 -0.165 0.086
0.200 -0.161 0.085
0.199 -0.159 0.085
0.199 -0.155 0.084
0.196 -0.151 0.083
0.196 -0.148 0.083
0.196 -0.145 0.082
0.198 -0.145 0.083
0.201 -0.144 0.084
0.202 -0.143 0.084
0.203 -0.141 0.084
0.204 -0.139 0.084
0.204 -0.137 0.084
0.202 -0.133 0.083
0.199 -0.128 0.081
0.200 -0.127 0.081
0.205 -0.127 0.083
0.204 -0.124 0.082
0.203 -0.122 0.082
0.206 -0.121 0.083
0.208 -0.120 0.084
0.204 -0.115 0.082
0.204 -0.113 0.082
0.205 -0.111 0.082
0.205 -0.109 0.081
0.205 -0.107 0.081
0.204 -0.104 0.081
0.204 -0.102 0.081
0.202 -0.099 0.080
0.203 -0.097 0.080
0.206 -0.096 0.081
0.195 -0.089 0.076
0.204 -0.091 0.080
0.204 -0.089 0.080
0.201 -0.085 0.078
0.205 -0.085 0.080
0.200 -0.081 0.078
0.204 -0.081 0.079
0.201 -0.077 0.078
0.206 -0.077 0.080
0.208 -0.076 0.080
0.208 -0.074 0.080
0.209 -0.072 0.080
0.219 -0.073 0.084
0.223 -0.073 0.086
0.223 -0.070 0.085
0.226 -0.069 0.086
0.226 -0.067 0.086
0.227 -0.065 0.087
0.226 -0.062 0.086
0.227 -0.061 0.086
0.235 -0.060 0.090
0.234 -0.058 0.089
0.233 -0.055 0.088
0.234 -0.053 0.089
0.233 -0.051 0.088
0.233 -0.049 0.088
0.235 -0.047 0.089
0.235 -0.045 0.089
0.231 -0.042 0.087
0.231 -0.040 0.087
0.232 -0.038 0.088
0.234 -0.036 0.088
0.233 -0.034 0.088
0.232 -0.031 0.088
0.236 -0.029 0.089
0.235 -0.027 0.089
0.231 -0.025 0.087
0.231 -0.022 0.087
0.236 -0.021 0.089
0.236 -0.019 0.089
0.253 -0.018 0.095
0.258 -0.015 0.097
0.259 -0.013 0.097
0.258 -0.011 0.097
0.248 -0.008 0.093
0.241 -0.006 0.091
0.240 -0.003 0.090
0.234 -0.001 0.088
0.223 0.001 0.084
0.219 0.003 0.082
0.219 0.005 0.082
0.217 0.007 0.082
0.221 0.009 0.083
0.222 0.011 0.084
0.226 0.014 0.085
0.228 0.016 0.086
0.239 0.019 0.090
0.245 0.022 0.092
0.247 0.024 0.093
0.247 0.026 0.093
0.252 0.029 0.095
0.253 0.032 0.095
0.250 0.034 0.094
0.237 0.034 0.090
0.231 0.036 0.087
0.221 0.036 0.084
0.210 0.036 0.080
0.203 0.037 0.077
0.203 0.039 0.077
0.203 0.041 0.077
0.217 0.046 0.083
0.217 0.048 0.083
0.225 0.052 0.086
0.229 0.055 0.087
0.245 0.061 0.094
0.253 0.066 0.097
0.252 0.068 0.096
0.247 0.069 0.094
0.244 0.070 0.093
0.243 0.073 0.094
0.238 0.073 0.092
0.216 0.069 0.083
0.216 0.071 0.083
0.215 0.073 0.083
0.216 0.075 0.084
0.219 0.078 0.085
0.219 0.081 0.085
0.216 0.082 0.084
0.214 0.083 0.083
0.213 0.085 0.083
0.210 0.086 0.082
0.210 0.088 0.082
0.210 0.090 0.083
0.207 0.091 0.082
0.206 0.093 0.081
0.206 0.095 0.081
0.202 0.096 0.080
0.201 0.097 0.080
0.197 0.098 0.078
0.189 0.095 0.075
0.183 0.095 0.073
0.181 0.095 0.072
0.180 0.097 0.072
0.180 0.099 0.072
0.180 0.101 0.073
0.181 0.104 0.073
0.188 0.110 0.076
0.192 0.117 0.078
0.197 0.122 0.081
0.198 0.125 0.081
0.202 0.130 0.083
0.201 0.132 0.083
0.203 0.136 0.085
0.205 0.140 0.086
0.206 0.143 0.086
0.225 0.159 0.094
0.223 0.161 0.094
0.214 0.157 0.090
0.209 0.156 0.089
0.211 0.161 0.090
0.209 0.162 0.089
0.195 0.154 0.084
0.184 0.147 0.079
0.185 0.152 0.080
0.190 0.158 0.083
0.188 0.159 0.082
0.185 0.159 0.081
0.185 0.162 0.082
0.184 0.164 0.082
0.182 0.165 0.081
0.182 0.168 0.082
0.184 0.173 0.083
0.182 0.174 0.083
0.180 0.175 0.082
0.180 0.178 0.083
0.180 0.181 0.083
0.180 0.184 0.084
0.180 0.187 0.084
0.179 0.189 0.084
0.179 0.193 0.085
0.177 0.194 0.084
0.177 0.197 0.085
0.176 0.199 0.085
0.175 0.202 0.085
0.175 0.204 0.085
0.174 0.207 0.086
0.175 0.211 0.086
0.173 0.212 0.086
0.171 0.213 0.085
0.172 0.217 0.086
0.172 0.221 0.087
0.171 0.222 0.087
0.169 0.224 0.086
0.105 -0.139 0.054
0.104 -0.136 0.053
0.098 -0.126 0.049
0.096 -0.122 0.048
0.095 -0.119 0.048
0.103 -0.127 0.051
0.104 -0.127 0.052
0.102 -0.123 0.051
0.104 -0.123 0.051
0.105 -0.122 0.051
0.102 -0.117 0.050
0.102 -0.116 0.049
0.106 -0.118 0.051
0.118 -0.129 0.056
0.114 -0.123 0.054
0.110 -0.117 0.052
0.108 -0.113 0.051
0.102 -0.105 0.048
0.102 -0.104 0.048
0.103 -0.103 0.048
0.105 -0.104 0.049
0.108 -0.104 0.050
0.109 -0.104 0.050
0.117 -0.110 0.053
0.193 -0.175 0.087
0.196 -0.176 0.088
0.195 -0.172 0.088
0.196 -0.170 0.088
0.197 -0.168 0.088
0.198 -0.166 0.088
0.198 -0.163 0.087
0.198 -0.161 0.087
0.199 -0.159 0.087
0.200 -0.156 0.087
0.199 -0.153 0.086
0.201 -0.152 0.087
0.205 -0.153 0.088
0.202 -0.148 0.087
0.203 -0.146 0.087
0.204 -0.144 0.087
0.205 -0.143 0.087
0.204 -0.139 0.086
0.204 -0.137 0.086
0.203 -0.133 0.085
0.199 -0.129 0.084
0.200 -0.127 0.084
0.206 -0.128 0.086
0.205 -0.125 0.085
0.204 -0.123 0.085
0.208 -0.122 0.086
0.210 -0.121 0.087
0.209 -0.118 0.086
0.208 -0.115 0.085
0.205 -0.112 0.084
0.208 -0.111 0.085
0.209 -0.109 0.085
0.207 -0.105 0.084
0.204 -0.102 0.083
0.202 -0.099 0.082
0.202 -0.097 0.082
0.204 -0.095 0.082
0.204 -0.093 0.082
0.206 -0.092 0.083
0.206 -0.090 0.083
0.207 -0.088 0.083
0.205 -0.085 0.082
0.205 -0.083 0.082
0.202 -0.080 0.080
0.203 -0.078 0.081
0.205 -0.077 0.081
0.206 -0.075 0.082
0.206 -0.073 0.082
0.210 -0.072 0.083
0.216 -0.072 0.085
0.219 -0.071 0.086
0.220 -0.069 0.087
0.221 -0.068 0.087
0.222 -0.066 0.087
0.223 -0.064 0.087
0.223 -0.062 0.087
0.223 -0.060 0.087
0.228 -0.059 0.089
0.229 -0.057 0.089
0.230 -0.055 0.090
0.231 -0.053 0.090
0.230 -0.050 0.089
0.228 -0.048 0.089
0.228 -0.046 0.089
0.228 -0.043 0.088
0.228 -0.041 0.088
0.228 -0.039 0.088
0.229 -0.037 0.089
0.228 -0.035 0.088
0.226 -0.032 0.087
0.226 -0.030 0.088
0.227 -0.028 0.088
0.230 -0.027 0.089
0.230 -0.024 0.089
0.228 -0.022 0.088
0.234 -0.021 0.091
0.252 -0.020 0.097
0.254 -0.018 0.098
0.255 -0.015 0.098
0.250 -0.013 0.096
0.239 -0.010 0.092
0.240 -0.008 0.093
0.233 -0.005 0.090
0.219 -0.003 0.084
0.215 -0.001 0.083
0.225 0.001 0.087
0.221 0.003 0.085
0.217 0.005 0.084
0.218 0.007 0.084
0.220 0.009 0.085
0.224 0.011 0.086
0.223 0.013 0.086
0.225 0.016 0.087
0.227 0.018 0.088
0.250 0.022 0.097
0.240 0.024 0.093
0.241 0.026 0.093
0.245 0.028 0.095
0.248 0.031 0.096
0.239 0.032 0.093
0.231 0.033 0.090
0.210 0.032 0.081
0.200 0.033 0.078
0.200 0.035 0.078
0.198 0.036 0.077
0.199 0.038 0.077
0.205 0.041 0.080
0.210 0.044 0.082
0.219 0.048 0.085
0.220 0.051 0.086
0.229 0.055 0.090
0.239 0.060 0.094
0.253 0.066 0.099
0.250 0.067 0.098
0.239 0.067 0.094
0.233 0.067 0.092
0.231 0.069 0.091
0.227 0.070 0.090
0.211 0.067 0.084
0.211 0.069 0.084
0.212 0.072 0.084
0.213 0.074 0.085
0.214 0.077 0.085
0.207 0.076 0.082
0.204 0.077 0.081
0.201 0.078 0.081
0.200 0.080 0.080
0.202 0.083 0.081
0.204 0.086 0.082
0.202 0.087 0.081
0.195 0.086 0.079
0.192 0.087 0.078
0.186 0.086 0.076
0.187 0.088 0.076
0.189 0.092 0.077
0.190 0.094 0.077
0.188 0.095 0.077
0.186 0.097 0.076
0.183 0.097 0.075
0.182 0.098 0.075
0.183 0.101 0.076
0.188 0.106 0.078
0.193 0.111 0.080
0.193 0.113 0.081
0.200 0.119 0.083
0.197 0.120 0.083
0.190 0.118 0.080
0.194 0.123 0.082
0.196 0.127 0.083
0.200 0.132 0.085
0.200 0.135 0.085
0.200 0.137 0.086
0.201 0.140 0.086
0.219 0.155 0.094
0.218 0.158 0.095
0.208 0.153 0.090
0.202 0.152 0.088
0.210 0.160 0.092
0.209 0.162 0.092
0.196 0.155 0.087
0.187 0.151 0.083
0.184 0.150 0.082
0.186 0.155 0.083
0.184 0.157 0.083
0.182 0.157 0.082
0.181 0.159 0.082
0.181 0.162 0.083
0.181 0.164 0.083
0.180 0.166 0.083
0.180 0.169 0.083
0.180 0.172 0.084
0.178 0.174 0.084
0.177 0.176 0.084
0.177 0.178 0.084
0.178 0.183 0.085
0.178 0.185 0.085
0.177 0.188 0.085
0.176 0.190 0.085
0.175 0.192 0.086
0.174 0.194 0.086
0.174 0.197 0.086
0.173 0.199 0.086
0.171 0.201 0.086
0.171 0.204 0.086
0.172 0.208 0.087
0.171 0.210 0.087
0.168 0.210 0.086
0.168 0.212 0.086
0.169 0.217 0.087
0.168 0.219 0.088
0.167 0.221 0.087
0.100 -0.132 0.052
0.094 -0.123 0.049
0.095 -0.123 0.049
0.099 -0.126 0.051
0.101 -0.127 0.052
0.103 -0.128 0.053
0.104 -0.126 0.053
0.103 -0.124 0.052
0.101 -0.120 0.051
0.102 -0.119 0.051
0.114 -0.132 0.057
0.118 -0.134 0.059
0.121 -0.135 0.060
0.120 -0.132 0.059
0.118 -0.128 0.058
0.114 -0.122 0.056
0.109 -0.115 0.053
0.103 -0.106 0.050
0.103 -0.105 0.049
0.104 -0.105 0.050
0.106 -0.105 0.051
0.108 -0.105 0.051
0.113 -0.108 0.053
0.117 -0.110 0.055
0.181 -0.165 0.084
0.194 -0.173 0.089
0.195 -0.172 0.090
0.196 -0.170 0.090
0.197 -0.168 0.090
0.199 -0.167 0.090
0.201 -0.166 0.091
0.204 -0.166 0.092
0.204 -0.163 0.092
0.205 -0.161 0.092
0.204 -0.157 0.091
0.204 -0.155 0.090
0.202 -0.150 0.089
0.201 -0.147 0.088
0.202 -0.145 0.088
0.203 -0.144 0.089
0.204 -0.142 0.089
0.202 -0.138 0.088
0.202 -0.136 0.088
0.200 -0.132 0.086
0.201 -0.130 0.086
0.202 -0.128 0.087
0.203 -0.127 0.087
0.203 -0.124 0.087
0.203 -0.122 0.086
0.206 -0.121 0.087
0.208 -0.120 0.088
0.208 -0.118 0.088
0.205 -0.114 0.086
0.206 -0.112 0.087
0.207 -0.110 0.087
0.208 -0.109 0.087
0.207 -0.106 0.087
0.204 -0.102 0.085
0.203 -0.099 0.084
0.203 -0.097 0.084
0.204 -0.096 0.084
0.205 -0.094 0.085
0.206 -0.092 0.085
0.207 -0.091 0.085
0.206 -0.088 0.085
0.208 -0.087 0.085
0.207 -0.084 0.085
0.206 -0.081 0.084
0.206 -0.080 0.084
0.208 -0.078 0.085
0.207 -0.076 0.084
0.206 -0.073 0.083
0.208 -0.072 0.084
0.213 -0.071 0.086
0.212 -0.069 0.086
0.217 -0.068 0.087
0.219 -0.067 0.088
0.219 -0.065 0.088
0.219 -0.063 0.088
0.220 -0.061 0.088
0.221 -0.059 0.089
0.223 -0.057 0.089
0.226 -0.056 0.090
0.227 -0.054 0.091
0.226 -0.052 0.090
0.226 -0.050 0.090
0.224 -0.047 0.089
0.225 -0.045 0.090
0.226 -0.043 0.090
0.223 -0.041 0.089
0.224 -0.039 0.089
0.222 -0.036 0.088
0.222 -0.034 0.088
0.223 -0.032 0.088
0.223 -0.030 0.088
0.225 -0.028 0.089
0.225 -0.026 0.089
0.226 -0.024 0.090
0.238 -0.023 0.094
0.243 -0.021 0.096
0.242 -0.019 0.096
0.249 -0.017 0.099
0.232 -0.010 0.092
0.227 -0.007 0.090
0.216 -0.005 0.086
0.212 -0.003 0.084
0.215 -0.001 0.085
0.215 0.001 0.085
0.211 0.003 0.083
0.205 0.005 0.081
0.211 0.007 0.084
0.218 0.009 0.086
0.216 0.011 0.086
0.217 0.013 0.086
0.218 0.015 0.087
0.219 0.017 0.087
0.227 0.022 0.090
0.239 0.028 0.095
0.232 0.029 0.092
0.201 0.031 0.080
0.194 0.032 0.077
0.189 0.033 0.076
0.192 0.035 0.077
0.194 0.037 0.077
0.199 0.040 0.080
0.209 0.044 0.084
0.211 0.047 0.084
0.217 0.050 0.087
0.231 0.055 0.093
0.236 0.059 0.095
0.236 0.061 0.095
0.246 0.066 0.099
0.232 0.065 0.094
0.211 0.061 0.085
0.216 0.065 0.087
0.212 0.066 0.086
0.209 0.067 0.085
0.208 0.068 0.085
0.208 0.071 0.085
0.204 0.071 0.083
0.200 0.072 0.082
0.199 0.073 0.081
0.198 0.075 0.081
0.197 0.077 0.081
0.197 0.079 0.081
0.198 0.081 0.082
0.199 0.084 0.082
0.197 0.085 0.082
0.197 0.087 0.082
0.193 0.088 0.080
0.188 0.087 0.078
0.187 0.089 0.078
0.191 0.093 0.080
0.191 0.095 0.080
0.191 0.097 0.080
0.191 0.099 0.080
0.194 0.103 0.082
0.184 0.100 0.078
0.192 0.106 0.082
0.187 0.106 0.080
0.195 0.112 0.083
0.202 0.119 0.087
0.196 0.117 0.084
0.188 0.115 0.081
0.185 0.116 0.080
0.186 0.118 0.081
0.190 0.123 0.083
0.198 0.131 0.086
0.198 0.133 0.087
0.198 0.136 0.087
0.196 0.137 0.086
0.222 0.158 0.098
0.213 0.155 0.095
0.203 0.150 0.091
0.196 0.147 0.088
0.196 0.150 0.088
0.197 0.153 0.089
0.197 0.157 0.090
0.190 0.153 0.086
0.186 0.153 0.085
0.180 0.151 0.083
0.181 0.154 0.084
0.179 0.155 0.083
0.179 0.158 0.083
0.179 0.161 0.084
0.179 0.163 0.084
0.178 0.165 0.084
0.177 0.167 0.084
0.177 0.170 0.085
0.176 0.172 0.085
0.175 0.174 0.085
0.174 0.176 0.085
0.174 0.179 0.085
0.176 0.184 0.087
0.175 0.186 0.087
0.174 0.188 0.087
0.173 0.190 0.087
0.174 0.194 0.088
0.171 0.194 0.087
0.169 0.195 0.086
0.169 0.198 0.087
0.168 0.200 0.087
0.168 0.204 0.087
0.167 0.206 0.087
0.166 0.208 0.088
0.165 0.210 0.087
0.164 0.212 0.087
0.165 0.216 0.088
0.097 -0.127 0.052
0.103 -0.133 0.055
0.103 -0.131 0.054
0.101 -0.127 0.053
0.102 -0.127 0.054
0.105 -0.128 0.055
0.103 -0.124 0.053
0.117 -0.139 0.060
0.126 -0.148 0.065
0.122 -0.141 0.063
0.122 -0.139 0.062
0.122 -0.136 0.062
0.121 -0.133 0.061
0.119 -0.129 0.060
0.117 -0.125 0.058
0.116 -0.122 0.058
0.110 -0.114 0.055
0.103 -0.105 0.051
0.104 -0.105 0.051
0.106 -0.105 0.052
0.108 -0.106 0.053
0.111 -0.106 0.053
0.116 -0.110 0.056
0.128 -0.119 0.061
0.195 -0.175 0.092
0.195 -0.173 0.092
0.196 -0.171 0.092
0.197 -0.169 0.092
0.199 -0.167 0.093
0.200 -0.166 0.093
0.199 -0.162 0.092
0.199 -0.159 0.092
0.200 -0.157 0.092
0.200 -0.155 0.091
0.200 -0.152 0.091
0.199 -0.149 0.090
0.198 -0.146 0.089
0.198 -0.143 0.089
0.200 -0.142 0.090
0.201 -0.140 0.090
0.201 -0.137 0.089
0.200 -0.135 0.089
0.200 -0.132 0.089
0.200 -0.130 0.088
0.199 -0.127 0.087
0.199 -0.124 0.087
0.202 -0.124 0.088
0.202 -0.121 0.088
0.201 -0.119 0.087
0.201 -0.116 0.087
0.202 -0.115 0.087
0.202 -0.113 0.087
0.199 -0.108 0.086
0.201 -0.107 0.086
0.201 -0.105 0.086
0.202 -0.104 0.087
0.203 -0.102 0.087
0.202 -0.099 0.086
0.202 -0.097 0.086
0.205 -0.096 0.087
0.205 -0.094 0.087
0.204 -0.092 0.086
0.203 -0.089 0.086
0.206 -0.088 0.087
0.206 -0.086 0.086
0.206 -0.084 0.086
0.207 -0.082 0.086
0.208 -0.080 0.087
0.208 -0.078 0.087
0.207 -0.076 0.086
0.204 -0.073 0.085
0.207 -0.072 0.086
0.208 -0.070 0.086
0.209 -0.068 0.087
0.214 -0.068 0.089
0.217 -0.067 0.090
0.216 -0.064 0.089
0.216 -0.062 0.089
0.217 -0.060 0.089
0.218 -0.058 0.090
0.220 -0.057 0.090
0.221 -0.055 0.091
0.218 -0.052 0.089
0.217 -0.050 0.089
0.220 -0.048 0.090
0.219 -0.046 0.089
0.219 -0.044 0.089
0.220 -0.042 0.090
0.220 -0.040 0.090
0.217 -0.037 0.089
0.218 -0.035 0.089
0.219 -0.034 0.089
0.219 -0.032 0.089
0.222 -0.030 0.090
0.223 -0.028 0.091
0.224 -0.026 0.091
0.231 -0.025 0.094
0.236 -0.023 0.096
0.234 -0.021 0.095
0.231 -0.018 0.094
0.223 -0.016 0.091
0.209 -0.013 0.085
0.203 -0.010 0.082
0.202 -0.005 0.082
0.200 -0.003 0.081
0.191 -0.001 0.077
0.178 0.004 0.072
0.196 0.006 0.079
0.208 0.009 0.085
0.202 0.010 0.082
0.204 0.014 0.083
0.209 0.017 0.085
0.190 0.022 0.077
0.190 0.024 0.077
0.180 0.030 0.074
0.186 0.032 0.076
0.182 0.033 0.074
0.185 0.036 0.076
0.195 0.039 0.080
0.206 0.044 0.084
0.211 0.047 0.087
0.221 0.051 0.091
0.233 0.056 0.096
0.226 0.057 0.093
0.225 0.059 0.093
0.222 0.060 0.092
0.207 0.058 0.086
0.200 0.058 0.083
0.202 0.061 0.084
0.203 0.063 0.084
0.202 0.065 0.084
0.203 0.067 0.085
0.203 0.069 0.085
0.201 0.070 0.084
0.198 0.071 0.083
0.196 0.072 0.082
0.196 0.075 0.082
0.198 0.077 0.083
0.198 0.079 0.083
0.197 0.081 0.083
0.196 0.083 0.083
0.198 0.086 0.084
0.198 0.088 0.084
0.196 0.089 0.083
0.192 0.089 0.082
0.191 0.091 0.082
0.191 0.093 0.082
0.192 0.095 0.082
0.193 0.098 0.083
0.197 0.103 0.085
0.183 0.097 0.079
0.176 0.096 0.076
0.179 0.099 0.078
0.181 0.103 0.079
0.176 0.102 0.077
0.170 0.100 0.075
0.161 0.097 0.071
0.177 0.109 0.078
0.179 0.112 0.079
0.180 0.115 0.080
0.185 0.120 0.082
0.197 0.130 0.088
0.193 0.130 0.087
0.192 0.132 0.087
0.191 0.134 0.087
0.207 0.148 0.094
0.211 0.153 0.096
0.202 0.149 0.092
0.192 0.144 0.088
0.185 0.142 0.086
0.190 0.148 0.088
0.193 0.153 0.090
0.195 0.157 0.091
0.184 0.152 0.087
0.178 0.149 0.084
0.177 0.151 0.084
0.177 0.154 0.084
0.176 0.156 0.085
0.176 0.159 0.085
0.175 0.160 0.085
0.175 0.163 0.085
0.174 0.165 0.085
0.174 0.168 0.086
0.173 0.170 0.086
0.173 0.172 0.086
0.172 0.174 0.086
0.171 0.177 0.086
0.171 0.179 0.086
0.170 0.182 0.087
0.170 0.184 0.087
0.170 0.187 0.088
0.169 0.189 0.087
0.168 0.191 0.087
0.167 0.193 0.088
0.166 0.196 0.088
0.166 0.198 0.088
0.164 0.200 0.088
0.164 0.202 0.088
0.164 0.205 0.088
0.163 0.207 0.088
0.161 0.208 0.088
0.160 0.209 0.088
0.101 -0.133 0.055
0.102 -0.132 0.055
0.101 -0.128 0.055
0.101 -0.127 0.055
0.101 -0.126 0.054
0.108 -0.132 0.058
0.121 -0.146 0.064
0.115 -0.137 0.061
0.124 -0.146 0.066
0.126 -0.146 0.066
0.122 -0.139 0.064
0.123 -0.138 0.064
0.122 -0.135 0.063
0.119 -0.130 0.061
0.119 -0.127 0.061
0.116 -0.123 0.059
0.113 -0.118 0.057
0.108 -0.110 0.054
0.104 -0.105 0.052
0.105 -0.104 0.052
0.109 -0.106 0.054
0.111 -0.107 0.055
0.113 -0.107 0.056
0.118 -0.110 0.058
0.130 -0.119 0.064
0.195 -0.172 0.094
0.195 -0.170 0.094
0.196 -0.168 0.094
0.197 -0.167 0.094
0.197 -0.163 0.094
0.197 -0.160 0.093
0.196 -0.158 0.093
0.197 -0.155 0.092
0.197 -0.153 0.092
0.196 -0.150 0.092
0.196 -0.147 0.091
0.195 -0.144 0.090
0.195 -0.141 0.090
0.196 -0.140 0.090
0.197 -0.138 0.090
0.198 -0.136 0.091
0.199 -0.134 0.090
0.199 -0.132 0.090
0.198 -0.128 0.089
0.198 -0.126 0.089
0.199 -0.124 0.089
0.200 -0.123 0.090
0.200 -0.121 0.089
0.200 -0.118 0.089
0.200 -0.116 0.089
0.201 -0.114 0.089
0.202 -0.113 0.089
0.201 -0.110 0.089
0.200 -0.107 0.088
0.201 -0.105 0.088
0.202 -0.103 0.088
0.202 -0.101 0.088
0.201 -0.099 0.088
0.201 -0.097 0.087
0.202 -0.095 0.088
0.202 -0.093 0.087
0.201 -0.090 0.087
0.201 -0.088 0.087
0.203 -0.087 0.088
0.204 -0.085 0.088
0.204 -0.083 0.088
0.204 -0.081 0.087
0.202 -0.078 0.087
0.201 -0.076 0.086
0.202 -0.074 0.086
0.204 -0.073 0.087
0.205 -0.071 0.087
0.208 -0.070 0.088
0.209 -0.068 0.089
0.210 -0.067 0.089
0.212 -0.065 0.090
0.213 -0.063 0.090
0.213 -0.061 0.090
0.213 -0.059 0.090
0.214 -0.057 0.090
0.214 -0.055 0.090
0.216 -0.054 0.091
0.214 -0.051 0.090
0.214 -0.049 0.090
0.214 -0.047 0.090
0.214 -0.045 0.090
0.214 -0.043 0.090
0.216 -0.041 0.090
0.216 -0.039 0.090
0.214 -0.037 0.090
0.214 -0.035 0.090
0.214 -0.033 0.089
0.213 -0.031 0.089
0.215 -0.029 0.090
0.227 -0.029 0.095
0.232 -0.027 0.097
0.231 -0.025 0.096
0.229 -0.022 0.095
0.226 -0.020 0.094
0.219 -0.017 0.091
0.207 -0.014 0.086
0.196 -0.012 0.081
0.189 -0.010 0.079
0.184 -0.008 0.077
0.184 -0.006 0.077
0.187 -0.004 0.078
0.182 -0.002 0.076
0.178 -0.001 0.074
0.169 0.001 0.070
0.165 0.002 0.069
0.179 0.004 0.074
0.172 0.006 0.072
0.179 0.008 0.074
0.176 0.009 0.073
0.177 0.011 0.073
0.184 0.013 0.076
0.177 0.016 0.074
0.173 0.017 0.072
0.180 0.021 0.075
0.173 0.022 0.072
0.165 0.022 0.069
0.159 0.023 0.066
0.166 0.027 0.070
0.169 0.029 0.071
0.174 0.032 0.073
0.184 0.035 0.077
0.191 0.039 0.080
0.202 0.043 0.085
0.209 0.046 0.088
0.226 0.052 0.095
0.227 0.055 0.096
0.220 0.055 0.093
0.215 0.056 0.091
0.213 0.058 0.090
0.202 0.057 0.086
0.198 0.057 0.084
0.198 0.059 0.084
0.199 0.062 0.084
0.197 0.063 0.084
0.196 0.065 0.084
0.197 0.067 0.084
0.198 0.069 0.085
0.198 0.071 0.085
0.195 0.072 0.084
0.194 0.074 0.084
0.196 0.077 0.084
0.196 0.079 0.085
0.194 0.080 0.084
0.194 0.082 0.084
0.193 0.084 0.084
0.193 0.086 0.084
0.193 0.088 0.084
0.192 0.089 0.084
0.192 0.092 0.084
0.190 0.093 0.084
0.189 0.094 0.083
0.199 0.101 0.088
0.197 0.102 0.087
0.182 0.097 0.081
0.175 0.095 0.078
0.174 0.096 0.077
0.172 0.098 0.077
0.168 0.097 0.075
0.162 0.096 0.073
0.161 0.097 0.073
0.168 0.103 0.076
0.178 0.112 0.081
0.183 0.117 0.083
0.187 0.122 0.086
0.189 0.125 0.087
0.190 0.129 0.088
0.189 0.130 0.087
0.185 0.130 0.086
0.204 0.146 0.095
0.205 0.149 0.096
0.195 0.145 0.092
0.188 0.142 0.089
0.180 0.138 0.085
0.179 0.140 0.085
0.189 0.150 0.090
0.192 0.156 0.092
0.191 0.157 0.092
0.180 0.151 0.087
0.176 0.151 0.086
0.176 0.153 0.086
0.173 0.154 0.085
0.173 0.156 0.085
0.173 0.159 0.086
0.172 0.161 0.086
0.172 0.163 0.086
0.171 0.165 0.086
0.172 0.169 0.087
0.170 0.170 0.087
0.167 0.170 0.086
0.168 0.174 0.087
0.168 0.177 0.087
0.168 0.179 0.088
0.167 0.181 0.088
0.165 0.183 0.087
0.166 0.187 0.088
0.165 0.189 0.088
0.164 0.191 0.088
0.164 0.194 0.089
0.163 0.196 0.089
0.163 0.198 0.089
0.161 0.200 0.089
0.161 0.202 0.089
0.160 0.204 0.089
0.158 0.205 0.089
0.158 0.207 0.089
0.101 -0.133 0.057
0.101 -0.130 0.056
0.100 -0.128 0.056
0.100 -0.126 0.055
0.118 -0.147 0.065
0.123 -0.151 0.068
0.124 -0.150 0.068
0.124 -0.148 0.067
0.123 -0.144 0.066
0.123 -0.143 0.066
0.124 -0.141 0.066
0.124 -0.139 0.066
0.123 -0.136 0.065
0.121 -0.132 0.064
0.120 -0.129 0.063
0.122 -0.129 0.064
0.117 -0.121 0.061
0.115 -0.118 0.060
0.104 -0.105 0.054
0.105 -0.105 0.054
0.108 -0.105 0.055
0.111 -0.107 0.056
0.114 -0.108 0.057
0.116 -0.108 0.058
0.127 -0.117 0.064
0.191 -0.169 0.094
0.193 -0.168 0.095
0.192 -0.165 0.094
0.193 -0.164 0.095
0.195 -0.162 0.095
0.194 -0.159 0.094
0.195 -0.157 0.094
0.195 -0.154 0.094
0.194 -0.151 0.093
0.195 -0.149 0.093
0.195 -0.146 0.093
0.194 -0.143 0.092
0.193 -0.140 0.091
0.193 -0.138 0.091
0.194 -0.136 0.091
0.196 -0.135 0.091
0.196 -0.133 0.091
0.196 -0.130 0.091
0.196 -0.128 0.091
0.197 -0.126 0.091
0.197 -0.124 0.091
0.198 -0.122 0.091
0.198 -0.119 0.090
0.198 -0.117 0.090
0.199 -0.115 0.090
0.200 -0.114 0.091
0.199 -0.111 0.090
0.199 -0.109 0.090
0.199 -0.107 0.090
0.200 -0.105 0.090
0.200 -0.103 0.090
0.200 -0.101 0.089
0.199 -0.098 0.089
0.200 -0.096 0.089
0.202 -0.095 0.090
0.202 -0.093 0.090
0.200 -0.090 0.089
0.201 -0.088 0.089
0.202 -0.087 0.089
0.203 -0.085 0.089
