VERSION .7
FIELDS x y z
SIZE 4 4 4
TYPE F F F
COUNT 1 1 1
WIDTH     2432
HEIGHT 1
VIEWPOINT 0 0 0 1 0 0 0
POINTS     2432
DATA ascii
0.354 0.194 -0.087
0.345 0.193 -0.085
0.349 0.199 -0.086
0.357 0.208 -0.088
0.363 0.215 -0.090
0.379 0.229 -0.094
0.385 0.237 -0.096
0.379 0.238 -0.094
0.359 0.229 -0.090
0.303 -0.421 -0.088
0.305 -0.417 -0.088
0.307 -0.415 -0.088
0.310 -0.414 -0.089
0.310 -0.408 -0.088
0.306 -0.398 -0.087
0.305 -0.391 -0.086
0.309 -0.391 -0.087
0.311 -0.388 -0.087
0.308 -0.379 -0.086
0.311 -0.376 -0.086
0.311 -0.372 -0.086
0.310 -0.365 -0.085
0.308 -0.358 -0.084
0.306 -0.350 -0.084
0.304 -0.343 -0.083
0.304 -0.337 -0.082
0.303 -0.331 -0.082
0.304 -0.327 -0.081
0.305 -0.323 -0.081
0.307 -0.320 -0.081
0.306 -0.314 -0.081
0.304 -0.307 -0.080
0.302 -0.301 -0.079
0.302 -0.296 -0.079
0.301 -0.291 -0.078
0.302 -0.287 -0.078
0.303 -0.283 -0.078
0.299 -0.276 -0.077
0.300 -0.272 -0.076
0.301 -0.269 -0.076
0.301 -0.264 -0.076
0.298 -0.258 -0.075
0.299 -0.254 -0.075
0.296 -0.248 -0.074
0.293 -0.241 -0.073
0.287 -0.232 -0.071
0.285 -0.228 -0.071
0.279 -0.219 -0.069
0.267 -0.206 -0.066
0.214 -0.160 -0.052
0.224 -0.165 -0.054
0.221 -0.160 -0.054
0.232 -0.165 -0.056
0.227 -0.158 -0.055
0.223 -0.153 -0.054
0.225 -0.152 -0.054
0.231 -0.153 -0.055
0.216 -0.141 -0.051
0.217 -0.139 -0.052
0.220 -0.138 -0.052
0.212 -0.131 -0.050
0.211 -0.128 -0.050
0.212 -0.126 -0.050
0.220 -0.128 -0.052
0.223 -0.128 -0.052
0.207 -0.116 -0.048
0.208 -0.114 -0.048
0.208 -0.113 -0.049
0.212 -0.112 -0.049
0.242 -0.125 -0.056
0.244 -0.124 -0.056
0.247 -0.123 -0.057
0.245 -0.119 -0.056
0.245 -0.117 -0.056
0.303 -0.141 -0.070
0.308 -0.141 -0.071
0.315 -0.141 -0.072
0.317 -0.138 -0.072
0.307 -0.131 -0.070
0.304 -0.126 -0.069
0.282 -0.114 -0.064
0.270 -0.107 -0.061
0.273 -0.106 -0.062
0.263 -0.099 -0.060
0.248 -0.091 -0.056
0.359 -0.125 -0.081
0.362 -0.122 -0.081
0.367 -0.120 -0.082
0.373 -0.119 -0.084
0.380 -0.117 -0.085
0.387 -0.116 -0.087
0.396 -0.115 -0.089
0.403 -0.113 -0.090
0.408 -0.110 -0.091
0.417 -0.109 -0.093
0.428 -0.108 -0.096
0.437 -0.106 -0.097
0.436 -0.102 -0.097
0.418 -0.094 -0.093
0.413 -0.089 -0.092
0.407 -0.084 -0.091
0.395 -0.077 -0.088
0.291 -0.052 -0.065
0.288 -0.048 -0.064
0.289 -0.046 -0.064
0.288 -0.043 -0.064
0.292 -0.041 -0.065
0.291 -0.038 -0.064
0.294 -0.036 -0.065
0.291 -0.033 -0.064
0.291 -0.030 -0.064
0.293 -0.028 -0.065
0.312 -0.027 -0.069
0.318 -0.025 -0.070
0.310 -0.021 -0.068
0.302 -0.018 -0.067
0.302 -0.015 -0.067
0.307 -0.013 -0.068
0.314 -0.010 -0.069
0.320 -0.007 -0.071
0.301 -0.004 -0.066
0.303 -0.001 -0.067
0.305 0.001 -0.067
0.309 0.004 -0.068
0.310 0.007 -0.068
0.311 0.010 -0.069
0.313 0.013 -0.069
0.314 0.016 -0.069
0.315 0.019 -0.070
0.315 0.021 -0.070
0.317 0.024 -0.070
0.319 0.028 -0.071
0.317 0.030 -0.070
0.317 0.033 -0.070
0.318 0.036 -0.070
0.319 0.039 -0.071
0.320 0.042 -0.071
0.321 0.045 -0.071
0.320 0.048 -0.071
0.318 0.051 -0.071
0.318 0.054 -0.071
0.318 0.057 -0.071
0.318 0.059 -0.071
0.317 0.062 -0.071
0.317 0.065 -0.071
0.316 0.068 -0.071
0.315 0.071 -0.070
0.314 0.073 -0.070
0.313 0.076 -0.070
0.315 0.080 -0.071
0.317 0.083 -0.071
0.316 0.086 -0.071
0.326 0.092 -0.073
0.330 0.096 -0.074
0.332 0.100 -0.075
0.324 0.101 -0.073
0.307 0.098 -0.069
0.310 0.102 -0.070
0.325 0.110 -0.074
0.315 0.116 -0.072
0.324 0.123 -0.074
0.333 0.130 -0.076
0.352 0.159 -0.081
0.342 0.158 -0.079
0.334 0.161 -0.077
0.346 0.185 -0.081
0.349 0.191 -0.082
0.338 0.189 -0.080
0.338 0.192 -0.080
0.358 0.208 -0.085
0.366 0.217 -0.087
0.365 0.220 -0.087
0.376 0.231 -0.090
0.362 0.227 -0.087
0.358 0.233 -0.086
0.373 0.343 -0.097
0.358 0.341 -0.094
0.297 -0.411 -0.082
0.303 -0.415 -0.084
0.305 -0.413 -0.084
0.306 -0.409 -0.084
0.307 -0.404 -0.084
0.303 -0.394 -0.083
0.301 -0.386 -0.082
0.304 -0.384 -0.082
0.304 -0.379 -0.082
0.306 -0.376 -0.082
0.308 -0.373 -0.082
0.309 -0.368 -0.082
0.308 -0.362 -0.081
0.306 -0.355 -0.080
0.306 -0.349 -0.080
0.304 -0.342 -0.079
0.304 -0.337 -0.079
0.304 -0.331 -0.078
0.303 -0.326 -0.078
0.304 -0.321 -0.077
0.306 -0.319 -0.078
0.307 -0.315 -0.078
0.302 -0.305 -0.076
0.301 -0.300 -0.075
0.301 -0.294 -0.075
0.300 -0.289 -0.074
0.301 -0.286 -0.074
0.300 -0.281 -0.074
0.299 -0.275 -0.073
0.298 -0.270 -0.073
0.299 -0.267 -0.073
0.300 -0.263 -0.072
0.299 -0.258 -0.072
0.299 -0.254 -0.072
0.298 -0.250 -0.071
0.296 -0.244 -0.071
0.292 -0.237 -0.069
0.292 -0.233 -0.069
0.290 -0.228 -0.068
0.227 -0.167 -0.053
0.220 -0.159 -0.051
0.225 -0.160 -0.052
0.240 -0.167 -0.055
0.245 -0.168 -0.056
0.247 -0.167 -0.057
0.240 -0.159 -0.055
0.229 -0.149 -0.052
0.219 -0.140 -0.050
0.220 -0.138 -0.050
0.211 -0.130 -0.048
0.208 -0.126 -0.047
0.207 -0.123 -0.047
0.214 -0.124 -0.048
0.224 -0.128 -0.050
0.208 -0.117 -0.047
0.207 -0.114 -0.046
0.209 -0.112 -0.046
0.212 -0.112 -0.047
0.233 -0.121 -0.052
0.243 -0.123 -0.054
0.246 -0.122 -0.054
0.244 -0.119 -0.054
0.244 -0.116 -0.054
0.313 -0.143 -0.069
0.313 -0.139 -0.069
0.313 -0.136 -0.068
0.320 -0.136 -0.070
0.278 -0.113 -0.061
0.273 -0.108 -0.059
0.269 -0.104 -0.058
0.266 -0.100 -0.058
0.360 -0.125 -0.078
0.362 -0.122 -0.078
0.366 -0.120 -0.079
0.372 -0.118 -0.080
0.380 -0.117 -0.082
0.385 -0.115 -0.083
0.394 -0.114 -0.084
0.402 -0.112 -0.086
0.408 -0.110 -0.087
0.417 -0.109 -0.089
0.429 -0.108 -0.092
0.438 -0.106 -0.094
0.435 -0.101 -0.093
0.421 -0.094 -0.090
0.411 -0.088 -0.088
0.405 -0.083 -0.086
0.389 -0.076 -0.083
0.375 -0.070 -0.080
0.287 -0.051 -0.061
0.287 -0.048 -0.061
0.287 -0.046 -0.061
0.287 -0.043 -0.061
0.292 -0.041 -0.062
0.291 -0.038 -0.062
0.292 -0.036 -0.062
0.295 -0.033 -0.062
0.293 -0.031 -0.062
0.295 -0.028 -0.062
0.313 -0.024 -0.066
0.313 -0.021 -0.066
0.312 -0.018 -0.066
0.305 -0.015 -0.065
0.313 -0.013 -0.066
0.316 -0.010 -0.067
0.303 -0.007 -0.064
0.302 -0.004 -0.064
0.303 -0.001 -0.064
0.308 0.001 -0.065
0.310 0.004 -0.066
0.311 0.007 -0.066
0.312 0.010 -0.066
0.314 0.013 -0.067
0.315 0.016 -0.067
0.316 0.019 -0.067
0.317 0.021 -0.067
0.318 0.024 -0.067
0.319 0.027 -0.068
0.318 0.030 -0.067
0.318 0.033 -0.067
0.318 0.036 -0.068
0.319 0.039 -0.068
0.321 0.042 -0.068
0.321 0.045 -0.068
0.321 0.048 -0.068
0.320 0.051 -0.068
0.319 0.054 -0.068
0.319 0.057 -0.068
0.318 0.060 -0.068
0.318 0.063 -0.068
0.317 0.065 -0.068
0.316 0.068 -0.068
0.315 0.071 -0.067
0.315 0.074 -0.068
0.314 0.076 -0.067
0.313 0.079 -0.067
0.318 0.083 -0.068
0.318 0.086 -0.068
0.323 0.091 -0.069
0.323 0.094 -0.070
0.313 0.094 -0.067
0.319 0.099 -0.069
0.310 0.099 -0.067
0.310 0.102 -0.067
0.323 0.110 -0.070
0.316 0.110 -0.069
0.298 0.107 -0.065
0.308 0.114 -0.067
0.328 0.124 -0.072
0.346 0.159 -0.076
0.336 0.158 -0.075
0.354 0.189 -0.079
0.341 0.186 -0.077
0.338 0.189 -0.076
0.332 0.189 -0.075
0.342 0.198 -0.077
0.352 0.208 -0.080
0.366 0.221 -0.083
0.366 0.225 -0.084
0.365 0.228 -0.084
0.366 0.233 -0.084
0.361 0.235 -0.083
0.349 0.231 -0.081
0.373 0.274 -0.088
0.383 0.352 -0.095
0.293 -0.406 -0.078
0.301 -0.412 -0.080
0.303 -0.409 -0.080
0.301 -0.401 -0.079
0.301 -0.395 -0.079
0.302 -0.391 -0.078
0.300 -0.385 -0.078
0.301 -0.379 -0.078
0.304 -0.378 -0.078
0.305 -0.375 -0.078
0.308 -0.373 -0.078
0.309 -0.368 -0.078
0.308 -0.362 -0.078
0.307 -0.355 -0.077
0.306 -0.348 -0.076
0.306 -0.343 -0.076
0.306 -0.339 -0.076
0.306 -0.333 -0.075
0.303 -0.325 -0.074
0.301 -0.319 -0.073
0.302 -0.314 -0.073
0.303 -0.311 -0.073
0.301 -0.304 -0.072
0.302 -0.300 -0.072
0.302 -0.295 -0.072
0.302 -0.291 -0.072
0.300 -0.285 -0.071
0.300 -0.281 -0.071
0.300 -0.276 -0.070
0.300 -0.271 -0.070
0.300 -0.267 -0.070
0.301 -0.264 -0.070
0.302 -0.261 -0.070
0.301 -0.256 -0.069
0.302 -0.253 -0.069
0.302 -0.249 -0.069
0.304 -0.246 -0.069
0.303 -0.241 -0.069
0.296 -0.232 -0.067
0.290 -0.224 -0.065
0.230 -0.169 -0.051
0.232 -0.168 -0.052
0.238 -0.169 -0.053
0.235 -0.164 -0.052
0.241 -0.165 -0.053
0.248 -0.167 -0.055
0.247 -0.163 -0.054
0.229 -0.149 -0.050
0.222 -0.142 -0.048
0.223 -0.140 -0.048
0.210 -0.129 -0.046
0.207 -0.125 -0.045
0.206 -0.122 -0.044
0.210 -0.122 -0.045
0.219 -0.125 -0.047
0.208 -0.117 -0.045
0.207 -0.114 -0.044
0.208 -0.112 -0.044
0.209 -0.110 -0.044
0.233 -0.121 -0.049
0.241 -0.122 -0.051
0.245 -0.122 -0.052
0.245 -0.119 -0.052
0.244 -0.116 -0.051
0.311 -0.142 -0.065
0.315 -0.140 -0.066
0.311 -0.135 -0.065
0.309 -0.131 -0.065
0.277 -0.112 -0.058
0.264 -0.104 -0.055
0.267 -0.103 -0.055
0.264 -0.099 -0.055
0.360 -0.125 -0.074
0.362 -0.122 -0.075
0.365 -0.120 -0.075
0.369 -0.117 -0.076
0.376 -0.116 -0.077
0.382 -0.114 -0.078
0.390 -0.113 -0.080
0.398 -0.111 -0.082
0.406 -0.110 -0.083
0.415 -0.108 -0.085
0.424 -0.107 -0.087
0.439 -0.106 -0.090
0.445 -0.104 -0.091
0.423 -0.095 -0.086
0.415 -0.089 -0.085
0.404 -0.083 -0.082
0.283 -0.050 -0.058
0.286 -0.048 -0.058
0.285 -0.045 -0.058
0.287 -0.043 -0.058
0.288 -0.041 -0.058
0.289 -0.038 -0.059
0.293 -0.036 -0.059
0.292 -0.033 -0.059
0.307 -0.032 -0.062
0.309 -0.029 -0.063
0.305 -0.026 -0.062
0.310 -0.024 -0.063
0.307 -0.021 -0.062
0.301 -0.018 -0.061
0.310 -0.015 -0.063
0.315 -0.013 -0.064
0.312 -0.010 -0.063
0.302 -0.007 -0.061
0.303 -0.004 -0.061
0.305 -0.001 -0.062
0.307 0.001 -0.062
0.311 0.004 -0.063
0.312 0.007 -0.063
0.313 0.010 -0.063
0.315 0.013 -0.064
0.317 0.016 -0.064
0.317 0.019 -0.064
0.317 0.022 -0.064
0.319 0.025 -0.065
0.319 0.027 -0.065
0.319 0.030 -0.065
0.319 0.033 -0.065
0.318 0.036 -0.065
0.319 0.039 -0.065
0.321 0.042 -0.065
0.321 0.045 -0.065
0.322 0.048 -0.065
0.322 0.051 -0.066
0.321 0.054 -0.065
0.320 0.057 -0.065
0.320 0.060 -0.065
0.319 0.063 -0.065
0.318 0.065 -0.065
0.317 0.068 -0.065
0.316 0.071 -0.065
0.316 0.074 -0.065
0.316 0.077 -0.065
0.314 0.079 -0.064
0.313 0.082 -0.064
0.322 0.088 -0.066
0.320 0.090 -0.066
0.315 0.091 -0.065
0.307 0.092 -0.063
0.313 0.097 -0.065
0.325 0.104 -0.067
0.309 0.102 -0.064
0.326 0.110 -0.068
0.319 0.111 -0.066
0.328 0.124 -0.068
0.337 0.131 -0.071
0.340 0.156 -0.072
0.347 0.186 -0.075
0.348 0.190 -0.075
0.338 0.188 -0.073
0.334 0.190 -0.072
0.337 0.195 -0.073
0.348 0.205 -0.076
0.356 0.215 -0.078
0.376 0.235 -0.082
0.375 0.239 -0.082
0.370 0.240 -0.082
0.357 0.240 -0.079
0.391 0.353 -0.092
0.389 0.357 -0.092
0.281 -0.389 -0.071
0.292 -0.389 -0.073
0.298 -0.391 -0.074
0.296 -0.384 -0.074
0.300 -0.384 -0.074
0.301 -0.380 -0.074
0.304 -0.378 -0.074
0.305 -0.374 -0.074
0.307 -0.371 -0.075
0.308 -0.366 -0.074
0.306 -0.359 -0.074
0.306 -0.354 -0.073
0.305 -0.347 -0.073
0.305 -0.343 -0.072
0.306 -0.338 -0.072
0.305 -0.332 -0.071
0.304 -0.326 -0.071
0.300 -0.317 -0.070
0.300 -0.312 -0.069
0.300 -0.308 -0.069
0.302 -0.304 -0.069
0.302 -0.300 -0.069
0.305 -0.298 -0.069
0.305 -0.294 -0.069
0.303 -0.287 -0.068
0.302 -0.282 -0.068
0.304 -0.279 -0.068
0.306 -0.277 -0.068
0.305 -0.272 -0.068
0.305 -0.267 -0.067
0.306 -0.264 -0.067
0.308 -0.262 -0.068
0.306 -0.256 -0.067
0.307 -0.252 -0.067
0.306 -0.248 -0.066
0.306 -0.244 -0.066
0.306 -0.239 -0.066
0.303 -0.233 -0.065
0.237 -0.174 -0.050
0.229 -0.165 -0.049
0.228 -0.161 -0.048
0.231 -0.161 -0.049
0.239 -0.164 -0.050
0.242 -0.163 -0.051
0.248 -0.164 -0.052
0.237 -0.154 -0.049
0.226 -0.144 -0.047
0.224 -0.140 -0.046
0.211 -0.130 -0.044
0.205 -0.124 -0.042
0.206 -0.122 -0.042
0.206 -0.120 -0.042
0.215 -0.123 -0.044
0.218 -0.122 -0.045
0.206 -0.113 -0.042
0.206 -0.111 -0.042
0.209 -0.110 -0.042
0.220 -0.114 -0.045
0.241 -0.122 -0.049
0.245 -0.122 -0.050
0.245 -0.119 -0.049
0.243 -0.116 -0.049
0.246 -0.115 -0.049
0.310 -0.141 -0.062
0.310 -0.138 -0.062
0.313 -0.136 -0.062
0.270 -0.104 -0.053
0.274 -0.103 -0.054
0.359 -0.124 -0.071
0.361 -0.122 -0.071
0.364 -0.119 -0.072
0.368 -0.117 -0.072
0.373 -0.115 -0.073
0.380 -0.113 -0.075
0.388 -0.112 -0.076
0.397 -0.111 -0.078
0.402 -0.109 -0.079
0.409 -0.107 -0.080
0.419 -0.105 -0.082
0.437 -0.106 -0.085
0.441 -0.103 -0.086
0.428 -0.096 -0.083
0.411 -0.088 -0.080
0.400 -0.082 -0.078
0.287 -0.051 -0.056
0.288 -0.048 -0.056
0.296 -0.047 -0.057
0.283 -0.042 -0.055
0.279 -0.039 -0.054
0.289 -0.038 -0.056
0.290 -0.036 -0.056
0.298 -0.034 -0.058
0.311 -0.032 -0.060
0.302 -0.023 -0.058
0.293 -0.020 -0.057
0.297 -0.017 -0.057
0.311 -0.016 -0.060
0.319 -0.013 -0.062
0.301 -0.010 -0.058
0.302 -0.007 -0.058
0.304 -0.004 -0.059
0.306 -0.001 -0.059
0.307 0.001 -0.059
0.311 0.004 -0.060
0.313 0.007 -0.060
0.314 0.010 -0.061
0.317 0.013 -0.061
0.317 0.016 -0.061
0.317 0.019 -0.061
0.319 0.022 -0.062
0.327 0.025 -0.063
0.324 0.028 -0.063
0.319 0.030 -0.062
0.319 0.033 -0.062
0.319 0.036 -0.062
0.324 0.040 -0.063
0.325 0.043 -0.063
0.323 0.045 -0.063
0.323 0.048 -0.063
0.323 0.051 -0.063
0.322 0.054 -0.063
0.321 0.057 -0.063
0.321 0.060 -0.063
0.320 0.063 -0.062
0.319 0.066 -0.062
0.319 0.068 -0.062
0.318 0.071 -0.062
0.317 0.074 -0.062
0.317 0.077 -0.062
0.315 0.080 -0.062
0.313 0.082 -0.061
0.326 0.088 -0.064
0.322 0.090 -0.063
0.314 0.091 -0.062
0.306 0.092 -0.060
0.325 0.101 -0.064
0.333 0.106 -0.066
0.307 0.101 -0.061
0.314 0.106 -0.062
0.332 0.116 -0.066
0.322 0.122 -0.064
0.332 0.129 -0.066
0.354 0.163 -0.071
0.343 0.161 -0.069
0.321 0.168 -0.066
0.341 0.182 -0.070
0.342 0.187 -0.070
0.331 0.184 -0.068
0.340 0.193 -0.070
0.350 0.203 -0.072
0.337 0.199 -0.070
0.346 0.208 -0.072
0.357 0.219 -0.074
0.375 0.234 -0.078
0.376 0.239 -0.079
0.386 0.255 -0.081
0.338 0.232 -0.072
0.371 0.273 -0.080
0.364 0.272 -0.079
0.381 0.300 -0.083
0.247 -0.342 -0.059
0.263 -0.359 -0.063
0.258 -0.343 -0.061
0.269 -0.348 -0.063
0.271 -0.346 -0.064
0.285 -0.354 -0.066
0.299 -0.361 -0.069
0.298 -0.355 -0.069
0.299 -0.350 -0.068
0.302 -0.348 -0.069
0.303 -0.345 -0.069
0.303 -0.340 -0.068
0.304 -0.336 -0.068
0.305 -0.332 -0.068
0.301 -0.322 -0.067
0.301 -0.317 -0.067
0.302 -0.314 -0.066
0.303 -0.310 -0.066
0.308 -0.310 -0.067
0.307 -0.304 -0.067
0.306 -0.299 -0.066
0.307 -0.295 -0.066
0.309 -0.293 -0.066
0.311 -0.290 -0.066
0.307 -0.282 -0.065
0.310 -0.280 -0.066
0.312 -0.277 -0.066
0.308 -0.270 -0.065
0.313 -0.269 -0.065
0.310 -0.263 -0.065
0.311 -0.259 -0.065
0.311 -0.255 -0.064
0.310 -0.251 -0.064
0.310 -0.246 -0.064
0.311 -0.244 -0.064
0.314 -0.241 -0.064
0.309 -0.234 -0.063
0.242 -0.177 -0.049
0.231 -0.166 -0.047
0.223 -0.158 -0.045
0.219 -0.153 -0.044
0.230 -0.158 -0.046
0.242 -0.163 -0.048
0.237 -0.157 -0.047
0.232 -0.150 -0.046
0.220 -0.140 -0.044
0.214 -0.134 -0.042
0.203 -0.125 -0.040
0.205 -0.124 -0.040
0.204 -0.121 -0.040
0.204 -0.119 -0.040
0.208 -0.119 -0.041
0.217 -0.121 -0.042
0.205 -0.113 -0.040
0.206 -0.111 -0.040
0.206 -0.109 -0.040
0.216 -0.111 -0.042
0.242 -0.123 -0.047
0.244 -0.121 -0.047
0.249 -0.121 -0.048
0.243 -0.115 -0.047
0.245 -0.114 -0.047
0.304 -0.138 -0.058
0.311 -0.138 -0.059
0.312 -0.136 -0.059
0.355 -0.123 -0.067
0.359 -0.121 -0.067
0.364 -0.119 -0.068
0.368 -0.117 -0.069
0.372 -0.114 -0.070
0.380 -0.113 -0.071
0.391 -0.113 -0.073
0.396 -0.111 -0.074
0.402 -0.109 -0.075
0.409 -0.107 -0.076
0.419 -0.105 -0.078
0.429 -0.104 -0.080
0.432 -0.100 -0.080
0.424 -0.095 -0.079
0.293 -0.052 -0.054
0.291 -0.049 -0.054
0.288 -0.046 -0.053
0.297 -0.044 -0.055
0.289 -0.041 -0.053
0.287 -0.038 -0.053
0.290 -0.036 -0.054
0.295 -0.033 -0.054
0.298 -0.031 -0.055
0.311 -0.030 -0.057
0.295 -0.025 -0.054
0.288 -0.022 -0.053
0.287 -0.019 -0.053
0.298 -0.018 -0.055
0.312 -0.016 -0.057
0.313 -0.013 -0.058
0.300 -0.010 -0.055
0.303 -0.007 -0.056
0.305 -0.004 -0.056
0.308 -0.001 -0.057
0.309 0.001 -0.057
0.312 0.004 -0.057
0.313 0.007 -0.058
0.316 0.010 -0.058
0.318 0.013 -0.058
0.319 0.016 -0.059
0.320 0.019 -0.059
0.324 0.022 -0.060
0.317 0.024 -0.059
0.317 0.027 -0.059
0.319 0.030 -0.059
0.320 0.033 -0.059
0.320 0.036 -0.059
0.321 0.039 -0.059
0.322 0.042 -0.060
0.323 0.045 -0.060
0.329 0.049 -0.061
0.322 0.051 -0.060
0.322 0.054 -0.060
0.322 0.057 -0.060
0.322 0.060 -0.060
0.321 0.063 -0.060
0.320 0.066 -0.059
0.320 0.069 -0.059
0.319 0.071 -0.059
0.318 0.074 -0.059
0.317 0.077 -0.059
0.316 0.080 -0.059
0.314 0.082 -0.059
0.316 0.086 -0.059
0.321 0.090 -0.060
0.311 0.090 -0.058
0.319 0.096 -0.060
0.320 0.099 -0.060
0.332 0.106 -0.062
0.307 0.101 -0.058
0.307 0.104 -0.058
0.339 0.118 -0.064
0.325 0.116 -0.061
0.319 0.121 -0.061
0.343 0.158 -0.066
0.339 0.159 -0.065
0.333 0.163 -0.064
0.347 0.186 -0.068
0.336 0.183 -0.066
0.334 0.186 -0.066
0.342 0.194 -0.067
0.340 0.197 -0.067
0.352 0.207 -0.069
0.344 0.207 -0.068
0.353 0.216 -0.070
0.357 0.223 -0.071
0.367 0.233 -0.073
0.353 0.255 -0.072
0.378 0.346 -0.082
0.224 -0.310 -0.051
0.255 -0.348 -0.058
0.252 -0.340 -0.057
0.255 -0.340 -0.058
0.256 -0.336 -0.058
0.261 -0.338 -0.059
0.264 -0.338 -0.059
0.276 -0.348 -0.061
0.280 -0.348 -0.062
0.274 -0.335 -0.060
0.281 -0.338 -0.062
0.282 -0.335 -0.061
0.287 -0.337 -0.062
0.287 -0.331 -0.062
0.296 -0.336 -0.064
0.299 -0.335 -0.064
0.302 -0.333 -0.064
0.299 -0.325 -0.063
0.299 -0.320 -0.063
0.301 -0.317 -0.063
0.306 -0.318 -0.064
0.308 -0.314 -0.064
0.310 -0.312 -0.064
0.309 -0.306 -0.064
0.308 -0.301 -0.063
0.309 -0.297 -0.063
0.311 -0.294 -0.063
0.313 -0.292 -0.064
0.314 -0.288 -0.063
0.314 -0.284 -0.063
0.313 -0.278 -0.063
0.313 -0.274 -0.062
0.312 -0.269 -0.062
0.315 -0.267 -0.062
0.315 -0.263 -0.062
0.313 -0.257 -0.062
0.314 -0.254 -0.062
0.312 -0.248 -0.061
0.314 -0.246 -0.061
0.317 -0.244 -0.061
0.315 -0.238 -0.061
0.231 -0.166 -0.044
0.221 -0.156 -0.042
0.215 -0.150 -0.041
0.216 -0.148 -0.041
0.222 -0.149 -0.042
0.206 -0.136 -0.039
0.201 -0.131 -0.038
0.202 -0.129 -0.038
0.202 -0.127 -0.038
0.203 -0.125 -0.038
0.206 -0.124 -0.038
0.204 -0.121 -0.038
0.203 -0.118 -0.038
0.210 -0.120 -0.039
0.213 -0.119 -0.039
0.206 -0.113 -0.038
0.203 -0.109 -0.037
0.205 -0.108 -0.038
0.206 -0.107 -0.038
0.249 -0.124 -0.046
0.248 -0.120 -0.045
0.246 -0.117 -0.045
0.233 -0.108 -0.042
0.231 -0.098 -0.042
0.232 -0.096 -0.042
0.223 -0.090 -0.040
0.211 -0.083 -0.038
0.210 -0.081 -0.038
0.271 -0.099 -0.049
0.274 -0.098 -0.049
0.352 -0.122 -0.063
0.359 -0.121 -0.064
0.365 -0.119 -0.065
0.369 -0.117 -0.066
0.373 -0.115 -0.066
0.377 -0.112 -0.067
0.391 -0.113 -0.069
0.399 -0.112 -0.071
0.408 -0.110 -0.072
0.413 -0.108 -0.073
0.422 -0.106 -0.075
0.428 -0.103 -0.076
0.426 -0.099 -0.075
0.419 -0.093 -0.074
0.410 -0.088 -0.072
0.390 -0.080 -0.069
0.381 -0.074 -0.067
0.367 -0.068 -0.064
0.284 -0.050 -0.050
0.285 -0.048 -0.050
0.289 -0.046 -0.051
0.294 -0.044 -0.052
0.295 -0.041 -0.052
0.286 -0.038 -0.050
0.287 -0.035 -0.050
0.294 -0.033 -0.051
0.308 -0.032 -0.054
0.283 -0.024 -0.050
0.286 -0.022 -0.050
0.294 -0.020 -0.051
0.304 -0.018 -0.053
0.309 -0.015 -0.054
0.304 -0.012 -0.053
0.301 -0.010 -0.053
0.304 -0.007 -0.053
0.307 -0.004 -0.054
0.309 -0.001 -0.054
0.311 0.001 -0.054
0.313 0.004 -0.055
0.315 0.007 -0.055
0.316 0.010 -0.055
0.319 0.013 -0.056
0.319 0.016 -0.056
0.322 0.019 -0.056
0.319 0.022 -0.056
0.319 0.024 -0.056
0.318 0.027 -0.056
0.319 0.030 -0.056
0.320 0.033 -0.056
0.320 0.036 -0.056
0.321 0.039 -0.056
0.322 0.042 -0.057
0.323 0.045 -0.057
0.321 0.048 -0.056
0.333 0.053 -0.059
0.322 0.054 -0.057
0.323 0.057 -0.057
0.322 0.060 -0.057
0.322 0.063 -0.057
0.321 0.066 -0.057
0.320 0.069 -0.057
0.320 0.071 -0.057
0.318 0.074 -0.056
0.317 0.077 -0.056
0.316 0.080 -0.056
0.315 0.082 -0.056
0.314 0.085 -0.056
0.317 0.089 -0.056
0.318 0.092 -0.057
0.320 0.096 -0.057
0.325 0.101 -0.058
0.322 0.103 -0.058
0.324 0.107 -0.058
0.308 0.104 -0.055
0.328 0.114 -0.059
0.320 0.114 -0.057
0.337 0.155 -0.062
0.341 0.160 -0.062
0.347 0.185 -0.064
0.337 0.183 -0.063
0.336 0.187 -0.063
0.338 0.192 -0.063
0.343 0.198 -0.064
0.355 0.209 -0.067
0.362 0.217 -0.068
0.349 0.213 -0.066
0.347 0.216 -0.066
0.339 0.215 -0.064
0.352 0.232 -0.067
0.348 0.238 -0.067
0.363 0.266 -0.071
0.360 0.269 -0.070
0.370 0.296 -0.073
0.370 0.322 -0.075
0.388 0.349 -0.079
0.261 -0.360 -0.056
0.251 -0.342 -0.054
0.253 -0.341 -0.054
0.253 -0.337 -0.054
0.260 -0.341 -0.055
0.260 -0.336 -0.055
0.265 -0.338 -0.056
0.267 -0.336 -0.056
0.270 -0.335 -0.057
0.275 -0.331 -0.057
0.276 -0.327 -0.057
0.277 -0.325 -0.057
0.284 -0.327 -0.058
0.286 -0.324 -0.058
0.291 -0.326 -0.059
0.288 -0.313 -0.058
0.294 -0.315 -0.059
0.299 -0.315 -0.060
0.303 -0.314 -0.060
0.308 -0.314 -0.061
0.308 -0.310 -0.060
0.308 -0.305 -0.060
0.308 -0.300 -0.060
0.309 -0.297 -0.060
0.310 -0.293 -0.060
0.312 -0.290 -0.060
0.315 -0.289 -0.060
0.315 -0.284 -0.060
0.314 -0.278 -0.060
0.313 -0.274 -0.059
0.314 -0.270 -0.059
0.315 -0.266 -0.059
0.313 -0.261 -0.059
0.314 -0.258 -0.059
0.313 -0.253 -0.058
0.311 -0.247 -0.057
0.312 -0.243 -0.057
0.316 -0.243 -0.058
0.288 -0.214 -0.053
0.230 -0.166 -0.042
0.220 -0.156 -0.040
0.216 -0.150 -0.039
0.212 -0.145 -0.038
0.217 -0.146 -0.039
0.219 -0.145 -0.039
0.202 -0.131 -0.036
0.202 -0.129 -0.036
0.203 -0.127 -0.036
0.205 -0.126 -0.036
0.216 -0.130 -0.038
0.215 -0.127 -0.038
0.216 -0.125 -0.038
0.220 -0.125 -0.039
0.221 -0.124 -0.039
0.226 -0.124 -0.040
0.238 -0.128 -0.042
0.233 -0.123 -0.041
0.240 -0.124 -0.042
0.241 -0.122 -0.042
0.238 -0.118 -0.041
0.239 -0.116 -0.041
0.231 -0.110 -0.040
0.227 -0.105 -0.039
0.222 -0.101 -0.038
0.216 -0.096 -0.037
0.218 -0.095 -0.037
0.221 -0.094 -0.038
0.217 -0.090 -0.037
0.216 -0.087 -0.037
0.210 -0.083 -0.036
0.207 -0.079 -0.035
0.213 -0.080 -0.036
0.350 -0.118 -0.059
0.363 -0.119 -0.061
0.370 -0.117 -0.062
0.374 -0.115 -0.063
0.381 -0.113 -0.064
0.393 -0.113 -0.066
0.401 -0.112 -0.067
0.408 -0.110 -0.068
0.414 -0.108 -0.069
0.423 -0.106 -0.071
0.429 -0.104 -0.072
0.429 -0.100 -0.072
0.423 -0.094 -0.071
0.414 -0.088 -0.069
0.408 -0.083 -0.068
0.283 -0.050 -0.047
0.281 -0.047 -0.047
0.283 -0.045 -0.047
0.294 -0.044 -0.049
0.292 -0.041 -0.048
0.286 -0.038 -0.047
0.288 -0.035 -0.048
0.299 -0.034 -0.050
0.320 -0.033 -0.053
0.308 -0.029 -0.051
0.289 -0.025 -0.048
0.294 -0.023 -0.049
0.300 -0.020 -0.050
0.305 -0.018 -0.051
0.305 -0.015 -0.051
0.302 -0.012 -0.050
0.303 -0.010 -0.050
0.305 -0.007 -0.051
0.307 -0.004 -0.051
0.309 -0.001 -0.051
0.311 0.001 -0.052
0.313 0.004 -0.052
0.315 0.007 -0.052
0.317 0.010 -0.053
0.316 0.013 -0.052
0.323 0.016 -0.054
0.318 0.019 -0.053
0.319 0.022 -0.053
0.319 0.024 -0.053
0.318 0.027 -0.053
0.317 0.030 -0.053
0.317 0.033 -0.053
0.318 0.036 -0.053
0.319 0.039 -0.053
0.321 0.042 -0.053
0.323 0.045 -0.054
0.324 0.049 -0.054
0.320 0.051 -0.053
0.326 0.055 -0.054
0.323 0.057 -0.054
0.323 0.060 -0.054
0.322 0.063 -0.054
0.321 0.066 -0.054
0.320 0.069 -0.054
0.319 0.071 -0.053
0.318 0.074 -0.053
0.318 0.077 -0.053
0.317 0.080 -0.053
0.316 0.082 -0.053
0.316 0.085 -0.053
0.316 0.089 -0.053
0.322 0.093 -0.054
0.326 0.097 -0.055
0.326 0.101 -0.055
0.329 0.105 -0.056
0.323 0.106 -0.055
0.311 0.105 -0.053
0.315 0.109 -0.054
0.345 0.158 -0.060
0.343 0.161 -0.059
0.346 0.185 -0.061
0.336 0.187 -0.059
0.340 0.224 -0.061
0.336 0.225 -0.061
0.337 0.230 -0.061
0.333 0.236 -0.061
0.337 0.243 -0.062
0.374 0.284 -0.069
0.312 0.310 -0.062
0.259 -0.357 -0.053
0.254 -0.347 -0.052
0.256 -0.345 -0.052
0.256 -0.340 -0.052
0.259 -0.340 -0.052
0.263 -0.340 -0.053
0.258 -0.329 -0.052
0.267 -0.335 -0.053
0.276 -0.342 -0.055
0.278 -0.340 -0.055
0.277 -0.333 -0.054
0.272 -0.323 -0.053
0.274 -0.320 -0.053
0.290 -0.310 -0.055
0.293 -0.308 -0.055
0.297 -0.308 -0.056
0.300 -0.307 -0.056
0.305 -0.307 -0.057
0.305 -0.302 -0.056
0.306 -0.298 -0.056
0.305 -0.292 -0.056
0.305 -0.288 -0.056
0.309 -0.287 -0.056
0.313 -0.286 -0.057
0.314 -0.283 -0.056
0.316 -0.281 -0.057
0.317 -0.277 -0.057
0.316 -0.272 -0.056
0.315 -0.266 -0.056
0.316 -0.263 -0.056
0.313 -0.257 -0.055
0.311 -0.250 -0.054
0.287 -0.227 -0.050
0.232 -0.169 -0.040
0.232 -0.167 -0.040
0.222 -0.157 -0.038
0.214 -0.148 -0.036
0.216 -0.148 -0.037
0.217 -0.145 -0.037
0.219 -0.145 -0.037
0.229 -0.148 -0.039
0.233 -0.148 -0.039
0.227 -0.142 -0.038
0.225 -0.138 -0.038
0.224 -0.135 -0.037
0.223 -0.132 -0.037
0.219 -0.127 -0.036
0.220 -0.125 -0.036
0.220 -0.123 -0.036
0.220 -0.120 -0.036
0.226 -0.121 -0.037
0.236 -0.124 -0.039
0.241 -0.124 -0.040
0.245 -0.124 -0.040
0.237 -0.117 -0.039
0.228 -0.110 -0.037
0.223 -0.106 -0.036
0.212 -0.098 -0.034
0.210 -0.095 -0.034
0.208 -0.092 -0.034
0.208 -0.090 -0.034
0.218 -0.093 -0.035
0.213 -0.088 -0.034
0.216 -0.087 -0.035
0.207 -0.082 -0.033
0.207 -0.080 -0.033
0.211 -0.079 -0.034
0.291 -0.103 -0.047
0.296 -0.102 -0.047
0.306 -0.103 -0.049
0.367 -0.116 -0.058
0.374 -0.115 -0.060
0.383 -0.114 -0.061
0.390 -0.112 -0.062
0.396 -0.110 -0.063
0.406 -0.109 -0.064
0.413 -0.107 -0.065
0.420 -0.105 -0.067
0.429 -0.103 -0.068
0.429 -0.100 -0.068
0.422 -0.094 -0.067
0.419 -0.090 -0.066
0.413 -0.084 -0.065
0.394 -0.077 -0.062
0.379 -0.070 -0.060
0.289 -0.051 -0.046
0.282 -0.047 -0.044
0.291 -0.046 -0.046
0.291 -0.043 -0.046
0.289 -0.041 -0.045
0.286 -0.038 -0.045
0.288 -0.035 -0.045
0.298 -0.034 -0.047
0.322 -0.033 -0.051
0.320 -0.030 -0.050
0.308 -0.026 -0.048
0.308 -0.024 -0.048
0.303 -0.021 -0.048
0.303 -0.018 -0.048
0.306 -0.015 -0.048
0.301 -0.012 -0.047
0.302 -0.010 -0.047
0.306 -0.007 -0.048
0.307 -0.004 -0.048
0.308 -0.001 -0.048
0.311 0.001 -0.049
0.313 0.004 -0.049
0.315 0.007 -0.049
0.316 0.010 -0.050
0.322 0.013 -0.051
0.315 0.016 -0.049
0.319 0.019 -0.050
0.317 0.021 -0.050
0.315 0.024 -0.049
0.315 0.027 -0.049
0.315 0.030 -0.049
0.314 0.033 -0.049
0.315 0.036 -0.050
0.317 0.039 -0.050
0.318 0.042 -0.050
0.322 0.045 -0.051
0.322 0.048 -0.051
0.326 0.052 -0.051
0.322 0.054 -0.051
0.324 0.057 -0.051
0.323 0.060 -0.051
0.322 0.063 -0.051
0.322 0.066 -0.051
0.321 0.069 -0.051
0.319 0.071 -0.051
0.319 0.074 -0.051
0.318 0.077 -0.051
0.318 0.080 -0.051
0.317 0.083 -0.050
0.316 0.085 -0.050
0.317 0.089 -0.051
0.324 0.094 -0.052
0.324 0.097 -0.052
0.326 0.101 -0.052
0.330 0.105 -0.053
0.326 0.107 -0.052
0.312 0.105 -0.050
0.313 0.109 -0.050
0.316 0.113 -0.051
0.340 0.156 -0.056
0.334 0.157 -0.055
0.323 0.162 -0.053
0.228 -0.314 -0.044
0.259 -0.353 -0.050
0.259 -0.348 -0.049
0.258 -0.343 -0.049
0.261 -0.341 -0.049
0.261 -0.337 -0.049
0.262 -0.334 -0.049
0.269 -0.338 -0.050
0.271 -0.336 -0.050
0.270 -0.330 -0.050
0.269 -0.324 -0.050
0.266 -0.315 -0.049
0.288 -0.303 -0.051
0.288 -0.298 -0.051
0.296 -0.302 -0.052
0.304 -0.305 -0.053
0.306 -0.302 -0.053
0.303 -0.295 -0.052
0.298 -0.286 -0.051
0.301 -0.284 -0.052
0.305 -0.283 -0.052
0.308 -0.281 -0.052
0.310 -0.279 -0.053
0.315 -0.279 -0.053
0.315 -0.275 -0.053
0.316 -0.271 -0.053
0.314 -0.266 -0.052
0.314 -0.261 -0.052
0.314 -0.257 -0.052
0.306 -0.247 -0.051
0.222 -0.170 -0.036
0.232 -0.172 -0.038
0.231 -0.169 -0.037
0.222 -0.160 -0.036
0.217 -0.153 -0.035
0.219 -0.152 -0.035
0.218 -0.149 -0.035
0.217 -0.146 -0.035
0.215 -0.141 -0.034
0.218 -0.141 -0.035
0.224 -0.142 -0.035
0.225 -0.141 -0.036
0.226 -0.138 -0.036
0.224 -0.135 -0.035
0.219 -0.129 -0.034
0.216 -0.125 -0.034
0.209 -0.119 -0.033
0.209 -0.117 -0.033
0.213 -0.117 -0.033
0.218 -0.117 -0.034
0.227 -0.120 -0.035
0.239 -0.123 -0.037
0.244 -0.123 -0.038
0.234 -0.116 -0.036
0.224 -0.109 -0.034
0.221 -0.105 -0.034
0.222 -0.103 -0.034
0.227 -0.103 -0.035
0.227 -0.098 -0.035
0.224 -0.095 -0.034
0.222 -0.092 -0.034
0.218 -0.088 -0.033
0.215 -0.085 -0.033
0.210 -0.081 -0.032
0.209 -0.078 -0.032
0.280 -0.097 -0.042
0.296 -0.099 -0.045
0.380 -0.113 -0.057
0.387 -0.111 -0.058
0.399 -0.111 -0.060
0.402 -0.108 -0.060
0.413 -0.107 -0.062
0.420 -0.105 -0.063
0.427 -0.103 -0.064
0.425 -0.099 -0.063
0.418 -0.093 -0.062
0.411 -0.088 -0.061
0.410 -0.084 -0.061
0.394 -0.077 -0.059
0.285 -0.050 -0.042
0.286 -0.048 -0.042
0.290 -0.046 -0.043
0.292 -0.044 -0.043
0.289 -0.041 -0.043
0.286 -0.038 -0.042
0.289 -0.035 -0.043
0.296 -0.033 -0.044
0.312 -0.032 -0.046
0.313 -0.030 -0.046
0.310 -0.027 -0.046
0.308 -0.024 -0.045
0.297 -0.020 -0.044
0.302 -0.018 -0.045
0.308 -0.015 -0.045
0.301 -0.012 -0.044
0.301 -0.010 -0.044
0.306 -0.007 -0.045
0.307 -0.004 -0.045
0.308 -0.001 -0.046
0.310 0.001 -0.046
0.314 0.004 -0.046
0.316 0.007 -0.047
0.316 0.010 -0.047
0.321 0.013 -0.047
0.316 0.016 -0.047
0.317 0.018 -0.047
0.316 0.021 -0.047
0.314 0.024 -0.046
0.313 0.027 -0.046
0.314 0.030 -0.046
0.314 0.033 -0.046
0.314 0.035 -0.046
0.315 0.038 -0.047
0.316 0.041 -0.047
0.319 0.045 -0.047
0.321 0.048 -0.048
0.321 0.051 -0.048
0.324 0.054 -0.048
0.325 0.057 -0.048
0.323 0.060 -0.048
0.323 0.063 -0.048
0.322 0.066 -0.048
0.321 0.069 -0.048
0.320 0.071 -0.048
0.319 0.074 -0.048
0.319 0.077 -0.048
0.318 0.080 -0.048
0.317 0.083 -0.047
0.315 0.085 -0.047
0.315 0.088 -0.047
0.325 0.094 -0.049
0.323 0.097 -0.049
0.320 0.099 -0.048
0.330 0.105 -0.050
0.327 0.107 -0.049
0.314 0.106 -0.048
0.315 0.109 -0.048
0.310 0.111 -0.047
0.310 0.117 -0.047
0.317 0.123 -0.048
0.339 0.155 -0.052
0.333 0.156 -0.051
0.345 0.173 -0.054
0.309 0.158 -0.048
0.248 -0.342 -0.045
0.258 -0.352 -0.046
0.261 -0.350 -0.047
0.261 -0.347 -0.047
0.265 -0.347 -0.047
0.264 -0.341 -0.047
0.259 -0.329 -0.045
0.262 -0.329 -0.046
0.265 -0.328 -0.046
0.260 -0.317 -0.045
0.202 -0.229 -0.034
0.195 -0.218 -0.033
0.192 -0.211 -0.032
0.185 -0.200 -0.031
0.184 -0.196 -0.031
0.279 -0.289 -0.046
0.290 -0.295 -0.048
0.302 -0.303 -0.049
0.302 -0.298 -0.049
0.299 -0.291 -0.048
0.298 -0.286 -0.048
0.300 -0.283 -0.048
0.302 -0.281 -0.048
0.304 -0.278 -0.049
0.305 -0.274 -0.048
0.305 -0.271 -0.048
0.302 -0.263 -0.048
0.308 -0.264 -0.048
0.310 -0.262 -0.048
0.311 -0.258 -0.048
0.308 -0.252 -0.048
0.304 -0.245 -0.047
0.220 -0.171 -0.034
0.211 -0.162 -0.032
0.216 -0.163 -0.033
0.227 -0.168 -0.035
0.224 -0.164 -0.034
0.218 -0.157 -0.033
0.216 -0.152 -0.033
0.217 -0.150 -0.033
0.217 -0.148 -0.033
0.213 -0.142 -0.032
0.209 -0.138 -0.031
0.211 -0.136 -0.031
0.215 -0.137 -0.032
0.213 -0.133 -0.032
0.213 -0.131 -0.032
0.218 -0.131 -0.032
0.216 -0.127 -0.032
0.204 -0.118 -0.030
0.202 -0.115 -0.030
0.201 -0.112 -0.029
0.211 -0.115 -0.031
0.214 -0.115 -0.031
0.213 -0.110 -0.031
0.208 -0.105 -0.030
0.223 -0.110 -0.032
0.222 -0.107 -0.032
0.221 -0.105 -0.032
0.226 -0.105 -0.032
0.234 -0.106 -0.034
0.233 -0.104 -0.033
0.232 -0.100 -0.033
0.229 -0.097 -0.033
0.225 -0.093 -0.032
0.221 -0.089 -0.031
0.215 -0.085 -0.031
0.213 -0.082 -0.030
0.220 -0.082 -0.031
0.240 -0.087 -0.034
0.254 -0.090 -0.036
0.259 -0.089 -0.037
0.287 -0.096 -0.040
0.315 -0.097 -0.044
0.384 -0.111 -0.054
0.394 -0.110 -0.055
0.402 -0.108 -0.056
0.408 -0.106 -0.057
0.417 -0.105 -0.058
0.424 -0.102 -0.059
0.427 -0.099 -0.060
0.418 -0.093 -0.058
0.401 -0.086 -0.056
0.388 -0.079 -0.054
0.393 -0.077 -0.055
0.286 -0.050 -0.040
0.285 -0.048 -0.040
0.289 -0.046 -0.040
0.295 -0.044 -0.041
0.288 -0.040 -0.040
0.286 -0.038 -0.040
0.289 -0.035 -0.040
0.295 -0.033 -0.041
0.297 -0.031 -0.041
0.298 -0.028 -0.041
0.301 -0.026 -0.042
0.299 -0.023 -0.041
0.294 -0.020 -0.041
0.308 -0.018 -0.043
0.319 -0.016 -0.044
0.299 -0.012 -0.041
0.301 -0.010 -0.042
0.305 -0.007 -0.042
0.307 -0.004 -0.043
0.311 -0.001 -0.043
0.312 0.001 -0.043
0.313 0.004 -0.043
0.316 0.007 -0.044
0.317 0.010 -0.044
0.318 0.013 -0.044
0.317 0.016 -0.044
0.316 0.018 -0.044
0.316 0.021 -0.044
0.314 0.024 -0.044
0.312 0.027 -0.043
0.313 0.030 -0.044
0.313 0.033 -0.044
0.314 0.035 -0.044
0.315 0.038 -0.044
0.315 0.041 -0.044
0.317 0.044 -0.044
0.319 0.048 -0.044
0.322 0.051 -0.045
0.325 0.055 -0.045
0.323 0.057 -0.045
0.323 0.060 -0.045
0.323 0.063 -0.045
0.323 0.066 -0.045
0.322 0.069 -0.045
0.320 0.071 -0.045
0.320 0.074 -0.045
0.319 0.077 -0.045
0.317 0.080 -0.045
0.316 0.082 -0.044
0.315 0.085 -0.044
0.314 0.088 -0.044
0.329 0.095 -0.046
0.319 0.095 -0.045
0.315 0.097 -0.045
0.316 0.100 -0.045
0.321 0.105 -0.045
0.315 0.106 -0.045
0.312 0.108 -0.044
0.321 0.115 -0.046
0.303 0.114 -0.043
0.341 0.160 -0.049
0.229 -0.316 -0.039
0.258 -0.351 -0.043
0.262 -0.352 -0.044
0.265 -0.352 -0.044
0.266 -0.349 -0.044
0.255 -0.329 -0.042
0.262 -0.333 -0.043
0.267 -0.334 -0.044
0.262 -0.324 -0.043
0.263 -0.321 -0.043
0.195 -0.225 -0.031
0.191 -0.217 -0.030
0.190 -0.212 -0.030
0.186 -0.205 -0.029
0.183 -0.198 -0.029
0.196 -0.208 -0.030
0.276 -0.285 -0.042
0.285 -0.290 -0.044
0.293 -0.293 -0.045
0.292 -0.288 -0.044
0.297 -0.289 -0.045
0.299 -0.286 -0.045
0.301 -0.284 -0.045
0.303 -0.281 -0.045
0.304 -0.278 -0.045
0.303 -0.272 -0.045
0.302 -0.267 -0.045
0.304 -0.264 -0.045
0.306 -0.262 -0.045
0.308 -0.260 -0.045
0.305 -0.254 -0.044
0.304 -0.249 -0.044
0.299 -0.240 -0.043
0.213 -0.166 -0.031
0.208 -0.159 -0.030
0.205 -0.155 -0.029
0.213 -0.158 -0.030
0.217 -0.158 -0.031
0.215 -0.154 -0.030
0.216 -0.152 -0.030
0.217 -0.151 -0.031
0.215 -0.147 -0.030
0.211 -0.141 -0.030
0.204 -0.134 -0.028
0.210 -0.136 -0.029
0.212 -0.134 -0.029
0.210 -0.131 -0.029
0.205 -0.126 -0.028
0.213 -0.128 -0.029
0.213 -0.126 -0.029
0.211 -0.122 -0.029
0.209 -0.119 -0.029
0.205 -0.114 -0.028
0.209 -0.114 -0.028
0.213 -0.114 -0.029
0.213 -0.112 -0.029
0.209 -0.108 -0.028
0.216 -0.109 -0.029
0.217 -0.107 -0.029
0.220 -0.107 -0.030
0.221 -0.105 -0.030
0.221 -0.102 -0.030
0.225 -0.102 -0.030
0.231 -0.102 -0.031
0.223 -0.097 -0.030
0.227 -0.096 -0.030
0.222 -0.092 -0.030
0.218 -0.088 -0.029
0.218 -0.086 -0.029
0.214 -0.082 -0.028
0.230 -0.086 -0.030
0.245 -0.089 -0.032
0.251 -0.089 -0.033
0.258 -0.089 -0.034
0.250 -0.084 -0.033
0.247 -0.081 -0.033
0.393 -0.110 -0.052
0.399 -0.107 -0.052
0.403 -0.105 -0.053
0.409 -0.102 -0.053
0.424 -0.102 -0.055
0.426 -0.099 -0.056
0.421 -0.094 -0.055
0.405 -0.086 -0.053
0.387 -0.079 -0.050
0.378 -0.074 -0.049
0.365 -0.068 -0.047
0.287 -0.051 -0.037
0.286 -0.048 -0.037
0.286 -0.045 -0.037
0.296 -0.044 -0.038
0.287 -0.040 -0.037
0.287 -0.038 -0.037
0.294 -0.036 -0.038
0.295 -0.033 -0.038
0.294 -0.031 -0.038
0.293 -0.028 -0.038
0.294 -0.025 -0.038
0.291 -0.022 -0.038
0.290 -0.020 -0.038
0.318 -0.019 -0.041
0.317 -0.016 -0.041
0.297 -0.012 -0.038
0.301 -0.010 -0.039
0.303 -0.007 -0.039
0.305 -0.004 -0.039
0.312 -0.001 -0.040
0.313 0.001 -0.040
0.313 0.004 -0.041
0.315 0.007 -0.041
0.318 0.010 -0.041
0.318 0.013 -0.041
0.317 0.016 -0.041
0.316 0.018 -0.041
0.315 0.021 -0.041
0.314 0.024 -0.041
0.313 0.027 -0.041
0.312 0.029 -0.040
0.312 0.032 -0.041
0.313 0.035 -0.041
0.314 0.038 -0.041
0.315 0.041 -0.041
0.317 0.044 -0.041
0.320 0.048 -0.042
0.323 0.051 -0.042
0.323 0.054 -0.042
0.323 0.057 -0.042
0.322 0.060 -0.042
0.323 0.063 -0.042
0.323 0.066 -0.042
0.322 0.069 -0.042
0.320 0.071 -0.042
0.319 0.074 -0.042
0.318 0.077 -0.042
0.317 0.080 -0.042
0.316 0.082 -0.042
0.315 0.085 -0.041
0.313 0.087 -0.041
0.330 0.096 -0.044
0.316 0.094 -0.042
0.309 0.095 -0.041
0.311 0.099 -0.041
0.307 0.101 -0.041
0.314 0.106 -0.042
0.317 0.110 -0.042
0.331 0.118 -0.044
0.333 0.129 -0.044
0.354 0.166 -0.048
0.319 0.163 -0.044
0.264 -0.364 -0.041
0.254 -0.346 -0.040
0.259 -0.347 -0.040
0.262 -0.347 -0.040
0.250 -0.327 -0.038
0.254 -0.328 -0.039
0.266 -0.338 -0.041
0.273 -0.342 -0.041
0.271 -0.335 -0.041
0.208 -0.253 -0.031
0.194 -0.229 -0.029
0.189 -0.220 -0.028
0.187 -0.215 -0.028
0.185 -0.210 -0.027
0.187 -0.209 -0.027
0.187 -0.205 -0.027
0.187 -0.202 -0.027
0.194 -0.207 -0.028
0.273 -0.282 -0.039
0.287 -0.292 -0.041
0.291 -0.292 -0.041
0.295 -0.291 -0.042
0.298 -0.289 -0.042
0.300 -0.287 -0.042
0.302 -0.285 -0.042
0.304 -0.282 -0.042
0.305 -0.278 -0.042
0.305 -0.274 -0.042
0.304 -0.269 -0.042
0.305 -0.265 -0.042
0.307 -0.263 -0.042
0.307 -0.259 -0.042
0.305 -0.254 -0.041
0.301 -0.246 -0.041
0.297 -0.239 -0.040
0.215 -0.168 -0.029
0.209 -0.160 -0.028
0.207 -0.156 -0.027
0.207 -0.153 -0.027
0.209 -0.152 -0.028
0.210 -0.150 -0.028
0.214 -0.151 -0.028
0.216 -0.149 -0.028
0.215 -0.147 -0.028
0.216 -0.145 -0.028
0.207 -0.136 -0.027
0.212 -0.137 -0.027
0.213 -0.135 -0.027
0.211 -0.131 -0.027
0.210 -0.129 -0.027
0.205 -0.123 -0.026
0.215 -0.127 -0.028
0.215 -0.124 -0.027
0.196 -0.111 -0.025
0.209 -0.117 -0.027
0.209 -0.114 -0.027
0.202 -0.108 -0.026
0.216 -0.114 -0.027
0.204 -0.105 -0.026
0.210 -0.106 -0.026
0.216 -0.107 -0.027
0.219 -0.106 -0.027
0.221 -0.105 -0.028
0.221 -0.102 -0.028
0.222 -0.101 -0.028
0.222 -0.099 -0.028
0.216 -0.094 -0.027
0.219 -0.093 -0.027
0.222 -0.092 -0.028
0.218 -0.088 -0.027
0.215 -0.085 -0.027
0.226 -0.087 -0.028
0.247 -0.090 -0.030
0.255 -0.091 -0.031
0.248 -0.085 -0.030
0.243 -0.081 -0.030
0.252 -0.082 -0.031
0.261 -0.083 -0.032
0.271 -0.083 -0.033
0.394 -0.110 -0.048
0.398 -0.107 -0.049
0.403 -0.105 -0.049
0.417 -0.104 -0.051
0.427 -0.103 -0.052
0.430 -0.100 -0.052
0.426 -0.095 -0.052
0.412 -0.088 -0.050
0.396 -0.081 -0.048
0.380 -0.074 -0.046
0.287 -0.051 -0.035
0.286 -0.048 -0.035
0.285 -0.045 -0.034
0.287 -0.043 -0.035
0.284 -0.040 -0.034
0.287 -0.038 -0.035
0.292 -0.036 -0.035
0.294 -0.033 -0.035
0.295 -0.031 -0.036
0.295 -0.025 -0.036
0.285 -0.022 -0.034
0.282 -0.019 -0.034
0.305 -0.018 -0.037
0.319 -0.016 -0.038
0.300 -0.012 -0.036
0.303 -0.010 -0.036
0.305 -0.007 -0.037
0.306 -0.004 -0.037
0.312 -0.001 -0.038
0.313 0.001 -0.038
0.314 0.004 -0.038
0.317 0.007 -0.038
0.321 0.010 -0.039
0.319 0.013 -0.038
0.318 0.016 -0.038
0.316 0.018 -0.038
0.315 0.021 -0.038
0.314 0.024 -0.038
0.313 0.027 -0.038
0.312 0.030 -0.038
0.312 0.032 -0.038
0.313 0.035 -0.038
0.314 0.038 -0.038
0.315 0.041 -0.038
0.317 0.044 -0.038
0.319 0.048 -0.039
0.323 0.051 -0.039
0.324 0.054 -0.039
0.322 0.057 -0.039
0.324 0.060 -0.039
0.323 0.063 -0.039
0.323 0.066 -0.039
0.322 0.069 -0.039
0.321 0.071 -0.039
0.319 0.074 -0.039
0.318 0.077 -0.039
0.317 0.080 -0.039
0.316 0.082 -0.039
0.315 0.085 -0.039
0.313 0.087 -0.038
0.322 0.093 -0.039
0.311 0.093 -0.038
0.305 0.094 -0.037
0.301 0.096 -0.037
0.307 0.101 -0.038
0.315 0.106 -0.039
0.325 0.113 -0.040
0.333 0.119 -0.041
0.326 0.120 -0.040
0.357 0.171 -0.045
0.257 -0.355 -0.037
0.251 -0.341 -0.036
0.255 -0.343 -0.037
0.253 -0.335 -0.036
0.245 -0.321 -0.035
0.249 -0.321 -0.035
0.261 -0.332 -0.037
0.264 -0.331 -0.037
0.203 -0.250 -0.028
0.193 -0.231 -0.027
0.187 -0.221 -0.026
0.185 -0.215 -0.025
0.183 -0.211 -0.025
0.181 -0.205 -0.025
0.182 -0.202 -0.025
0.189 -0.207 -0.025
0.192 -0.208 -0.026
0.196 -0.208 -0.026
0.280 -0.289 -0.037
0.292 -0.297 -0.038
0.297 -0.298 -0.039
0.300 -0.296 -0.039
0.302 -0.293 -0.039
0.301 -0.288 -0.039
0.301 -0.283 -0.039
0.302 -0.280 -0.039
0.303 -0.276 -0.039
0.303 -0.272 -0.039
0.304 -0.268 -0.038
0.303 -0.263 -0.038
0.303 -0.260 -0.038
0.307 -0.259 -0.039
0.307 -0.255 -0.038
0.302 -0.247 -0.038
0.294 -0.236 -0.036
0.222 -0.173 -0.027
0.212 -0.162 -0.026
0.209 -0.158 -0.026
0.195 -0.144 -0.024
0.206 -0.150 -0.025
0.212 -0.152 -0.026
0.210 -0.147 -0.025
0.213 -0.147 -0.026
0.216 -0.147 -0.026
0.219 -0.146 -0.026
0.218 -0.143 -0.026
0.216 -0.139 -0.026
0.214 -0.136 -0.026
0.212 -0.132 -0.025
0.214 -0.131 -0.025
0.220 -0.132 -0.026
0.219 -0.129 -0.026
0.217 -0.125 -0.026
0.214 -0.122 -0.025
0.215 -0.117 -0.025
0.218 -0.117 -0.025
0.201 -0.105 -0.023
0.207 -0.106 -0.024
0.206 -0.104 -0.024
0.214 -0.106 -0.025
0.219 -0.106 -0.025
0.222 -0.105 -0.026
0.223 -0.103 -0.026
0.222 -0.101 -0.026
0.215 -0.095 -0.025
0.223 -0.094 -0.026
0.225 -0.093 -0.026
0.212 -0.085 -0.024
0.211 -0.083 -0.024
0.217 -0.083 -0.025
0.211 -0.079 -0.024
0.241 -0.088 -0.027
0.249 -0.088 -0.028
0.245 -0.084 -0.028
0.247 -0.083 -0.028
0.252 -0.082 -0.029
0.259 -0.082 -0.029
0.263 -0.080 -0.030
0.279 -0.083 -0.032
0.288 -0.083 -0.032
0.381 -0.106 -0.043
0.394 -0.106 -0.044
0.415 -0.108 -0.047
0.420 -0.105 -0.047
0.425 -0.102 -0.048
0.431 -0.100 -0.048
0.426 -0.095 -0.048
0.416 -0.089 -0.047
0.404 -0.082 -0.045
0.391 -0.076 -0.044
0.287 -0.051 -0.032
0.286 -0.048 -0.032
0.285 -0.045 -0.032
0.285 -0.042 -0.032
0.285 -0.040 -0.032
0.284 -0.037 -0.032
0.286 -0.035 -0.032
0.294 -0.033 -0.033
0.305 -0.032 -0.034
0.307 -0.029 -0.034
0.300 -0.026 -0.033
0.287 -0.022 -0.032
0.283 -0.019 -0.031
0.313 -0.018 -0.035
0.319 -0.016 -0.036
0.301 -0.012 -0.034
0.302 -0.010 -0.034
0.304 -0.007 -0.034
0.307 -0.004 -0.034
0.309 -0.001 -0.034
0.313 0.001 -0.035
0.315 0.004 -0.035
0.316 0.007 -0.035
0.319 0.010 -0.036
0.319 0.013 -0.036
0.318 0.016 -0.035
0.317 0.018 -0.035
0.315 0.021 -0.035
0.315 0.024 -0.035
0.314 0.027 -0.035
0.313 0.030 -0.035
0.313 0.032 -0.035
0.313 0.035 -0.035
0.314 0.038 -0.035
0.316 0.041 -0.035
0.317 0.044 -0.035
0.319 0.048 -0.036
0.322 0.051 -0.036
0.323 0.054 -0.036
0.323 0.057 -0.036
0.324 0.060 -0.036
0.324 0.063 -0.036
0.323 0.066 -0.036
0.322 0.069 -0.036
0.320 0.071 -0.036
0.320 0.074 -0.036
0.319 0.077 -0.036
0.318 0.080 -0.036
0.317 0.082 -0.036
0.315 0.085 -0.036
0.313 0.087 -0.035
0.322 0.093 -0.036
0.316 0.094 -0.036
0.296 0.091 -0.034
0.298 0.095 -0.034
0.312 0.102 -0.036
0.317 0.107 -0.036
0.321 0.111 -0.037
0.321 0.115 -0.037
0.319 0.117 -0.037
1.246 0.506 -0.143
0.348 0.166 -0.041
0.347 0.192 -0.041
0.354 0.224 -0.043
0.363 0.377 -0.049
0.245 -0.337 -0.032
0.256 -0.349 -0.034
0.256 -0.343 -0.034
0.258 -0.341 -0.034
0.253 -0.331 -0.033
0.245 -0.316 -0.032
0.192 -0.234 -0.024
0.187 -0.225 -0.024
0.182 -0.216 -0.023
0.180 -0.209 -0.023
0.182 -0.208 -0.023
0.181 -0.205 -0.023
0.186 -0.207 -0.023
0.196 -0.215 -0.024
0.288 -0.297 -0.035
0.293 -0.298 -0.035
0.301 -0.301 -0.036
0.302 -0.297 -0.036
0.302 -0.293 -0.036
0.300 -0.287 -0.036
0.300 -0.283 -0.035
0.300 -0.278 -0.035
0.299 -0.272 -0.035
0.301 -0.270 -0.035
0.302 -0.266 -0.035
0.300 -0.261 -0.035
0.302 -0.258 -0.035
0.305 -0.257 -0.035
0.306 -0.254 -0.035
0.307 -0.250 -0.035
0.301 -0.242 -0.034
0.219 -0.171 -0.025
0.218 -0.167 -0.025
0.213 -0.160 -0.024
0.205 -0.152 -0.023
0.203 -0.147 -0.023
0.208 -0.149 -0.023
0.211 -0.149 -0.023
0.211 -0.146 -0.023
0.215 -0.146 -0.024
0.218 -0.145 -0.024
0.218 -0.143 -0.024
0.214 -0.136 -0.023
0.214 -0.133 -0.023
0.209 -0.127 -0.023
0.219 -0.132 -0.024
0.220 -0.129 -0.024
0.217 -0.126 -0.024
0.214 -0.122 -0.023
0.206 -0.115 -0.022
0.215 -0.117 -0.023
0.219 -0.117 -0.024
0.217 -0.114 -0.023
0.211 -0.109 -0.023
0.217 -0.109 -0.023
0.215 -0.106 -0.023
0.218 -0.105 -0.023
0.224 -0.106 -0.024
0.222 -0.103 -0.024
0.222 -0.101 -0.024
0.220 -0.097 -0.023
0.218 -0.094 -0.023
0.232 -0.098 -0.024
0.225 -0.093 -0.024
0.216 -0.087 -0.023
0.211 -0.083 -0.022
0.209 -0.080 -0.022
0.221 -0.082 -0.023
0.227 -0.083 -0.024
0.244 -0.086 -0.025
0.247 -0.085 -0.026
0.250 -0.084 -0.026
0.249 -0.081 -0.026
0.253 -0.080 -0.026
0.265 -0.081 -0.028
0.273 -0.081 -0.028
0.383 -0.107 -0.040
0.395 -0.106 -0.041
0.409 -0.106 -0.042
0.419 -0.105 -0.043
0.424 -0.102 -0.044
0.428 -0.099 -0.044
0.431 -0.096 -0.044
0.420 -0.089 -0.043
0.414 -0.084 -0.043
0.400 -0.078 -0.041
0.287 -0.051 -0.030
0.285 -0.048 -0.029
0.285 -0.045 -0.029
0.287 -0.043 -0.029
0.286 -0.040 -0.029
0.283 -0.037 -0.029
0.283 -0.034 -0.029
0.292 -0.033 -0.030
0.310 -0.032 -0.032
0.306 -0.029 -0.031
0.294 -0.025 -0.030
0.293 -0.022 -0.030
0.299 -0.020 -0.031
0.308 -0.018 -0.032
0.321 -0.016 -0.033
0.302 -0.012 -0.031
0.301 -0.010 -0.031
0.304 -0.007 -0.031
0.307 -0.004 -0.031
0.309 -0.001 -0.032
0.313 0.001 -0.032
0.315 0.004 -0.032
0.317 0.007 -0.032
0.319 0.010 -0.033
0.320 0.013 -0.033
0.318 0.016 -0.033
0.317 0.018 -0.032
0.316 0.021 -0.032
0.315 0.024 -0.032
0.315 0.027 -0.032
0.316 0.030 -0.032
0.315 0.033 -0.032
0.314 0.035 -0.032
0.314 0.038 -0.032
0.317 0.041 -0.033
0.318 0.044 -0.033
0.319 0.048 -0.033
0.322 0.051 -0.033
0.324 0.054 -0.033
0.323 0.057 -0.033
0.325 0.060 -0.034
0.324 0.063 -0.033
0.323 0.066 -0.033
0.322 0.069 -0.033
0.320 0.071 -0.033
0.320 0.074 -0.033
0.319 0.077 -0.033
0.318 0.080 -0.033
0.316 0.082 -0.033
0.314 0.085 -0.033
0.315 0.088 -0.033
0.322 0.093 -0.034
0.318 0.095 -0.033
0.304 0.094 -0.032
0.314 0.100 -0.033
0.310 0.101 -0.032
0.313 0.105 -0.033
0.313 0.108 -0.033
0.322 0.115 -0.034
0.320 0.124 -0.034
1.253 0.534 -0.133
1.257 0.548 -0.134
1.250 0.558 -0.133
1.245 0.569 -0.133
0.346 0.207 -0.038
0.352 0.214 -0.039
0.351 0.218 -0.039
0.356 0.225 -0.039
0.358 0.252 -0.040
0.367 0.312 -0.043
0.373 0.323 -0.044
0.375 0.330 -0.044
0.373 0.333 -0.044
0.373 0.339 -0.044
0.374 0.345 -0.045
0.383 0.360 -0.046
0.385 0.368 -0.046
0.380 0.369 -0.046
0.383 0.379 -0.047
0.388 0.390 -0.047
0.380 0.388 -0.047
0.377 0.392 -0.047
0.401 0.452 -0.051
0.412 0.487 -0.053
0.396 0.500 -0.052
0.400 0.513 -0.053
0.411 0.535 -0.055
0.246 -0.338 -0.029
0.258 -0.351 -0.031
0.263 -0.353 -0.031
0.259 -0.343 -0.031
0.256 -0.334 -0.030
0.192 -0.237 -0.022
0.183 -0.222 -0.021
0.184 -0.221 -0.021
0.176 -0.207 -0.020
0.176 -0.205 -0.020
0.179 -0.205 -0.020
0.185 -0.209 -0.021
0.195 -0.217 -0.022
0.211 -0.231 -0.024
0.284 -0.297 -0.031
0.292 -0.301 -0.032
0.296 -0.301 -0.032
0.299 -0.299 -0.033
0.303 -0.299 -0.033
0.298 -0.289 -0.032
0.298 -0.284 -0.032
0.301 -0.283 -0.032
0.300 -0.278 -0.032
0.301 -0.274 -0.032
0.300 -0.269 -0.032
0.301 -0.266 -0.032
0.300 -0.261 -0.032
0.301 -0.258 -0.032
0.302 -0.254 -0.032
0.304 -0.252 -0.032
0.299 -0.244 -0.031
0.307 -0.246 -0.032
0.226 -0.178 -0.023
0.224 -0.174 -0.023
0.217 -0.166 -0.022
0.215 -0.162 -0.022
0.210 -0.155 -0.021
0.205 -0.149 -0.021
0.207 -0.148 -0.021
0.212 -0.149 -0.021
0.217 -0.150 -0.022
0.217 -0.147 -0.022
0.218 -0.146 -0.022
0.221 -0.145 -0.022
0.216 -0.139 -0.022
0.202 -0.128 -0.020
0.213 -0.133 -0.021
0.217 -0.133 -0.022
0.210 -0.126 -0.021
0.217 -0.128 -0.021
0.216 -0.125 -0.021
0.209 -0.119 -0.021
0.209 -0.116 -0.021
0.197 -0.108 -0.019
0.213 -0.114 -0.021
0.213 -0.112 -0.021
0.204 -0.105 -0.020
0.213 -0.107 -0.021
0.208 -0.103 -0.020
0.226 -0.109 -0.022
0.222 -0.105 -0.022
0.222 -0.103 -0.022
0.220 -0.100 -0.021
0.222 -0.098 -0.021
0.222 -0.096 -0.021
0.226 -0.095 -0.022
0.225 -0.093 -0.022
0.219 -0.088 -0.021
0.214 -0.084 -0.020
0.212 -0.081 -0.020
0.205 -0.076 -0.020
0.235 -0.085 -0.022
0.249 -0.088 -0.024
0.249 -0.086 -0.024
0.244 -0.082 -0.023
0.246 -0.080 -0.023
0.254 -0.080 -0.024
0.263 -0.081 -0.025
0.269 -0.080 -0.025
0.392 -0.109 -0.037
0.400 -0.107 -0.038
0.410 -0.106 -0.039
0.416 -0.104 -0.039
0.427 -0.103 -0.040
0.429 -0.099 -0.040
0.427 -0.095 -0.040
0.417 -0.089 -0.039
0.400 -0.082 -0.038
0.393 -0.076 -0.037
0.290 -0.051 -0.027
0.287 -0.048 -0.027
0.287 -0.045 -0.027
0.289 -0.043 -0.027
0.286 -0.040 -0.027
0.282 -0.037 -0.026
0.282 -0.034 -0.026
0.292 -0.033 -0.027
0.311 -0.032 -0.029
0.297 -0.028 -0.028
0.289 -0.025 -0.027
0.297 -0.023 -0.028
0.301 -0.020 -0.028
0.300 -0.018 -0.028
0.309 -0.015 -0.029
0.307 -0.012 -0.029
0.303 -0.010 -0.028
0.304 -0.007 -0.028
0.307 -0.004 -0.029
0.311 -0.001 -0.029
0.313 0.001 -0.029
0.315 0.004 -0.029
0.317 0.007 -0.030
0.319 0.010 -0.030
0.320 0.013 -0.030
0.319 0.016 -0.030
0.317 0.018 -0.030
0.317 0.021 -0.030
0.316 0.024 -0.030
0.316 0.027 -0.030
0.316 0.030 -0.030
0.316 0.033 -0.030
0.315 0.035 -0.030
0.316 0.038 -0.030
0.318 0.042 -0.030
0.319 0.045 -0.030
0.321 0.048 -0.030
0.323 0.051 -0.030
0.324 0.054 -0.030
0.324 0.057 -0.030
0.323 0.060 -0.030
0.323 0.063 -0.030
0.323 0.066 -0.030
0.323 0.069 -0.030
0.320 0.071 -0.030
0.319 0.074 -0.030
0.318 0.077 -0.030
0.316 0.079 -0.030
0.315 0.082 -0.030
0.316 0.085 -0.030
0.315 0.088 -0.030
0.320 0.092 -0.030
0.319 0.095 -0.030
0.327 0.101 -0.031
0.318 0.101 -0.030
0.316 0.103 -0.030
0.308 0.104 -0.029
0.312 0.108 -0.030
0.319 0.114 -0.031
0.334 0.122 -0.032
1.250 0.532 -0.121
1.247 0.544 -0.121
1.263 0.564 -0.123
1.280 0.765 -0.128
1.279 0.778 -0.128
1.280 0.794 -0.129
1.291 0.816 -0.130
1.302 0.838 -0.131
1.304 0.854 -0.132
1.308 0.873 -0.133
1.301 0.884 -0.132
1.288 0.891 -0.131
1.283 0.904 -0.131
1.299 0.931 -0.133
0.377 0.320 -0.040
0.366 0.321 -0.039
0.369 0.330 -0.040
0.369 0.335 -0.040
0.372 0.344 -0.040
0.376 0.353 -0.041
0.376 0.359 -0.041
0.379 0.368 -0.042
0.378 0.373 -0.042
0.380 0.381 -0.042
0.380 0.387 -0.042
0.377 0.391 -0.042
0.401 0.430 -0.046
0.402 0.438 -0.046
0.408 0.452 -0.047
0.410 0.462 -0.047
0.487 0.586 -0.057
0.479 0.586 -0.057
0.404 0.518 -0.049
0.380 0.495 -0.046
0.264 -0.363 -0.028
0.250 -0.340 -0.027
0.254 -0.340 -0.027
0.252 -0.334 -0.027
0.181 -0.223 -0.019
0.177 -0.215 -0.018
0.175 -0.209 -0.018
0.178 -0.210 -0.018
0.176 -0.204 -0.018
0.180 -0.206 -0.018
0.190 -0.214 -0.019
0.212 -0.236 -0.022
0.223 -0.244 -0.023
0.291 -0.310 -0.029
0.295 -0.309 -0.029
0.297 -0.306 -0.029
0.296 -0.301 -0.029
0.299 -0.299 -0.029
0.300 -0.295 -0.029
0.299 -0.290 -0.029
0.301 -0.288 -0.029
0.300 -0.282 -0.029
0.302 -0.279 -0.029
0.304 -0.277 -0.029
0.304 -0.272 -0.029
0.300 -0.265 -0.029
0.301 -0.261 -0.029
0.300 -0.256 -0.028
0.300 -0.253 -0.028
0.298 -0.247 -0.028
0.299 -0.244 -0.028
0.292 -0.234 -0.027
0.212 -0.164 -0.020
0.217 -0.166 -0.020
0.212 -0.159 -0.020
0.207 -0.153 -0.019
0.207 -0.151 -0.019
0.205 -0.147 -0.019
0.208 -0.146 -0.019
0.214 -0.148 -0.020
0.215 -0.146 -0.020
0.218 -0.146 -0.020
0.219 -0.144 -0.020
0.217 -0.140 -0.020
0.216 -0.132 -0.019
0.217 -0.130 -0.019
