VERSION .7
FIELDS x y z
SIZE 4 4 4
TYPE F F F
COUNT 1 1 1
WIDTH     2586
HEIGHT 1
VIEWPOINT 0 0 0 1 0 0 0
POINTS     2586
DATA ascii
0.241 -0.043 0.086
0.241 -0.041 0.086
0.241 -0.039 0.086
0.238 -0.036 0.085
0.238 -0.034 0.085
0.240 -0.032 0.086
0.243 -0.030 0.087
0.241 -0.028 0.086
0.243 -0.026 0.087
0.239 -0.023 0.085
0.240 -0.021 0.086
0.242 -0.019 0.086
0.244 -0.017 0.087
0.247 -0.015 0.088
0.252 -0.013 0.090
0.228 -0.009 0.081
0.231 -0.007 0.082
0.249 -0.006 0.089
0.256 -0.004 0.091
0.261 -0.001 0.093
0.251 0.001 0.090
0.235 0.003 0.084
0.222 0.005 0.079
0.223 0.007 0.079
0.232 0.010 0.083
0.236 0.012 0.084
0.232 0.014 0.083
0.227 0.016 0.081
0.231 0.018 0.083
0.243 0.021 0.087
0.254 0.025 0.091
0.256 0.027 0.091
0.253 0.029 0.090
0.258 0.032 0.092
0.262 0.035 0.094
0.256 0.037 0.092
0.242 0.037 0.087
0.237 0.039 0.085
0.234 0.040 0.084
0.225 0.041 0.081
0.216 0.041 0.078
0.205 0.041 0.074
0.197 0.041 0.071
0.190 0.042 0.068
0.196 0.045 0.071
0.240 0.060 0.087
0.249 0.064 0.090
0.252 0.067 0.091
0.253 0.070 0.092
0.256 0.073 0.093
0.251 0.075 0.092
0.245 0.075 0.089
0.235 0.074 0.086
0.225 0.074 0.082
0.219 0.074 0.080
0.223 0.077 0.082
0.229 0.082 0.084
0.228 0.084 0.084
0.226 0.085 0.083
0.223 0.086 0.082
0.221 0.088 0.082
0.220 0.090 0.082
0.221 0.092 0.082
0.221 0.095 0.082
0.221 0.097 0.082
0.221 0.099 0.082
0.220 0.101 0.082
0.218 0.103 0.082
0.218 0.105 0.082
0.217 0.107 0.082
0.217 0.109 0.082
0.217 0.112 0.082
0.216 0.114 0.082
0.215 0.115 0.082
0.214 0.118 0.082
0.217 0.121 0.083
0.216 0.124 0.083
0.222 0.130 0.086
0.222 0.132 0.086
0.220 0.133 0.085
0.217 0.134 0.084
0.221 0.139 0.086
0.221 0.142 0.086
0.224 0.147 0.088
0.229 0.153 0.090
0.227 0.155 0.090
0.231 0.160 0.091
0.229 0.162 0.091
0.239 0.172 0.096
0.228 0.167 0.091
0.219 0.163 0.088
0.213 0.162 0.086
0.205 0.158 0.083
0.190 0.149 0.077
0.184 0.147 0.075
0.181 0.147 0.074
0.185 0.153 0.076
0.191 0.161 0.079
0.193 0.165 0.080
0.192 0.168 0.081
0.191 0.170 0.081
0.192 0.173 0.081
0.188 0.173 0.080
0.187 0.174 0.080
0.187 0.178 0.080
0.187 0.181 0.081
0.186 0.183 0.081
0.185 0.185 0.081
0.186 0.189 0.082
0.186 0.192 0.082
0.183 0.193 0.082
0.186 0.199 0.083
0.184 0.200 0.083
0.182 0.201 0.082
0.182 0.205 0.083
0.182 0.208 0.084
0.181 0.211 0.084
0.179 0.212 0.083
0.178 0.213 0.083
0.177 0.216 0.083
0.178 0.220 0.084
0.177 0.222 0.084
0.178 0.228 0.085
0.176 0.228 0.084
0.174 0.229 0.084
0.173 0.231 0.084
0.113 -0.150 0.055
0.112 -0.147 0.054
0.110 -0.143 0.053
0.110 -0.141 0.053
0.106 -0.134 0.051
0.104 -0.130 0.050
0.102 -0.126 0.048
0.094 -0.114 0.044
0.095 -0.114 0.045
0.093 -0.110 0.044
0.097 -0.113 0.045
0.104 -0.119 0.048
0.107 -0.121 0.049
0.101 -0.112 0.046
0.100 -0.109 0.045
0.104 -0.112 0.047
0.102 -0.109 0.046
0.096 -0.100 0.043
0.100 -0.103 0.045
0.101 -0.103 0.045
0.103 -0.102 0.045
0.104 -0.102 0.046
0.108 -0.104 0.047
0.111 -0.105 0.048
0.209 -0.192 0.090
0.211 -0.191 0.090
0.216 -0.192 0.092
0.219 -0.192 0.093
0.219 -0.189 0.093
0.222 -0.188 0.093
0.220 -0.183 0.092
0.221 -0.182 0.092
0.221 -0.178 0.092
0.210 -0.167 0.087
0.206 -0.161 0.085
0.200 -0.154 0.082
0.196 -0.148 0.080
0.194 -0.144 0.079
0.193 -0.141 0.079
0.194 -0.139 0.079
0.196 -0.138 0.079
0.200 -0.138 0.080
0.199 -0.135 0.080
0.200 -0.133 0.080
0.200 -0.131 0.080
0.200 -0.129 0.079
0.202 -0.128 0.080
0.205 -0.127 0.081
0.201 -0.122 0.079
0.201 -0.120 0.079
0.204 -0.120 0.080
0.199 -0.114 0.078
0.201 -0.113 0.078
0.206 -0.113 0.080
0.201 -0.109 0.078
0.203 -0.108 0.079
0.205 -0.106 0.079
0.204 -0.104 0.078
0.207 -0.103 0.079
0.203 -0.099 0.078
0.203 -0.097 0.078
0.205 -0.096 0.078
0.205 -0.093 0.078
0.205 -0.091 0.078
0.204 -0.089 0.078
0.207 -0.088 0.078
0.207 -0.086 0.078
0.204 -0.082 0.077
0.199 -0.078 0.075
0.209 -0.080 0.079
0.207 -0.078 0.078
0.204 -0.074 0.077
0.206 -0.073 0.077
0.209 -0.072 0.078
0.213 -0.071 0.080
0.226 -0.073 0.084
0.232 -0.073 0.086
0.228 -0.070 0.085
0.228 -0.067 0.085
0.228 -0.065 0.085
0.230 -0.063 0.085
0.238 -0.063 0.088
0.241 -0.062 0.089
0.242 -0.060 0.090
0.241 -0.057 0.089
0.242 -0.055 0.089
0.241 -0.053 0.089
0.240 -0.050 0.088
0.239 -0.048 0.088
0.238 -0.045 0.088
0.235 -0.043 0.087
0.236 -0.040 0.087
0.237 -0.038 0.087
0.236 -0.036 0.087
0.235 -0.034 0.086
0.236 -0.032 0.087
0.235 -0.029 0.086
0.240 -0.028 0.088
0.236 -0.025 0.087
0.235 -0.023 0.086
0.236 -0.021 0.086
0.238 -0.019 0.087
0.241 -0.017 0.088
0.251 -0.015 0.092
0.258 -0.013 0.094
0.263 -0.011 0.096
0.256 -0.008 0.094
0.238 -0.005 0.087
0.245 -0.003 0.090
0.242 -0.001 0.089
0.235 0.001 0.086
0.223 0.003 0.082
0.218 0.005 0.080
0.219 0.007 0.080
0.221 0.009 0.081
0.228 0.012 0.084
0.230 0.014 0.084
0.230 0.016 0.084
0.232 0.018 0.085
0.238 0.021 0.087
0.247 0.024 0.091
0.244 0.026 0.090
0.244 0.028 0.090
0.251 0.031 0.092
0.251 0.034 0.092
0.240 0.035 0.088
0.228 0.035 0.084
0.223 0.036 0.082
0.217 0.037 0.080
0.203 0.037 0.075
0.203 0.039 0.075
0.204 0.041 0.075
0.199 0.042 0.074
0.194 0.043 0.072
0.202 0.046 0.075
0.240 0.060 0.089
0.252 0.065 0.094
0.249 0.067 0.093
0.246 0.068 0.092
0.246 0.071 0.092
0.243 0.072 0.091
0.224 0.069 0.084
0.219 0.070 0.082
0.216 0.071 0.081
0.214 0.072 0.081
0.212 0.074 0.080
0.215 0.077 0.081
0.221 0.081 0.084
0.219 0.083 0.083
0.219 0.085 0.083
0.217 0.087 0.083
0.217 0.089 0.083
0.217 0.091 0.083
0.217 0.093 0.083
0.217 0.096 0.083
0.216 0.098 0.083
0.215 0.099 0.083
0.213 0.101 0.082
0.212 0.102 0.082
0.210 0.104 0.081
0.208 0.105 0.081
0.214 0.110 0.083
0.212 0.112 0.083
0.211 0.113 0.082
0.211 0.116 0.083
0.211 0.118 0.083
0.215 0.123 0.085
0.218 0.127 0.086
0.216 0.129 0.086
0.211 0.128 0.084
0.211 0.131 0.084
0.205 0.129 0.082
0.209 0.135 0.084
0.210 0.138 0.085
0.209 0.140 0.085
0.208 0.142 0.084
0.206 0.143 0.084
0.226 0.160 0.092
0.228 0.164 0.093
0.220 0.161 0.090
0.213 0.159 0.088
0.210 0.160 0.087
0.203 0.157 0.085
0.194 0.152 0.081
0.184 0.147 0.077
0.182 0.149 0.077
0.184 0.153 0.078
0.188 0.159 0.080
0.188 0.162 0.081
0.188 0.165 0.081
0.187 0.167 0.081
0.186 0.168 0.081
0.186 0.171 0.081
0.184 0.172 0.081
0.183 0.175 0.081
0.183 0.177 0.081
0.182 0.180 0.082
0.183 0.184 0.082
0.183 0.187 0.083
0.182 0.188 0.083
0.181 0.191 0.083
0.180 0.194 0.083
0.178 0.194 0.083
0.178 0.197 0.083
0.178 0.201 0.084
0.180 0.206 0.085
0.179 0.209 0.085
0.177 0.210 0.085
0.176 0.211 0.084
0.176 0.215 0.085
0.175 0.217 0.085
0.174 0.219 0.085
0.172 0.220 0.085
0.172 0.223 0.085
0.171 0.225 0.085
0.170 0.227 0.085
0.118 -0.157 0.059
0.111 -0.146 0.055
0.106 -0.138 0.053
0.102 -0.131 0.050
0.097 -0.123 0.048
0.095 -0.118 0.046
0.094 -0.116 0.046
0.093 -0.113 0.045
0.101 -0.121 0.049
0.102 -0.120 0.049
0.102 -0.119 0.049
0.102 -0.117 0.049
0.102 -0.115 0.048
0.099 -0.110 0.046
0.099 -0.108 0.046
0.102 -0.111 0.048
0.106 -0.113 0.049
0.105 -0.110 0.048
0.101 -0.104 0.046
0.101 -0.103 0.046
0.102 -0.102 0.046
0.104 -0.102 0.047
0.108 -0.104 0.048
0.110 -0.105 0.049
0.118 -0.110 0.052
0.209 -0.189 0.092
0.214 -0.191 0.094
0.214 -0.188 0.093
0.210 -0.181 0.091
0.206 -0.175 0.089
0.201 -0.168 0.087
0.200 -0.164 0.086
0.200 -0.161 0.085
0.200 -0.159 0.085
0.197 -0.154 0.083
0.196 -0.151 0.083
0.196 -0.148 0.083
0.194 -0.144 0.082
0.196 -0.143 0.082
0.201 -0.144 0.084
0.202 -0.142 0.084
0.199 -0.138 0.082
0.202 -0.138 0.083
0.203 -0.135 0.083
0.204 -0.134 0.084
0.205 -0.132 0.084
0.206 -0.130 0.084
0.208 -0.129 0.084
0.206 -0.126 0.083
0.203 -0.122 0.082
0.202 -0.118 0.081
0.203 -0.117 0.082
0.205 -0.116 0.082
0.205 -0.113 0.082
0.201 -0.109 0.080
0.202 -0.107 0.080
0.204 -0.106 0.081
0.204 -0.104 0.081
0.204 -0.102 0.081
0.200 -0.098 0.079
0.202 -0.096 0.079
0.205 -0.096 0.080
0.199 -0.091 0.078
0.203 -0.090 0.079
0.200 -0.087 0.078
0.200 -0.085 0.078
0.207 -0.086 0.081
0.201 -0.081 0.078
0.202 -0.080 0.078
0.199 -0.076 0.077
0.205 -0.077 0.079
0.206 -0.075 0.080
0.206 -0.073 0.079
0.207 -0.071 0.080
0.213 -0.071 0.082
0.220 -0.071 0.084
0.223 -0.070 0.085
0.225 -0.069 0.086
0.226 -0.067 0.086
0.226 -0.065 0.086
0.227 -0.063 0.087
0.230 -0.061 0.088
0.238 -0.061 0.090
0.237 -0.059 0.090
0.238 -0.057 0.090
0.237 -0.054 0.090
0.236 -0.052 0.089
0.234 -0.049 0.089
0.234 -0.047 0.089
0.233 -0.044 0.088
0.230 -0.042 0.087
0.231 -0.040 0.087
0.234 -0.038 0.088
0.233 -0.036 0.088
0.232 -0.033 0.088
0.231 -0.031 0.087
0.234 -0.029 0.088
0.233 -0.027 0.088
0.232 -0.025 0.087
0.232 -0.023 0.087
0.233 -0.020 0.088
0.234 -0.018 0.088
0.259 -0.018 0.098
0.256 -0.015 0.096
0.255 -0.013 0.096
0.263 -0.011 0.099
0.245 -0.008 0.092
0.238 -0.005 0.089
0.227 -0.003 0.085
0.229 -0.001 0.086
0.227 0.001 0.085
0.221 0.003 0.083
0.224 0.005 0.084
0.220 0.007 0.083
0.214 0.009 0.080
0.221 0.011 0.083
0.227 0.014 0.085
0.231 0.016 0.087
0.230 0.018 0.087
0.234 0.021 0.088
0.233 0.023 0.088
0.235 0.025 0.089
0.245 0.028 0.092
0.241 0.030 0.091
0.235 0.032 0.089
0.228 0.033 0.086
0.220 0.034 0.083
0.209 0.034 0.079
0.204 0.035 0.077
0.200 0.036 0.076
0.199 0.038 0.076
0.202 0.041 0.077
0.202 0.043 0.077
0.203 0.045 0.077
0.205 0.047 0.078
0.217 0.052 0.083
0.246 0.061 0.094
0.246 0.064 0.094
0.242 0.065 0.093
0.238 0.066 0.091
0.235 0.068 0.090
0.220 0.066 0.084
0.210 0.065 0.081
0.216 0.069 0.083
0.215 0.070 0.083
0.210 0.071 0.081
0.210 0.073 0.081
0.209 0.075 0.081
0.208 0.077 0.081
0.209 0.079 0.081
0.212 0.082 0.082
0.214 0.085 0.084
0.213 0.087 0.083
0.214 0.090 0.084
0.213 0.092 0.084
0.214 0.094 0.084
0.214 0.096 0.084
0.208 0.096 0.082
0.205 0.097 0.081
0.205 0.099 0.081
0.201 0.099 0.080
0.188 0.095 0.075
0.184 0.095 0.074
0.175 0.092 0.070
0.176 0.095 0.071
0.176 0.101 0.071
0.189 0.110 0.077
0.193 0.117 0.079
0.194 0.120 0.079
0.197 0.125 0.081
0.201 0.130 0.083
0.201 0.132 0.083
0.202 0.135 0.084
0.202 0.138 0.084
0.201 0.140 0.084
0.226 0.160 0.095
0.223 0.161 0.094
0.214 0.157 0.091
0.209 0.156 0.089
0.207 0.158 0.088
0.205 0.159 0.088
0.191 0.151 0.082
0.183 0.147 0.079
0.181 0.148 0.078
0.183 0.152 0.080
0.184 0.156 0.081
0.186 0.160 0.082
0.186 0.163 0.082
0.184 0.164 0.082
0.184 0.167 0.082
0.183 0.169 0.082
0.182 0.171 0.082
0.181 0.173 0.082
0.181 0.176 0.083
0.181 0.179 0.083
0.181 0.182 0.084
0.180 0.184 0.084
0.180 0.187 0.084
0.178 0.188 0.084
0.176 0.190 0.084
0.176 0.193 0.084
0.175 0.194 0.084
0.174 0.197 0.084
0.176 0.202 0.085
0.177 0.207 0.086
0.176 0.209 0.086
0.174 0.210 0.086
0.173 0.213 0.086
0.174 0.216 0.087
0.169 0.214 0.085
0.168 0.216 0.085
0.168 0.219 0.085
0.168 0.222 0.086
0.103 -0.137 0.053
0.100 -0.130 0.051
0.097 -0.125 0.049
0.095 -0.121 0.048
0.095 -0.119 0.048
0.104 -0.129 0.052
0.105 -0.127 0.052
0.102 -0.123 0.051
0.101 -0.120 0.050
0.099 -0.116 0.049
0.099 -0.114 0.048
0.101 -0.115 0.049
0.110 -0.123 0.053
0.116 -0.127 0.056
0.113 -0.123 0.054
0.109 -0.116 0.052
0.108 -0.113 0.051
0.101 -0.104 0.047
0.101 -0.103 0.047
0.103 -0.103 0.048
0.104 -0.102 0.048
0.109 -0.105 0.050
0.110 -0.105 0.050
0.117 -0.110 0.053
0.193 -0.176 0.087
0.196 -0.175 0.088
0.196 -0.172 0.088
0.196 -0.169 0.087
0.197 -0.168 0.088
0.198 -0.166 0.088
0.198 -0.163 0.087
0.198 -0.161 0.087
0.199 -0.159 0.087
0.198 -0.155 0.086
0.200 -0.154 0.087
0.201 -0.152 0.087
0.204 -0.152 0.088
0.199 -0.146 0.085
0.203 -0.146 0.087
0.204 -0.144 0.087
0.196 -0.136 0.083
0.198 -0.135 0.084
0.203 -0.136 0.086
0.204 -0.135 0.086
0.205 -0.133 0.086
0.207 -0.131 0.086
0.208 -0.129 0.087
0.207 -0.126 0.086
0.204 -0.123 0.085
0.204 -0.120 0.084
0.203 -0.117 0.084
0.203 -0.115 0.084
0.203 -0.112 0.083
0.202 -0.110 0.083
0.202 -0.108 0.083
0.204 -0.107 0.083
0.208 -0.106 0.084
0.207 -0.104 0.084
0.205 -0.100 0.083
0.205 -0.098 0.083
0.204 -0.096 0.082
0.203 -0.093 0.082
0.200 -0.090 0.080
0.202 -0.088 0.081
0.205 -0.087 0.082
0.205 -0.085 0.082
0.205 -0.083 0.082
0.202 -0.080 0.080
0.205 -0.079 0.081
0.208 -0.078 0.082
0.207 -0.076 0.082
0.206 -0.073 0.081
0.207 -0.072 0.082
0.211 -0.071 0.083
0.216 -0.070 0.085
0.220 -0.069 0.086
0.220 -0.067 0.086
0.223 -0.066 0.087
0.225 -0.064 0.088
0.225 -0.062 0.088
0.224 -0.060 0.088
0.227 -0.058 0.089
0.227 -0.056 0.089
0.231 -0.055 0.090
0.232 -0.053 0.090
0.230 -0.050 0.090
0.229 -0.048 0.089
0.230 -0.046 0.090
0.229 -0.044 0.089
0.227 -0.041 0.088
0.226 -0.039 0.088
0.229 -0.037 0.089
0.229 -0.035 0.089
0.229 -0.033 0.089
0.228 -0.031 0.088
0.228 -0.028 0.088
0.228 -0.026 0.088
0.229 -0.024 0.089
0.230 -0.022 0.089
0.232 -0.020 0.090
0.247 -0.019 0.095
0.252 -0.017 0.097
0.242 -0.015 0.094
0.241 -0.012 0.093
0.238 -0.010 0.092
0.233 -0.008 0.090
0.230 -0.005 0.089
0.213 -0.003 0.082
0.219 -0.001 0.085
0.224 0.001 0.086
0.226 0.003 0.087
0.225 0.005 0.087
0.222 0.007 0.086
0.218 0.009 0.084
0.214 0.011 0.083
0.228 0.014 0.088
0.226 0.016 0.087
0.223 0.018 0.086
0.224 0.020 0.087
0.232 0.023 0.090
0.233 0.025 0.090
0.237 0.028 0.092
0.235 0.030 0.091
0.226 0.031 0.088
0.219 0.032 0.085
0.207 0.032 0.080
0.199 0.032 0.077
0.194 0.034 0.076
0.195 0.036 0.076
0.195 0.037 0.076
0.187 0.038 0.073
0.190 0.040 0.074
0.203 0.045 0.079
0.213 0.049 0.083
0.212 0.051 0.083
0.234 0.058 0.092
0.235 0.061 0.092
0.234 0.063 0.092
0.227 0.063 0.089
0.219 0.063 0.086
0.206 0.062 0.081
0.200 0.062 0.079
0.211 0.067 0.083
0.216 0.071 0.085
0.209 0.071 0.083
0.206 0.072 0.082
0.204 0.073 0.081
0.198 0.073 0.079
0.196 0.074 0.078
0.198 0.077 0.079
0.199 0.080 0.080
0.198 0.081 0.079
0.199 0.084 0.080
0.201 0.087 0.081
0.188 0.083 0.076
0.185 0.084 0.075
0.186 0.086 0.076
0.192 0.091 0.078
0.187 0.091 0.076
0.187 0.093 0.076
0.188 0.095 0.077
0.187 0.097 0.077
0.185 0.098 0.076
0.183 0.099 0.075
0.189 0.104 0.078
0.192 0.108 0.080
0.183 0.105 0.076
0.192 0.112 0.080
0.196 0.117 0.082
0.193 0.118 0.081
0.189 0.118 0.080
0.197 0.125 0.083
0.200 0.129 0.085
0.200 0.132 0.085
0.198 0.133 0.084
0.200 0.137 0.086
0.199 0.139 0.085
0.219 0.156 0.095
0.219 0.158 0.095
0.207 0.152 0.090
0.196 0.147 0.085
0.203 0.155 0.089
0.198 0.154 0.087
0.192 0.152 0.085
0.185 0.149 0.082
0.180 0.147 0.080
0.180 0.150 0.081
0.184 0.156 0.083
0.184 0.159 0.083
0.182 0.160 0.083
0.180 0.161 0.082
0.179 0.163 0.082
0.180 0.167 0.083
0.179 0.169 0.083
0.179 0.171 0.083
0.179 0.175 0.084
0.180 0.178 0.085
0.179 0.180 0.085
0.178 0.182 0.085
0.177 0.184 0.085
0.176 0.186 0.085
0.174 0.188 0.085
0.173 0.190 0.085
0.173 0.193 0.085
0.172 0.195 0.085
0.172 0.198 0.086
0.173 0.203 0.087
0.172 0.204 0.087
0.171 0.207 0.087
0.170 0.209 0.087
0.168 0.210 0.086
0.167 0.211 0.086
0.165 0.212 0.085
0.165 0.215 0.086
0.165 0.218 0.086
0.098 -0.129 0.051
0.096 -0.125 0.050
0.095 -0.122 0.049
0.097 -0.124 0.050
0.102 -0.127 0.052
0.103 -0.127 0.053
0.104 -0.127 0.053
0.103 -0.124 0.052
0.100 -0.119 0.051
0.098 -0.114 0.049
0.117 -0.135 0.059
0.112 -0.127 0.056
0.116 -0.130 0.057
0.119 -0.131 0.059
0.119 -0.129 0.058
0.113 -0.120 0.055
0.110 -0.116 0.053
0.101 -0.105 0.049
0.104 -0.105 0.050
0.105 -0.105 0.050
0.106 -0.104 0.050
0.108 -0.104 0.051
0.112 -0.107 0.052
0.116 -0.109 0.054
0.181 -0.165 0.084
0.193 -0.173 0.089
0.194 -0.171 0.089
0.195 -0.169 0.089
0.197 -0.168 0.090
0.198 -0.166 0.090
0.200 -0.165 0.090
0.205 -0.167 0.092
0.207 -0.165 0.093
0.204 -0.160 0.091
0.202 -0.156 0.090
0.202 -0.153 0.090
0.202 -0.151 0.089
0.202 -0.148 0.089
0.201 -0.145 0.088
0.198 -0.140 0.086
0.199 -0.138 0.087
0.198 -0.135 0.086
0.200 -0.134 0.087
0.202 -0.133 0.087
0.203 -0.131 0.087
0.204 -0.130 0.087
0.204 -0.127 0.087
0.204 -0.125 0.087
0.204 -0.122 0.087
0.204 -0.120 0.086
0.205 -0.118 0.087
0.201 -0.114 0.085
0.200 -0.111 0.084
0.201 -0.109 0.084
0.202 -0.108 0.085
0.204 -0.107 0.085
0.207 -0.106 0.086
0.207 -0.104 0.086
0.208 -0.102 0.086
0.207 -0.099 0.086
0.205 -0.096 0.085
0.201 -0.092 0.083
0.203 -0.091 0.083
0.203 -0.089 0.084
0.204 -0.087 0.084
0.206 -0.086 0.084
0.207 -0.084 0.085
0.208 -0.082 0.085
0.208 -0.080 0.085
0.207 -0.078 0.084
0.206 -0.075 0.084
0.204 -0.073 0.083
0.207 -0.071 0.084
0.209 -0.070 0.085
0.209 -0.068 0.085
0.215 -0.068 0.087
0.217 -0.067 0.087
0.216 -0.064 0.087
0.219 -0.063 0.088
0.221 -0.061 0.089
0.221 -0.059 0.089
0.223 -0.057 0.089
0.222 -0.055 0.089
0.224 -0.053 0.089
0.225 -0.052 0.090
0.226 -0.050 0.090
0.223 -0.047 0.089
0.224 -0.045 0.089
0.224 -0.043 0.089
0.223 -0.040 0.089
0.222 -0.038 0.088
0.222 -0.036 0.088
0.225 -0.034 0.089
0.224 -0.032 0.089
0.225 -0.030 0.089
0.224 -0.028 0.089
0.225 -0.026 0.089
0.225 -0.024 0.089
0.231 -0.022 0.092
0.237 -0.021 0.094
0.242 -0.019 0.096
0.240 -0.017 0.095
0.229 -0.014 0.090
0.231 -0.012 0.091
0.224 -0.009 0.089
0.222 -0.007 0.088
0.221 -0.005 0.088
0.210 -0.003 0.083
0.201 -0.001 0.080
0.213 0.001 0.084
0.215 0.003 0.085
0.220 0.005 0.087
0.223 0.007 0.088
0.216 0.009 0.086
0.226 0.012 0.090
0.226 0.014 0.089
0.221 0.015 0.087
0.215 0.017 0.085
0.217 0.019 0.086
0.221 0.022 0.088
0.226 0.024 0.090
0.224 0.026 0.089
0.230 0.029 0.091
0.196 0.030 0.078
0.192 0.032 0.077
0.187 0.032 0.075
0.185 0.034 0.074
0.185 0.036 0.074
0.182 0.037 0.073
0.181 0.038 0.073
0.198 0.044 0.079
0.212 0.049 0.085
0.228 0.055 0.091
0.226 0.057 0.091
0.227 0.059 0.091
0.222 0.060 0.089
0.223 0.062 0.090
0.205 0.059 0.083
0.198 0.059 0.080
0.197 0.061 0.080
0.198 0.063 0.080
0.200 0.066 0.081
0.201 0.068 0.082
0.195 0.068 0.080
0.195 0.070 0.080
0.193 0.071 0.079
0.191 0.073 0.078
0.192 0.075 0.079
0.195 0.078 0.080
0.197 0.081 0.081
0.199 0.084 0.082
0.195 0.084 0.081
0.191 0.084 0.079
0.186 0.084 0.077
0.187 0.087 0.078
0.191 0.091 0.080
0.193 0.094 0.081
0.191 0.095 0.080
0.191 0.097 0.080
0.191 0.099 0.081
0.188 0.100 0.079
0.187 0.101 0.079
0.189 0.105 0.080
0.190 0.107 0.081
0.194 0.112 0.083
0.201 0.118 0.086
0.194 0.116 0.083
0.182 0.112 0.079
0.182 0.113 0.078
0.186 0.119 0.081
0.193 0.125 0.084
0.195 0.129 0.085
0.195 0.132 0.086
0.195 0.134 0.086
0.195 0.136 0.086
0.212 0.151 0.094
0.211 0.153 0.094
0.195 0.144 0.087
0.192 0.144 0.086
0.191 0.146 0.086
0.202 0.157 0.091
0.200 0.158 0.091
0.189 0.152 0.086
0.178 0.147 0.082
0.177 0.148 0.082
0.178 0.151 0.082
0.179 0.155 0.083
0.177 0.156 0.082
0.177 0.158 0.083
0.177 0.161 0.083
0.176 0.163 0.083
0.176 0.166 0.084
0.176 0.169 0.085
0.176 0.172 0.085
0.174 0.173 0.084
0.176 0.178 0.086
0.175 0.180 0.086
0.173 0.181 0.086
0.174 0.185 0.086
0.171 0.185 0.086
0.171 0.188 0.086
0.171 0.191 0.086
0.170 0.193 0.086
0.169 0.195 0.086
0.169 0.199 0.087
0.169 0.201 0.087
0.168 0.204 0.087
0.167 0.205 0.087
0.166 0.207 0.087
0.164 0.208 0.087
0.163 0.210 0.087
0.162 0.211 0.086
0.096 -0.126 0.051
0.098 -0.127 0.052
0.100 -0.127 0.053
0.102 -0.128 0.054
0.103 -0.128 0.054
0.103 -0.126 0.054
0.102 -0.123 0.053
0.110 -0.131 0.057
0.119 -0.140 0.062
0.124 -0.143 0.064
0.117 -0.133 0.060
0.119 -0.133 0.060
0.121 -0.133 0.061
0.118 -0.128 0.059
0.116 -0.124 0.058
0.112 -0.118 0.056
0.111 -0.115 0.055
0.104 -0.106 0.051
0.105 -0.105 0.051
0.106 -0.105 0.051
0.108 -0.105 0.052
0.111 -0.106 0.054
0.114 -0.108 0.055
0.127 -0.118 0.061
0.193 -0.173 0.091
0.195 -0.173 0.092
0.197 -0.172 0.093
0.198 -0.170 0.093
0.198 -0.166 0.092
0.198 -0.164 0.092
0.201 -0.163 0.093
0.197 -0.157 0.090
0.197 -0.155 0.090
0.199 -0.154 0.091
0.201 -0.153 0.091
0.198 -0.148 0.090
0.199 -0.146 0.090
0.197 -0.142 0.089
0.198 -0.140 0.089
0.198 -0.138 0.088
0.199 -0.136 0.089
0.200 -0.134 0.089
0.201 -0.133 0.089
0.201 -0.131 0.089
0.201 -0.128 0.088
0.198 -0.124 0.087
0.200 -0.123 0.087
0.201 -0.121 0.088
0.202 -0.119 0.088
0.201 -0.116 0.087
0.200 -0.114 0.087
0.200 -0.111 0.086
0.200 -0.109 0.086
0.200 -0.107 0.086
0.201 -0.105 0.086
0.201 -0.103 0.086
0.203 -0.102 0.087
0.205 -0.100 0.087
0.205 -0.099 0.087
0.203 -0.095 0.086
0.204 -0.094 0.086
0.205 -0.092 0.087
0.201 -0.088 0.085
0.201 -0.086 0.085
0.203 -0.085 0.085
0.206 -0.084 0.086
0.207 -0.082 0.087
0.207 -0.080 0.086
0.206 -0.077 0.086
0.203 -0.075 0.085
0.204 -0.073 0.085
0.206 -0.071 0.086
0.207 -0.070 0.086
0.208 -0.068 0.086
0.213 -0.067 0.088
0.214 -0.066 0.088
0.213 -0.063 0.088
0.213 -0.061 0.088
0.217 -0.060 0.089
0.219 -0.059 0.090
0.218 -0.056 0.089
0.218 -0.054 0.090
0.219 -0.052 0.090
0.220 -0.050 0.090
0.221 -0.049 0.090
0.221 -0.047 0.090
0.220 -0.044 0.090
0.220 -0.042 0.090
0.218 -0.040 0.089
0.218 -0.038 0.089
0.218 -0.036 0.089
0.219 -0.034 0.089
0.219 -0.032 0.089
0.219 -0.030 0.089
0.219 -0.027 0.089
0.223 -0.026 0.091
0.231 -0.025 0.094
0.236 -0.023 0.096
0.235 -0.021 0.096
0.234 -0.018 0.095
0.213 -0.013 0.086
0.202 -0.010 0.082
0.196 -0.004 0.079
0.201 -0.003 0.081
0.194 -0.001 0.079
0.187 0.001 0.076
0.186 0.004 0.075
0.214 0.007 0.087
0.207 0.009 0.084
0.204 0.014 0.083
0.201 0.016 0.082
0.202 0.018 0.082
0.190 0.022 0.077
0.184 0.023 0.075
0.175 0.024 0.071
0.190 0.029 0.077
0.183 0.030 0.075
0.178 0.031 0.073
0.181 0.033 0.074
0.181 0.035 0.074
0.184 0.037 0.075
0.195 0.041 0.080
0.210 0.046 0.086
0.220 0.051 0.090
0.221 0.053 0.091
0.222 0.056 0.091
0.219 0.057 0.090
0.215 0.058 0.089
0.202 0.057 0.084
0.192 0.056 0.080
0.193 0.058 0.080
0.196 0.061 0.081
0.197 0.063 0.082
0.197 0.065 0.082
0.198 0.067 0.083
0.200 0.070 0.083
0.198 0.071 0.083
0.194 0.072 0.081
0.192 0.073 0.081
0.193 0.075 0.081
0.196 0.079 0.083
0.198 0.082 0.084
0.196 0.083 0.083
0.194 0.084 0.082
0.194 0.086 0.082
0.194 0.088 0.083
0.193 0.090 0.082
0.193 0.092 0.083
0.194 0.095 0.083
0.196 0.097 0.084
0.194 0.099 0.084
0.191 0.099 0.082
0.184 0.098 0.079
0.181 0.098 0.079
0.180 0.100 0.078
0.177 0.100 0.077
0.172 0.100 0.075
0.160 0.095 0.070
0.163 0.098 0.072
0.170 0.104 0.075
0.170 0.107 0.076
0.178 0.113 0.079
0.183 0.119 0.082
0.192 0.127 0.086
0.192 0.129 0.086
0.192 0.132 0.086
0.191 0.134 0.087
0.212 0.151 0.096
0.208 0.151 0.095
0.191 0.141 0.088
0.185 0.140 0.085
0.187 0.143 0.086
0.190 0.149 0.088
0.196 0.156 0.091
0.191 0.155 0.089
0.181 0.149 0.085
0.176 0.147 0.083
0.176 0.150 0.083
0.175 0.152 0.083
0.174 0.154 0.083
0.174 0.157 0.084
0.174 0.159 0.084
0.173 0.161 0.084
0.173 0.164 0.085
0.173 0.167 0.085
0.173 0.169 0.085
0.171 0.171 0.085
0.172 0.175 0.086
0.172 0.177 0.086
0.170 0.178 0.086
0.169 0.180 0.086
0.170 0.184 0.087
0.169 0.186 0.087
0.168 0.189 0.087
0.167 0.191 0.087
0.167 0.193 0.088
0.167 0.196 0.088
0.166 0.198 0.088
0.164 0.200 0.088
0.164 0.202 0.088
0.163 0.205 0.088
0.162 0.207 0.088
0.161 0.208 0.088
0.159 0.209 0.087
0.101 -0.132 0.055
0.099 -0.128 0.054
0.100 -0.128 0.054
0.102 -0.128 0.055
0.103 -0.128 0.055
0.106 -0.130 0.057
0.113 -0.137 0.060
0.119 -0.141 0.063
0.125 -0.146 0.066
0.126 -0.146 0.066
0.125 -0.142 0.065
0.121 -0.136 0.063
0.120 -0.133 0.062
0.120 -0.131 0.062
0.115 -0.124 0.059
0.114 -0.120 0.058
0.112 -0.117 0.057
0.105 -0.107 0.053
0.104 -0.105 0.052
0.106 -0.105 0.053
0.107 -0.104 0.053
0.110 -0.106 0.054
0.113 -0.107 0.056
0.118 -0.110 0.058
0.131 -0.120 0.064
0.194 -0.172 0.094
0.195 -0.170 0.094
0.196 -0.168 0.094
0.195 -0.164 0.093
0.197 -0.163 0.094
0.197 -0.160 0.093
0.195 -0.157 0.092
0.195 -0.154 0.092
0.197 -0.153 0.092
0.196 -0.149 0.091
0.195 -0.146 0.091
0.196 -0.144 0.091
0.196 -0.142 0.091
0.196 -0.139 0.090
0.197 -0.137 0.090
0.198 -0.136 0.090
0.198 -0.133 0.090
0.200 -0.132 0.091
0.200 -0.130 0.090
0.198 -0.126 0.089
0.199 -0.124 0.089
0.199 -0.122 0.089
0.200 -0.121 0.089
0.200 -0.119 0.089
0.201 -0.116 0.089
0.200 -0.114 0.089
0.199 -0.111 0.088
0.200 -0.109 0.088
0.200 -0.107 0.088
0.199 -0.104 0.087
0.200 -0.103 0.088
0.200 -0.100 0.087
0.201 -0.099 0.088
0.201 -0.097 0.088
0.203 -0.095 0.088
0.203 -0.093 0.088
0.200 -0.090 0.087
0.199 -0.087 0.086
0.199 -0.085 0.086
0.201 -0.084 0.086
0.201 -0.082 0.086
0.202 -0.080 0.086
0.202 -0.078 0.087
0.203 -0.077 0.087
0.202 -0.074 0.086
0.203 -0.073 0.087
0.205 -0.071 0.087
0.206 -0.069 0.087
0.208 -0.068 0.088
0.211 -0.067 0.089
0.211 -0.065 0.089
0.210 -0.063 0.089
0.208 -0.060 0.088
0.209 -0.058 0.088
0.213 -0.057 0.090
0.215 -0.056 0.090
0.215 -0.054 0.091
0.215 -0.052 0.090
0.216 -0.050 0.091
0.215 -0.047 0.090
0.214 -0.045 0.090
0.213 -0.043 0.089
0.214 -0.041 0.089
0.215 -0.039 0.090
0.215 -0.037 0.090
0.215 -0.035 0.090
0.213 -0.033 0.089
0.215 -0.031 0.090
0.214 -0.029 0.089
0.217 -0.027 0.091
0.223 -0.026 0.093
0.231 -0.025 0.096
0.234 -0.023 0.097
0.232 -0.020 0.097
0.202 -0.014 0.084
0.194 -0.012 0.081
0.192 -0.010 0.080
0.183 -0.008 0.076
0.183 -0.006 0.076
0.187 -0.004 0.078
0.187 -0.003 0.078
0.184 -0.001 0.077
0.180 0.001 0.075
0.173 0.002 0.072
0.169 0.004 0.070
0.170 0.006 0.071
0.186 0.008 0.077
0.178 0.009 0.074
0.173 0.011 0.072
0.174 0.012 0.073
0.186 0.015 0.077
0.182 0.016 0.076
0.176 0.017 0.074
0.174 0.019 0.073
0.176 0.021 0.073
0.170 0.021 0.071
0.160 0.022 0.067
0.146 0.021 0.061
0.161 0.027 0.067
0.173 0.030 0.073
0.178 0.033 0.075
0.187 0.036 0.079
0.191 0.039 0.080
0.201 0.043 0.085
0.212 0.047 0.089
0.215 0.050 0.091
0.212 0.051 0.089
0.214 0.054 0.090
0.212 0.055 0.090
0.207 0.056 0.088
0.199 0.056 0.084
0.192 0.056 0.082
0.193 0.058 0.082
0.194 0.060 0.082
0.196 0.063 0.084
0.198 0.065 0.084
0.197 0.067 0.084
0.199 0.070 0.085
0.198 0.071 0.085
0.195 0.072 0.084
0.193 0.074 0.083
0.194 0.076 0.084
0.193 0.078 0.084
0.195 0.080 0.084
0.193 0.081 0.083
0.192 0.083 0.083
0.192 0.085 0.084
0.194 0.088 0.085
0.193 0.090 0.084
0.193 0.092 0.084
0.192 0.093 0.084
0.194 0.097 0.086
0.193 0.099 0.085
0.185 0.096 0.082
0.177 0.094 0.079
0.172 0.094 0.077
0.166 0.092 0.074
0.162 0.092 0.073
0.158 0.092 0.071
0.159 0.094 0.071
0.162 0.098 0.073
0.167 0.102 0.075
0.169 0.106 0.077
0.183 0.117 0.084
0.186 0.121 0.085
0.187 0.124 0.086
0.187 0.126 0.086
0.187 0.129 0.086
0.187 0.131 0.087
0.207 0.148 0.096
0.202 0.147 0.094
0.190 0.141 0.089
0.180 0.136 0.085
0.179 0.138 0.085
0.182 0.143 0.087
0.184 0.147 0.088
0.185 0.150 0.089
0.190 0.157 0.092
0.181 0.152 0.088
0.175 0.149 0.085
0.172 0.149 0.084
0.172 0.153 0.085
0.172 0.155 0.085
0.171 0.157 0.085
0.171 0.159 0.085
0.170 0.161 0.085
0.170 0.164 0.086
0.170 0.167 0.086
0.170 0.170 0.087
0.168 0.171 0.086
0.168 0.173 0.087
0.167 0.176 0.087
0.167 0.178 0.087
0.168 0.182 0.088
0.165 0.182 0.087
0.165 0.185 0.088
0.164 0.188 0.088
0.163 0.190 0.088
0.163 0.193 0.088
0.161 0.194 0.088
0.160 0.195 0.088
0.161 0.199 0.089
0.161 0.202 0.089
0.161 0.205 0.089
0.159 0.206 0.089
0.158 0.207 0.089
0.102 -0.134 0.057
0.101 -0.130 0.056
0.100 -0.127 0.055
0.101 -0.127 0.056
0.115 -0.143 0.063
0.120 -0.147 0.066
0.122 -0.147 0.066
0.122 -0.145 0.066
0.124 -0.146 0.067
0.126 -0.146 0.068
0.125 -0.143 0.067
0.124 -0.139 0.066
0.124 -0.137 0.066
0.121 -0.132 0.064
0.119 -0.128 0.062
0.116 -0.122 0.060
0.113 -0.118 0.059
0.113 -0.116 0.058
0.105 -0.106 0.054
0.105 -0.104 0.054
0.107 -0.105 0.055
0.109 -0.105 0.055
0.113 -0.107 0.057
0.116 -0.108 0.058
0.189 -0.168 0.094
0.192 -0.168 0.095
0.191 -0.164 0.094
0.193 -0.164 0.095
0.195 -0.162 0.095
0.195 -0.159 0.094
0.194 -0.156 0.094
0.194 -0.153 0.093
0.194 -0.150 0.093
0.194 -0.148 0.093
0.194 -0.146 0.092
0.194 -0.143 0.092
0.194 -0.141 0.092
0.193 -0.137 0.091
0.194 -0.136 0.091
0.195 -0.134 0.091
0.195 -0.132 0.091
0.196 -0.130 0.091
0.197 -0.128 0.091
0.198 -0.126 0.091
0.197 -0.124 0.091
0.198 -0.122 0.091
0.198 -0.120 0.091
0.199 -0.118 0.091
0.199 -0.115 0.091
0.197 -0.112 0.090
0.197 -0.110 0.089
0.199 -0.109 0.090
0.199 -0.107 0.090
0.199 -0.104 0.089
0.198 -0.102 0.089
0.198 -0.100 0.089
0.198 -0.097 0.088
0.199 -0.096 0.089
0.201 -0.095 0.089
0.202 -0.093 0.090
0.200 -0.090 0.089
0.200 -0.088 0.089
0.200 -0.086 0.088
0.199 -0.083 0.088
0.200 -0.082 0.088
0.200 -0.080 0.088
0.200 -0.078 0.088
0.200 -0.076 0.088
0.202 -0.074 0.088
0.202 -0.072 0.088
0.202 -0.070 0.088
0.203 -0.069 0.088
0.206 -0.067 0.090
0.208 -0.066 0.090
0.209 -0.064 0.091
0.206 -0.061 0.089
0.206 -0.059 0.089
0.206 -0.057 0.089
0.207 -0.056 0.089
0.211 -0.055 0.091
0.212 -0.053 0.091
0.212 -0.051 0.091
0.210 -0.048 0.091
0.211 -0.047 0.091
0.211 -0.044 0.091
0.212 -0.043 0.091
0.212 -0.041 0.091
0.212 -0.039 0.091
0.211 -0.037 0.090
0.209 -0.034 0.090
0.210 -0.032 0.090
0.208 -0.030 0.089
0.212 -0.029 0.091
0.222 -0.028 0.095
0.226 -0.026 0.096
0.225 -0.024 0.096
0.227 -0.022 0.097
0.216 -0.019 0.092
0.196 -0.016 0.084
0.187 -0.013 0.080
0.189 -0.011 0.081
0.179 -0.009 0.076
0.175 -0.007 0.075
0.173 -0.006 0.074
0.172 -0.004 0.073
0.179 -0.002 0.076
0.181 -0.001 0.077
0.177 0.001 0.075
0.171 0.002 0.073
0.163 0.004 0.070
0.171 0.006 0.073
0.177 0.007 0.075
0.169 0.009 0.072
0.163 0.010 0.070
0.164 0.012 0.070
0.156 0.012 0.066
0.170 0.015 0.072
0.160 0.016 0.068
0.164 0.018 0.070
0.165 0.019 0.071
0.158 0.020 0.068
0.153 0.021 0.065
0.149 0.022 0.064
0.154 0.025 0.066
0.148 0.026 0.063
0.178 0.033 0.076
0.187 0.036 0.080
0.194 0.039 0.083
0.198 0.042 0.085
0.209 0.046 0.090
0.210 0.049 0.091
0.207 0.050 0.089
0.204 0.051 0.088
0.201 0.053 0.087
0.199 0.054 0.086
0.196 0.055 0.085
0.193 0.056 0.084
0.193 0.058 0.084
0.194 0.060 0.085
0.195 0.063 0.085
0.194 0.064 0.085
0.195 0.067 0.085
0.195 0.069 0.086
0.195 0.070 0.086
0.193 0.072 0.085
0.192 0.073 0.085
0.191 0.075 0.085
0.191 0.077 0.084
0.190 0.079 0.084
0.191 0.081 0.085
0.189 0.082 0.084
0.187 0.083 0.084
0.187 0.085 0.084
0.188 0.088 0.084
0.188 0.090 0.084
0.191 0.093 0.086
0.193 0.097 0.087
0.189 0.096 0.085
0.182 0.095 0.082
0.170 0.091 0.077
0.163 0.089 0.074
0.157 0.087 0.072
0.156 0.089 0.072
0.156 0.091 0.072
0.160 0.094 0.074
0.173 0.104 0.080
0.181 0.111 0.084
0.185 0.116 0.086
0.185 0.118 0.086
0.185 0.121 0.087
0.185 0.123 0.087
0.184 0.125 0.087
0.182 0.126 0.086
0.183 0.129 0.087
0.192 0.138 0.092
0.198 0.145 0.095
0.187 0.139 0.090
0.177 0.134 0.085
0.175 0.135 0.085
0.176 0.138 0.086
0.175 0.140 0.086
0.175 0.143 0.086
0.179 0.149 0.089
0.184 0.155 0.091
0.177 0.152 0.088
0.168 0.146 0.084
0.167 0.148 0.084
0.170 0.153 0.086
0.169 0.155 0.086
0.168 0.157 0.086
0.168 0.160 0.086
0.167 0.161 0.086
0.166 0.164 0.087
0.167 0.167 0.087
0.166 0.170 0.087
0.165 0.171 0.087
0.164 0.173 0.087
0.165 0.177 0.088
0.165 0.181 0.089
0.164 0.182 0.089
0.162 0.182 0.088
0.161 0.185 0.089
0.161 0.188 0.089
0.160 0.190 0.089
0.159 0.191 0.089
0.158 0.193 0.088
0.157 0.195 0.089
0.157 0.198 0.089
0.156 0.200 0.089
0.156 0.203 0.090
0.120 -0.153 0.068
0.122 -0.154 0.069
0.124 -0.155 0.070
0.124 -0.153 0.070
0.124 -0.150 0.069
0.123 -0.147 0.068
0.123 -0.145 0.068
0.126 -0.147 0.070
0.125 -0.143 0.069
0.128 -0.144 0.070
0.128 -0.142 0.069
0.123 -0.135 0.067
0.121 -0.130 0.065
0.118 -0.125 0.063
0.118 -0.123 0.063
0.113 -0.116 0.060
0.111 -0.113 0.059
0.107 -0.107 0.056
0.107 -0.105 0.056
0.109 -0.105 0.057
0.111 -0.106 0.057
0.114 -0.107 0.059
0.123 -0.113 0.063
0.170 -0.154 0.087
0.181 -0.161 0.092
0.185 -0.162 0.094
0.188 -0.162 0.095
0.189 -0.160 0.095
0.189 -0.158 0.095
0.191 -0.157 0.095
0.191 -0.154 0.095
0.192 -0.152 0.095
0.193 -0.150 0.095
0.191 -0.146 0.093
0.192 -0.144 0.093
0.193 -0.142 0.094
0.191 -0.139 0.092
0.190 -0.136 0.092
0.190 -0.134 0.091
0.192 -0.132 0.092
0.192 -0.130 0.092
0.192 -0.128 0.092
0.192 -0.125 0.091
0.194 -0.124 0.092
0.195 -0.122 0.092
0.195 -0.121 0.092
0.192 -0.116 0.090
0.193 -0.114 0.090
0.195 -0.113 0.091
0.194 -0.111 0.090
0.195 -0.109 0.090
0.196 -0.107 0.091
0.197 -0.106 0.091
0.195 -0.103 0.090
0.195 -0.101 0.090
0.195 -0.098 0.090
0.196 -0.097 0.090
0.196 -0.095 0.089
0.197 -0.093 0.090
0.197 -0.091 0.090
0.198 -0.089 0.090
0.199 -0.088 0.090
0.200 -0.086 0.091
0.200 -0.084 0.090
0.197 -0.081 0.089
0.198 -0.079 0.089
0.198 -0.077 0.089
0.200 -0.076 0.090
0.201 -0.074 0.090
0.201 -0.072 0.090
0.200 -0.070 0.089
0.201 -0.068 0.089
0.203 -0.067 0.090
0.205 -0.065 0.091
0.202 -0.062 0.090
0.202 -0.060 0.090
0.203 -0.059 0.090
0.203 -0.057 0.090
0.203 -0.055 0.090
0.205 -0.053 0.091
0.207 -0.052 0.091
0.208 -0.050 0.092
0.209 -0.048 0.092
0.208 -0.046 0.091
0.209 -0.044 0.092
0.210 -0.042 0.092
0.209 -0.040 0.092
0.201 -0.037 0.088
0.204 -0.035 0.089
0.203 -0.033 0.089
0.202 -0.031 0.088
0.207 -0.030 0.091
0.218 -0.030 0.095
0.224 -0.028 0.098
0.227 -0.026 0.099
0.225 -0.024 0.098
0.194 -0.017 0.085
0.185 -0.015 0.081
0.179 -0.012 0.078
0.178 -0.011 0.078
0.175 -0.009 0.076
0.169 -0.007 0.074
0.170 -0.005 0.074
0.169 -0.004 0.074
0.171 -0.002 0.075
0.171 -0.001 0.075
0.171 0.001 0.074
0.164 0.002 0.071
0.154 0.004 0.067
0.172 0.006 0.075
0.176 0.007 0.077
0.172 0.009 0.075
0.159 0.010 0.069
0.170 0.012 0.074
0.171 0.014 0.075
0.160 0.014 0.070
0.160 0.016 0.070
0.158 0.017 0.069
0.156 0.018 0.068
0.157 0.020 0.069
0.157 0.021 0.069
0.147 0.022 0.065
0.148 0.024 0.065
0.148 0.026 0.065
0.145 0.027 0.064
0.186 0.036 0.082
0.189 0.038 0.083
0.200 0.043 0.088
0.210 0.047 0.093
0.206 0.048 0.091
0.200 0.049 0.089
0.197 0.050 0.087
0.192 0.050 0.085
0.184 0.050 0.082
0.184 0.052 0.082
0.191 0.056 0.085
0.191 0.058 0.085
0.193 0.060 0.086
0.193 0.062 0.086
0.192 0.064 0.086
0.189 0.065 0.085
0.191 0.067 0.086
0.191 0.069 0.086
0.190 0.071 0.086
0.189 0.073 0.086
0.189 0.074 0.086
0.188 0.076 0.085
0.187 0.078 0.085
0.187 0.079 0.085
0.186 0.081 0.085
0.186 0.083 0.085
0.185 0.085 0.085
0.186 0.087 0.085
0.186 0.089 0.086
0.185 0.091 0.085
0.185 0.093 0.085
0.184 0.094 0.085
0.172 0.090 0.080
0.160 0.086 0.074
0.153 0.084 0.072
0.157 0.088 0.073
0.158 0.090 0.074
0.174 0.101 0.082
0.175 0.104 0.083
0.178 0.108 0.085
0.180 0.111 0.086
0.184 0.116 0.088
0.182 0.117 0.087
0.182 0.119 0.087
0.182 0.121 0.088
0.180 0.123 0.087
0.178 0.123 0.086
0.178 0.126 0.087
0.183 0.131 0.089
0.174 0.129 0.086
0.174 0.132 0.086
0.173 0.134 0.086
0.171 0.135 0.086
0.169 0.135 0.085
0.169 0.138 0.085
0.168 0.139 0.085
0.171 0.145 0.087
0.175 0.150 0.089
0.172 0.150 0.088
0.169 0.150 0.087
0.167 0.152 0.087
0.167 0.154 0.087
0.166 0.156 0.087
0.165 0.158 0.087
0.164 0.159 0.087
0.163 0.161 0.087
0.162 0.163 0.087
0.161 0.165 0.087
0.163 0.169 0.088
0.162 0.171 0.088
0.160 0.172 0.088
0.162 0.177 0.089
0.161 0.179 0.090
0.160 0.180 0.089
0.158 0.182 0.089
0.159 0.186 0.090
0.159 0.188 0.090
0.157 0.190 0.090
0.156 0.192 0.090
0.155 0.193 0.090
0.155 0.195 0.090
0.154 0.197 0.090
0.153 0.198 0.089
0.125 -0.162 0.073
0.122 -0.157 0.071
0.123 -0.155 0.071
0.123 -0.153 0.071
0.125 -0.155 0.072
0.126 -0.153 0.072
0.122 -0.146 0.069
0.123 -0.145 0.070
0.125 -0.146 0.071
0.128 -0.147 0.072
0.128 -0.145 0.072
0.128 -0.142 0.071
0.124 -0.136 0.068
0.123 -0.133 0.068
0.123 -0.131 0.068
0.121 -0.127 0.066
0.119 -0.123 0.065
0.113 -0.115 0.061
0.109 -0.109 0.058
0.109 -0.107 0.058
0.109 -0.106 0.058
0.111 -0.105 0.059
0.114 -0.106 0.060
0.123 -0.113 0.064
0.176 -0.160 0.092
0.183 -0.164 0.095
0.185 -0.163 0.096
0.186 -0.160 0.096
0.186 -0.158 0.095
0.187 -0.157 0.096
0.188 -0.154 0.096
0.187 -0.151 0.095
0.187 -0.149 0.095
0.188 -0.147 0.095
0.189 -0.145 0.095
0.189 -0.143 0.094
0.189 -0.140 0.094
0.189 -0.138 0.094
0.188 -0.135 0.093
0.188 -0.132 0.092
0.188 -0.130 0.092
0.189 -0.128 0.093
0.189 -0.126 0.092
0.189 -0.124 0.092
0.190 -0.122 0.092
0.192 -0.121 0.093
0.190 -0.118 0.092
0.188 -0.114 0.090
0.189 -0.112 0.090
0.190 -0.111 0.091
0.191 -0.109 0.091
0.192 -0.108 0.091
0.193 -0.106 0.091
0.193 -0.104 0.091
0.191 -0.101 0.090
0.192 -0.099 0.090
0.193 -0.097 0.090
0.194 -0.096 0.091
0.194 -0.094 0.091
0.194 -0.092 0.091
0.195 -0.090 0.091
0.196 -0.088 0.091
0.196 -0.086 0.091
0.197 -0.085 0.091
0.196 -0.082 0.090
0.195 -0.080 0.090
0.195 -0.078 0.090
0.196 -0.076 0.090
0.198 -0.075 0.091
0.199 -0.073 0.091
0.199 -0.071 0.091
0.198 -0.069 0.090
0.198 -0.067 0.090
0.199 -0.066 0.091
0.200 -0.064 0.091
0.198 -0.061 0.090
0.199 -0.059 0.090
0.200 -0.058 0.091
0.201 -0.056 0.091
0.201 -0.054 0.091
0.201 -0.052 0.091
0.202 -0.051 0.091
0.202 -0.049 0.091
0.206 -0.048 0.093
0.216 -0.048 0.097
0.205 -0.043 0.092
0.204 -0.041 0.092
0.200 -0.039 0.090
0.197 -0.036 0.088
0.194 -0.034 0.087
0.195 -0.032 0.087
0.198 -0.031 0.088
0.204 -0.030 0.091
0.218 -0.030 0.098
0.222 -0.028 0.099
0.224 -0.026 0.100
0.223 -0.024 0.099
0.188 -0.018 0.084
0.181 -0.016 0.081
0.172 -0.014 0.077
0.169 -0.012 0.076
0.169 -0.010 0.076
0.171 -0.009 0.076
0.169 -0.007 0.075
0.173 -0.006 0.077
0.174 -0.004 0.078
0.169 -0.002 0.075
0.165 -0.001 0.074
0.160 0.001 0.071
0.157 0.002 0.070
0.162 0.004 0.072
0.174 0.006 0.077
0.171 0.007 0.076
0.165 0.009 0.074
0.170 0.010 0.076
0.172 0.014 0.077
0.167 0.015 0.075
0.159 0.016 0.071
0.155 0.017 0.069
0.158 0.019 0.071
0.163 0.021 0.073
0.160 0.022 0.072
0.153 0.022 0.069
0.153 0.024 0.069
0.150 0.026 0.067
0.149 0.027 0.067
0.156 0.030 0.070
0.191 0.039 0.086
0.199 0.043 0.090
0.203 0.045 0.092
0.195 0.045 0.088
0.192 0.047 0.087
0.192 0.049 0.087
0.185 0.049 0.084
0.180 0.049 0.082
0.181 0.051 0.082
0.184 0.054 0.084
0.188 0.057 0.086
0.188 0.059 0.086
0.188 0.061 0.086
0.187 0.062 0.086
0.187 0.064 0.086
0.187 0.066 0.086
0.187 0.068 0.086
0.184 0.069 0.085
0.187 0.072 0.086
0.186 0.073 0.086
0.183 0.074 0.085
0.186 0.077 0.086
0.184 0.078 0.086
0.183 0.080 0.085
0.184 0.082 0.086
0.184 0.084 0.086
0.185 0.087 0.087
0.183 0.088 0.086
0.177 0.087 0.083
0.172 0.086 0.081
0.168 0.086 0.080
0.159 0.083 0.075
0.154 0.082 0.073
0.158 0.086 0.075
0.165 0.092 0.079
0.174 0.099 0.084
0.175 0.102 0.084
0.177 0.105 0.086
0.178 0.108 0.086
0.178 0.110 0.087
0.178 0.112 0.087
0.180 0.116 0.088
0.178 0.117 0.087
0.179 0.120 0.088
0.176 0.120 0.087
0.174 0.121 0.087
0.176 0.124 0.088
0.176 0.127 0.088
0.172 0.128 0.087
0.172 0.131 0.087
0.171 0.132 0.087
0.171 0.135 0.087
0.168 0.135 0.086
0.168 0.137 0.086
0.164 0.137 0.085
0.166 0.140 0.086
0.167 0.144 0.087
0.170 0.149 0.089
0.170 0.152 0.090
0.167 0.152 0.089
0.164 0.151 0.087
0.164 0.155 0.088
0.162 0.155 0.088
0.161 0.157 0.087
0.160 0.159 0.088
0.160 0.161 0.088
0.159 0.163 0.088
0.161 0.168 0.090
0.160 0.170 0.089
0.158 0.171 0.089
0.159 0.174 0.090
0.159 0.178 0.091
0.155 0.176 0.089
0.155 0.179 0.089
0.156 0.183 0.090
0.156 0.186 0.091
0.156 0.188 0.091
0.155 0.190 0.091
0.154 0.192 0.091
0.153 0.194 0.091
0.152 0.195 0.091
0.126 -0.162 0.075
0.124 -0.157 0.073
0.124 -0.155 0.073
0.124 -0.153 0.073
0.126 -0.153 0.074
0.126 -0.152 0.074
0.124 -0.146 0.072
0.126 -0.147 0.073
0.128 -0.147 0.074
0.128 -0.145 0.073
0.125 -0.140 0.071
0.125 -0.138 0.071
0.124 -0.134 0.070
0.123 -0.131 0.069
0.120 -0.126 0.067
0.120 -0.124 0.067
0.116 -0.118 0.064
0.110 -0.110 0.061
0.109 -0.108 0.060
0.110 -0.106 0.060
0.111 -0.107 0.060
0.113 -0.107 0.061
0.179 -0.163 0.096
0.180 -0.161 0.096
0.184 -0.162 0.098
0.184 -0.159 0.097
0.184 -0.157 0.097
0.185 -0.155 0.097
0.185 -0.153 0.097
0.186 -0.150 0.096
0.186 -0.148 0.096
0.186 -0.146 0.096
0.186 -0.143 0.095
0.186 -0.141 0.095
0.187 -0.139 0.095
0.187 -0.136 0.095
0.186 -0.134 0.094
0.186 -0.131 0.094
0.186 -0.129 0.093
0.186 -0.126 0.093
0.186 -0.124 0.093
0.186 -0.122 0.093
0.187 -0.120 0.093
0.188 -0.118 0.093
0.188 -0.116 0.092
0.187 -0.114 0.092
0.187 -0.111 0.091
0.187 -0.109 0.091
0.188 -0.108 0.092
0.189 -0.106 0.092
0.190 -0.105 0.092
0.189 -0.102 0.091
0.189 -0.100 0.091
0.190 -0.098 0.091
0.190 -0.096 0.091
0.191 -0.095 0.092
0.191 -0.093 0.091
0.190 -0.090 0.091
0.191 -0.089 0.091
0.192 -0.087 0.091
0.192 -0.085 0.091
0.192 -0.083 0.091
0.192 -0.081 0.091
0.193 -0.079 0.091
0.192 -0.077 0.091
0.192 -0.075 0.090
0.194 -0.074 0.091
0.194 -0.072 0.091
0.194 -0.070 0.091
0.196 -0.068 0.092
0.195 -0.066 0.091
0.192 -0.063 0.089
0.194 -0.062 0.090
0.195 -0.060 0.091
0.195 -0.059 0.091
0.196 -0.057 0.091
0.196 -0.055 0.091
0.198 -0.053 0.091
0.198 -0.051 0.091
0.198 -0.050 0.091
0.202 -0.049 0.093
0.210 -0.049 0.097
0.193 -0.043 0.089
0.193 -0.041 0.089
0.196 -0.040 0.090
0.196 -0.038 0.090
0.193 -0.035 0.089
0.194 -0.034 0.089
0.190 -0.031 0.087
0.190 -0.029 0.087
0.196 -0.028 0.090
0.213 -0.029 0.098
0.218 -0.028 0.100
0.215 -0.025 0.098
0.207 -0.022 0.095
0.177 -0.017 0.081
0.170 -0.015 0.078
0.168 -0.013 0.077
0.165 -0.012 0.075
0.165 -0.010 0.076
0.168 -0.009 0.077
0.170 -0.007 0.077
0.172 -0.006 0.078
0.173 -0.004 0.079
0.167 -0.002 0.076
0.160 -0.001 0.073
0.156 0.001 0.071
0.158 0.002 0.072
0.159 0.004 0.073
0.159 0.005 0.072
0.165 0.007 0.075
0.173 0.009 0.079
0.171 0.011 0.078
0.169 0.012 0.077
0.165 0.013 0.075
0.166 0.015 0.076
0.163 0.016 0.075
0.163 0.018 0.075
0.163 0.019 0.075
0.157 0.020 0.072
0.156 0.021 0.071
0.155 0.023 0.071
0.152 0.024 0.070
0.154 0.026 0.071
0.151 0.028 0.070
0.151 0.029 0.070
0.194 0.040 0.089
0.198 0.042 0.091
0.193 0.043 0.089
0.185 0.043 0.085
0.185 0.045 0.086
0.188 0.048 0.087
0.185 0.049 0.086
0.178 0.049 0.083
0.180 0.051 0.084
0.181 0.053 0.084
0.179 0.054 0.083
0.185 0.058 0.087
0.186 0.060 0.087
0.186 0.062 0.087
0.185 0.063 0.087
0.183 0.065 0.086
0.183 0.066 0.086
0.183 0.068 0.086
0.180 0.069 0.085
0.178 0.071 0.085
0.181 0.073 0.086
0.178 0.074 0.084
0.173 0.074 0.082
0.171 0.075 0.082
0.171 0.077 0.082
0.180 0.083 0.086
0.183 0.086 0.088
0.181 0.087 0.087
0.167 0.082 0.080
0.159 0.080 0.077
0.156 0.080 0.076
0.154 0.081 0.075
0.160 0.086 0.078
0.171 0.094 0.084
0.172 0.096 0.084
0.173 0.099 0.085
0.174 0.102 0.086
0.175 0.104 0.087
0.177 0.107 0.088
0.175 0.109 0.087
0.176 0.112 0.088
0.174 0.112 0.087
0.174 0.114 0.088
0.173 0.116 0.088
0.172 0.118 0.087
0.172 0.120 0.087
0.173 0.122 0.088
0.172 0.125 0.088
0.178 0.131 0.092
0.175 0.132 0.091
0.168 0.128 0.087
0.167 0.130 0.087
0.168 0.133 0.088
0.167 0.135 0.088
0.166 0.136 0.087
0.165 0.138 0.087
0.162 0.138 0.086
0.161 0.139 0.086
0.161 0.141 0.086
0.163 0.146 0.088
0.171 0.156 0.093
0.170 0.158 0.093
0.162 0.153 0.089
0.160 0.154 0.089
0.159 0.156 0.089
0.159 0.158 0.089
0.158 0.160 0.089
0.157 0.162 0.089
0.157 0.164 0.089
0.157 0.168 0.090
0.156 0.169 0.090
0.155 0.171 0.090
0.154 0.173 0.090
0.153 0.174 0.090
0.153 0.176 0.090
0.152 0.179 0.090
0.153 0.182 0.091
0.151 0.183 0.091
0.151 0.186 0.091
0.151 0.189 0.092
0.152 0.192 0.092
0.150 0.194 0.092
0.126 -0.162 0.077
0.127 -0.162 0.077
0.126 -0.159 0.076
0.126 -0.156 0.076
0.127 -0.155 0.076
0.129 -0.156 0.077
0.127 -0.151 0.076
0.126 -0.148 0.075
0.128 -0.148 0.075
0.127 -0.145 0.074
0.127 -0.143 0.074
0.124 -0.137 0.072
0.125 -0.135 0.072
0.122 -0.130 0.070
0.121 -0.127 0.069
0.120 -0.124 0.068
0.118 -0.121 0.067
0.113 -0.114 0.064
0.111 -0.109 0.062
0.111 -0.108 0.062
0.112 -0.107 0.062
0.116 -0.109 0.064
0.178 -0.162 0.097
0.179 -0.161 0.098
0.180 -0.159 0.098
0.182 -0.158 0.098
0.182 -0.155 0.098
0.183 -0.153 0.098
0.183 -0.151 0.098
0.184 -0.150 0.098
0.184 -0.147 0.098
0.184 -0.144 0.097
0.183 -0.141 0.096
0.184 -0.139 0.096
0.184 -0.137 0.096
0.185 -0.135 0.096
0.184 -0.132 0.095
0.183 -0.130 0.095
0.183 -0.127 0.094
0.183 -0.125 0.094
0.184 -0.123 0.094
0.184 -0.121 0.093
0.183 -0.118 0.093
0.184 -0.116 0.093
0.184 -0.115 0.093
0.185 -0.113 0.093
0.185 -0.110 0.093
0.185 -0.108 0.092
0.186 -0.107 0.093
0.187 -0.105 0.093
0.187 -0.103 0.093
0.186 -0.101 0.092
0.186 -0.099 0.092
0.187 -0.097 0.092
0.188 -0.095 0.092
0.188 -0.093 0.092
0.187 -0.091 0.091
0.187 -0.089 0.091
0.188 -0.087 0.092
0.189 -0.086 0.092
0.189 -0.084 0.092
0.188 -0.081 0.091
0.190 -0.080 0.092
0.190 -0.078 0.092
0.189 -0.076 0.091
0.188 -0.074 0.091
0.189 -0.072 0.091
0.189 -0.070 0.091
0.189 -0.068 0.090
0.192 -0.067 0.092
0.190 -0.064 0.090
0.190 -0.063 0.090
0.189 -0.061 0.090
0.192 -0.059 0.091
0.192 -0.058 0.091
0.192 -0.056 0.091
0.193 -0.054 0.092
0.194 -0.052 0.092
0.194 -0.051 0.092
0.197 -0.049 0.093
0.201 -0.048 0.095
0.185 -0.043 0.087
0.184 -0.041 0.087
0.188 -0.040 0.088
0.193 -0.039 0.091
0.194 -0.037 0.091
0.194 -0.036 0.091
0.201 -0.035 0.094
0.197 -0.032 0.093
0.190 -0.030 0.089
0.186 -0.027 0.087
0.197 -0.027 0.092
0.214 -0.027 0.100
0.214 -0.025 0.100
0.169 -0.017 0.079
0.166 -0.015 0.078
0.169 -0.013 0.079
0.170 -0.012 0.079
0.168 -0.010 0.078
0.168 -0.009 0.078
0.168 -0.007 0.078
0.166 -0.005 0.077
0.169 -0.004 0.079
0.166 -0.002 0.077
0.165 -0.001 0.077
0.163 0.001 0.076
0.161 0.002 0.075
0.155 0.004 0.072
0.159 0.005 0.074
0.167 0.007 0.078
0.178 0.009 0.083
0.174 0.011 0.081
0.166 0.012 0.077
0.163 0.013 0.076
0.165 0.015 0.077
0.164 0.016 0.077
0.161 0.018 0.075
0.157 0.019 0.073
0.154 0.020 0.072
0.153 0.021 0.072
0.152 0.022 0.071
0.154 0.024 0.072
0.152 0.025 0.071
0.151 0.027 0.071
0.150 0.029 0.071
0.157 0.032 0.074
0.182 0.039 0.086
0.182 0.041 0.086
0.179 0.042 0.085
0.179 0.044 0.085
0.186 0.047 0.088
0.181 0.048 0.086
0.179 0.049 0.085
0.172 0.049 0.082
0.173 0.051 0.082
0.173 0.053 0.083
0.174 0.055 0.083
0.174 0.056 0.083
0.179 0.060 0.086
0.176 0.061 0.085
0.177 0.063 0.085
0.178 0.065 0.086
0.178 0.067 0.086
0.177 0.068 0.086
0.176 0.070 0.085
0.174 0.071 0.084
0.176 0.073 0.086
0.176 0.075 0.086
0.174 0.076 0.085
0.172 0.077 0.084
0.174 0.080 0.085
0.177 0.083 0.087
0.173 0.084 0.085
0.150 0.074 0.074
0.149 0.075 0.074
0.152 0.078 0.075
0.160 0.084 0.080
0.171 0.092 0.085
0.172 0.094 0.086
0.171 0.096 0.086
0.171 0.098 0.086
0.172 0.101 0.087
0.171 0.102 0.087
0.171 0.104 0.087
0.173 0.107 0.088
0.172 0.109 0.088
0.172 0.111 0.088
0.171 0.113 0.088
0.171 0.115 0.088
0.168 0.115 0.087
0.167 0.117 0.087
0.169 0.120 0.088
0.168 0.122 0.088
0.168 0.124 0.088
0.176 0.132 0.093
0.164 0.126 0.087
0.163 0.127 0.087
0.163 0.129 0.087
0.160 0.130 0.086
0.162 0.133 0.088
0.159 0.133 0.086
0.158 0.135 0.087
0.155 0.134 0.085
0.154 0.136 0.085
0.154 0.139 0.086
0.164 0.150 0.091
0.165 0.154 0.093
0.165 0.156 0.093
0.164 0.158 0.093
0.160 0.157 0.091
0.157 0.157 0.090
0.157 0.159 0.090
0.156 0.161 0.090
0.154 0.162 0.090
0.154 0.164 0.090
0.155 0.168 0.091
0.154 0.170 0.091
0.152 0.171 0.091
0.151 0.173 0.091
0.150 0.174 0.090
0.150 0.177 0.091
0.149 0.179 0.091
0.149 0.181 0.091
0.148 0.182 0.091
0.147 0.184 0.091
0.148 0.188 0.092
0.126 -0.160 0.078
0.128 -0.161 0.079
0.128 -0.159 0.079
0.129 -0.158 0.079
0.129 -0.155 0.079
0.129 -0.154 0.078
0.130 -0.152 0.078
0.127 -0.146 0.076
0.128 -0.146 0.077
0.123 -0.138 0.073
0.125 -0.138 0.074
0.123 -0.134 0.073
0.123 -0.132 0.072
0.121 -0.128 0.071
0.121 -0.126 0.071
0.121 -0.124 0.070
0.120 -0.121 0.069
0.117 -0.117 0.067
0.111 -0.108 0.063
0.113 -0.108 0.064
0.168 -0.157 0.095
0.178 -0.163 0.099
0.177 -0.160 0.099
0.178 -0.158 0.099
0.179 -0.156 0.099
0.180 -0.154 0.099
0.179 -0.151 0.098
0.180 -0.149 0.098
0.181 -0.147 0.098
0.181 -0.145 0.098
0.181 -0.142 0.097
0.181 -0.140 0.097
0.181 -0.138 0.097
0.181 -0.135 0.096
0.181 -0.133 0.096
0.182 -0.131 0.096
0.181 -0.128 0.095
0.180 -0.125 0.094
0.181 -0.124 0.095
0.182 -0.122 0.095
0.180 -0.119 0.094
0.178 -0.115 0.092
0.178 -0.113 0.092
0.181 -0.113 0.093
0.182 -0.111 0.094
0.183 -0.109 0.094
0.182 -0.107 0.093
0.182 -0.105 0.093
0.184 -0.104 0.094
0.184 -0.102 0.093
0.184 -0.100 0.093
0.184 -0.098 0.093
0.185 -0.096 0.093
0.185 -0.094 0.093
0.185 -0.092 0.093
0.184 -0.090 0.092
0.184 -0.088 0.092
0.185 -0.086 0.092
0.186 -0.084 0.092
0.186 -0.083 0.092
0.186 -0.081 0.092
0.186 -0.079 0.092
0.186 -0.077 0.092
0.185 -0.074 0.091
0.186 -0.073 0.091
0.187 -0.071 0.092
0.186 -0.069 0.091
0.185 -0.067 0.090
0.186 -0.065 0.091
0.188 -0.064 0.092
0.187 -0.062 0.091
0.187 -0.060 0.091
0.188 -0.058 0.091
0.189 -0.057 0.092
0.189 -0.055 0.092
0.190 -0.053 0.092
0.192 -0.052 0.093
0.194 -0.051 0.094
0.200 -0.050 0.096
0.180 -0.043 0.087
0.176 -0.041 0.085
0.184 -0.041 0.089
0.187 -0.040 0.090
0.188 -0.038 0.090
0.191 -0.037 0.092
0.192 -0.035 0.092
0.195 -0.034 0.093
0.204 -0.034 0.098
0.197 -0.031 0.094
0.188 -0.027 0.090
0.196 -0.027 0.094
0.209 -0.027 0.100
0.213 -0.025 0.102
0.171 -0.017 0.082
0.163 -0.015 0.078
0.166 -0.013 0.079
0.169 -0.012 0.081
0.168 -0.010 0.080
0.165 -0.008 0.078
0.164 -0.007 0.078
0.163 -0.005 0.078
0.163 -0.004 0.078
0.168 -0.002 0.080
0.171 -0.001 0.081
0.167 0.001 0.080
0.163 0.002 0.078
0.160 0.004 0.076
0.161 0.005 0.077
0.167 0.007 0.080
0.173 0.009 0.082
0.168 0.010 0.080
0.159 0.011 0.076
0.162 0.013 0.077
0.162 0.015 0.078
0.159 0.016 0.076
0.157 0.017 0.075
0.153 0.018 0.073
0.155 0.020 0.075
0.155 0.021 0.074
0.155 0.023 0.074
0.152 0.024 0.073
0.152 0.025 0.073
0.147 0.026 0.071
0.141 0.026 0.068
0.149 0.029 0.072
0.159 0.033 0.077
0.172 0.037 0.083
0.175 0.039 0.085
0.174 0.041 0.084
0.176 0.043 0.085
0.175 0.045 0.085
0.176 0.046 0.085
0.176 0.048 0.086
0.176 0.050 0.086
0.174 0.051 0.085
0.173 0.053 0.085
0.174 0.055 0.085
0.175 0.057 0.086
0.174 0.058 0.085
0.175 0.060 0.086
0.173 0.062 0.085
0.174 0.063 0.086
0.174 0.066 0.086
0.174 0.067 0.086
0.174 0.069 0.086
0.171 0.070 0.085
0.175 0.073 0.087
0.176 0.075 0.088
0.173 0.076 0.086
