VERSION .7
FIELDS x y z
SIZE 4 4 4
TYPE F F F
COUNT 1 1 1
WIDTH     2587
HEIGHT 1
VIEWPOINT 0 0 0 1 0 0 0
POINTS     2587
DATA ascii
0.315 0.021 0.036
0.309 0.024 0.035
0.313 0.027 0.036
0.316 0.030 0.036
0.315 0.033 0.036
0.299 0.034 0.034
0.294 0.036 0.034
0.292 0.038 0.033
0.295 0.041 0.034
0.299 0.045 0.034
0.302 0.048 0.035
0.313 0.052 0.036
0.307 0.054 0.035
0.305 0.057 0.035
0.312 0.061 0.036
0.300 0.061 0.034
0.295 0.063 0.034
0.297 0.066 0.034
0.309 0.072 0.036
0.313 0.076 0.036
0.323 0.081 0.037
0.314 0.082 0.036
0.313 0.085 0.036
0.310 0.087 0.036
0.313 0.090 0.036
0.314 0.094 0.036
0.311 0.096 0.036
0.313 0.100 0.036
0.315 0.103 0.037
0.312 0.105 0.036
0.306 0.106 0.036
0.307 0.109 0.036
0.307 0.113 0.036
0.315 0.118 0.037
0.310 0.120 0.037
0.314 0.124 0.037
0.329 0.134 0.039
0.346 0.144 0.041
0.392 0.171 0.047
0.396 0.177 0.047
0.390 0.179 0.047
0.381 0.178 0.046
0.376 0.180 0.045
0.372 0.182 0.045
0.366 0.183 0.044
0.357 0.182 0.043
0.350 0.182 0.042
0.345 0.183 0.042
0.337 0.183 0.041
0.331 0.183 0.040
0.324 0.183 0.040
0.319 0.183 0.039
0.314 0.185 0.039
0.310 0.186 0.038
0.305 0.186 0.038
0.300 0.186 0.037
0.294 0.186 0.037
0.288 0.185 0.036
0.285 0.187 0.036
0.276 0.185 0.035
0.271 0.185 0.034
0.267 0.185 0.034
0.265 0.187 0.034
0.263 0.189 0.034
0.262 0.191 0.034
0.261 0.194 0.034
0.261 0.198 0.034
0.260 0.200 0.034
0.260 0.203 0.034
0.259 0.207 0.034
0.260 0.211 0.034
0.260 0.214 0.034
0.260 0.218 0.034
0.259 0.221 0.035
0.258 0.224 0.035
0.257 0.227 0.035
0.257 0.231 0.035
0.257 0.234 0.035
0.257 0.238 0.035
0.256 0.241 0.035
0.254 0.244 0.035
0.254 0.247 0.035
0.253 0.251 0.035
0.316 0.346 0.046
0.310 0.345 0.045
0.308 0.348 0.045
0.305 0.351 0.045
0.300 0.350 0.045
0.292 0.347 0.044
0.298 0.359 0.045
0.305 0.375 0.047
0.306 0.382 0.047
0.302 0.383 0.047
0.298 0.384 0.046
0.297 0.389 0.047
0.172 -0.238 0.029
0.180 -0.246 0.030
0.182 -0.245 0.030
0.184 -0.245 0.031
0.186 -0.244 0.031
0.188 -0.243 0.031
0.189 -0.240 0.031
0.187 -0.236 0.030
0.189 -0.235 0.031
0.191 -0.234 0.031
0.196 -0.236 0.031
0.198 -0.234 0.031
0.199 -0.232 0.031
0.205 -0.236 0.032
0.275 -0.264 0.040
0.278 -0.262 0.041
0.279 -0.259 0.041
0.290 -0.261 0.042
0.291 -0.258 0.042
0.295 -0.257 0.042
0.297 -0.255 0.042
0.296 -0.250 0.042
0.297 -0.247 0.042
0.294 -0.241 0.041
0.208 -0.159 0.029
0.208 -0.157 0.029
0.214 -0.158 0.029
0.218 -0.159 0.030
0.217 -0.156 0.030
0.217 -0.153 0.029
0.214 -0.149 0.029
0.201 -0.137 0.027
0.206 -0.138 0.028
0.216 -0.142 0.029
0.209 -0.135 0.028
0.209 -0.133 0.028
0.209 -0.130 0.028
0.209 -0.128 0.028
0.210 -0.126 0.028
0.210 -0.124 0.028
0.208 -0.121 0.027
0.209 -0.119 0.027
0.209 -0.117 0.027
0.207 -0.113 0.027
0.206 -0.110 0.027
0.207 -0.109 0.027
0.208 -0.107 0.027
0.217 -0.110 0.028
0.213 -0.105 0.027
0.207 -0.100 0.027
0.206 -0.098 0.026
0.214 -0.099 0.027
0.208 -0.094 0.027
0.213 -0.094 0.027
0.204 -0.088 0.026
0.208 -0.088 0.027
0.213 -0.088 0.027
0.215 -0.087 0.027
0.216 -0.085 0.027
0.218 -0.084 0.028
0.218 -0.081 0.027
0.217 -0.079 0.027
0.234 -0.083 0.029
0.232 -0.080 0.029
0.233 -0.078 0.029
0.231 -0.075 0.029
0.237 -0.075 0.030
0.243 -0.074 0.030
0.253 -0.075 0.032
0.265 -0.076 0.033
0.410 -0.110 0.051
0.415 -0.108 0.052
0.423 -0.106 0.052
0.425 -0.103 0.053
0.421 -0.098 0.052
0.381 -0.078 0.047
0.374 -0.073 0.046
0.362 -0.067 0.045
0.286 -0.048 0.035
0.283 -0.045 0.035
0.284 -0.042 0.035
0.283 -0.040 0.035
0.283 -0.037 0.035
0.289 -0.035 0.036
0.290 -0.033 0.036
0.291 -0.030 0.036
0.289 -0.027 0.036
0.289 -0.025 0.035
0.289 -0.022 0.035
0.288 -0.020 0.035
0.289 -0.017 0.035
0.291 -0.014 0.036
0.289 -0.012 0.035
0.291 -0.009 0.036
0.293 -0.007 0.036
0.294 -0.004 0.036
0.295 -0.001 0.036
0.289 0.001 0.035
0.283 0.004 0.035
0.297 0.007 0.037
0.304 0.010 0.037
0.305 0.012 0.037
0.303 0.015 0.037
0.307 0.018 0.038
0.309 0.021 0.038
0.304 0.023 0.037
0.309 0.026 0.038
0.313 0.030 0.038
0.306 0.032 0.038
0.298 0.034 0.037
0.294 0.036 0.036
0.293 0.038 0.036
0.295 0.041 0.036
0.295 0.044 0.036
0.304 0.048 0.038
0.301 0.050 0.037
0.300 0.053 0.037
0.299 0.056 0.037
0.299 0.058 0.037
0.301 0.062 0.037
0.298 0.064 0.037
0.302 0.067 0.038
0.307 0.071 0.038
0.312 0.075 0.039
0.317 0.080 0.040
0.322 0.084 0.040
0.315 0.085 0.039
0.310 0.087 0.039
0.306 0.089 0.038
0.304 0.091 0.038
0.315 0.097 0.040
0.312 0.099 0.039
0.316 0.104 0.040
0.313 0.105 0.039
0.309 0.107 0.039
0.305 0.109 0.039
0.308 0.113 0.039
0.310 0.117 0.039
0.308 0.119 0.039
0.308 0.122 0.039
0.317 0.129 0.041
0.331 0.138 0.042
0.340 0.145 0.044
0.399 0.179 0.051
0.394 0.181 0.051
0.382 0.179 0.049
0.378 0.181 0.049
0.373 0.182 0.048
0.366 0.183 0.048
0.355 0.181 0.046
0.350 0.182 0.046
0.344 0.183 0.045
0.338 0.183 0.044
0.332 0.184 0.044
0.325 0.184 0.043
0.316 0.182 0.042
0.312 0.184 0.041
0.308 0.184 0.041
0.303 0.185 0.040
0.301 0.187 0.040
0.296 0.187 0.040
0.288 0.186 0.039
0.284 0.187 0.038
0.279 0.187 0.038
0.272 0.185 0.037
0.267 0.186 0.037
0.264 0.187 0.036
0.262 0.189 0.036
0.261 0.191 0.036
0.261 0.194 0.036
0.261 0.198 0.036
0.260 0.200 0.036
0.259 0.203 0.036
0.259 0.207 0.037
0.260 0.211 0.037
0.260 0.214 0.037
0.259 0.218 0.037
0.258 0.220 0.037
0.257 0.223 0.037
0.257 0.226 0.037
0.257 0.231 0.038
0.257 0.235 0.038
0.257 0.238 0.038
0.256 0.241 0.038
0.255 0.244 0.038
0.255 0.248 0.038
0.254 0.252 0.038
0.348 0.357 0.053
0.353 0.368 0.054
0.315 0.345 0.049
0.303 0.337 0.048
0.298 0.338 0.047
0.296 0.340 0.047
0.295 0.345 0.047
0.292 0.347 0.047
0.297 0.359 0.048
0.304 0.373 0.050
0.306 0.381 0.051
0.301 0.382 0.050
0.298 0.384 0.050
0.297 0.389 0.050
0.181 -0.251 0.033
0.180 -0.246 0.032
0.184 -0.247 0.033
0.186 -0.248 0.033
0.251 -0.330 0.045
0.273 -0.334 0.047
0.273 -0.324 0.046
0.272 -0.318 0.046
0.278 -0.320 0.047
0.280 -0.318 0.047
0.280 -0.314 0.047
0.284 -0.313 0.047
0.286 -0.310 0.047
0.289 -0.309 0.047
0.288 -0.303 0.047
0.288 -0.299 0.047
0.290 -0.296 0.047
0.289 -0.291 0.046
0.286 -0.283 0.046
0.287 -0.280 0.045
0.287 -0.276 0.045
0.285 -0.270 0.045
0.288 -0.267 0.045
0.297 -0.271 0.046
0.293 -0.264 0.045
0.295 -0.262 0.045
0.294 -0.257 0.045
0.296 -0.254 0.045
0.296 -0.250 0.045
0.294 -0.245 0.044
0.290 -0.238 0.044
0.212 -0.163 0.031
0.204 -0.154 0.030
0.209 -0.155 0.031
0.211 -0.154 0.031
0.212 -0.152 0.031
0.208 -0.147 0.030
0.205 -0.142 0.030
0.203 -0.139 0.029
0.205 -0.137 0.030
0.208 -0.137 0.030
0.216 -0.140 0.031
0.211 -0.134 0.030
0.208 -0.130 0.030
0.208 -0.128 0.030
0.210 -0.126 0.030
0.211 -0.125 0.030
0.209 -0.121 0.030
0.207 -0.118 0.029
0.206 -0.115 0.029
0.208 -0.114 0.029
0.206 -0.110 0.029
0.203 -0.107 0.028
0.207 -0.107 0.029
0.209 -0.106 0.029
0.206 -0.102 0.029
0.206 -0.100 0.028
0.205 -0.097 0.028
0.208 -0.097 0.029
0.205 -0.093 0.028
0.208 -0.092 0.028
0.203 -0.088 0.028
0.208 -0.088 0.028
0.212 -0.088 0.029
0.214 -0.087 0.029
0.217 -0.086 0.030
0.218 -0.084 0.030
0.218 -0.082 0.030
0.214 -0.078 0.029
0.225 -0.080 0.030
0.230 -0.079 0.031
0.227 -0.076 0.031
0.232 -0.076 0.031
0.237 -0.075 0.032
0.245 -0.075 0.033
0.254 -0.076 0.034
0.267 -0.077 0.036
0.273 -0.076 0.037
0.410 -0.110 0.055
0.414 -0.108 0.055
0.423 -0.106 0.056
0.428 -0.103 0.057
0.409 -0.095 0.054
0.396 -0.088 0.053
0.365 -0.075 0.048
0.375 -0.073 0.050
0.364 -0.068 0.048
0.285 -0.048 0.038
0.284 -0.045 0.038
0.283 -0.042 0.037
0.281 -0.039 0.037
0.282 -0.037 0.037
0.286 -0.035 0.038
0.291 -0.033 0.038
0.291 -0.030 0.038
0.289 -0.027 0.038
0.288 -0.025 0.038
0.289 -0.022 0.038
0.291 -0.020 0.038
0.290 -0.017 0.038
0.289 -0.014 0.038
0.288 -0.012 0.038
0.290 -0.009 0.038
0.293 -0.007 0.039
0.297 -0.004 0.039
0.297 -0.001 0.039
0.288 0.001 0.038
0.287 0.004 0.038
0.297 0.007 0.039
0.301 0.009 0.040
0.298 0.012 0.039
0.302 0.015 0.040
0.304 0.018 0.040
0.304 0.021 0.040
0.303 0.023 0.040
0.308 0.026 0.041
0.304 0.029 0.040
0.303 0.031 0.040
0.295 0.033 0.039
0.295 0.036 0.039
0.292 0.038 0.039
0.292 0.041 0.039
0.299 0.045 0.040
0.298 0.047 0.039
0.297 0.050 0.039
0.299 0.053 0.040
0.301 0.056 0.040
0.310 0.061 0.041
0.303 0.062 0.040
0.303 0.065 0.040
0.303 0.068 0.040
0.310 0.072 0.041
0.308 0.074 0.041
0.319 0.080 0.043
0.315 0.082 0.042
0.311 0.084 0.042
0.304 0.085 0.041
0.304 0.088 0.041
0.307 0.092 0.041
0.305 0.094 0.041
0.305 0.097 0.041
0.305 0.100 0.041
0.314 0.106 0.043
0.314 0.109 0.043
0.310 0.111 0.042
0.307 0.113 0.042
0.304 0.115 0.041
0.303 0.117 0.041
0.309 0.123 0.042
0.316 0.129 0.043
0.329 0.137 0.045
0.336 0.143 0.046
0.401 0.179 0.055
0.398 0.182 0.055
0.388 0.182 0.054
0.377 0.181 0.052
0.372 0.182 0.052
0.365 0.183 0.051
0.356 0.182 0.050
0.348 0.182 0.049
0.343 0.183 0.048
0.336 0.183 0.047
0.331 0.183 0.047
0.324 0.183 0.046
0.315 0.182 0.045
0.311 0.183 0.044
0.306 0.184 0.044
0.302 0.184 0.043
0.298 0.186 0.043
0.294 0.187 0.042
0.288 0.186 0.042
0.281 0.185 0.041
0.277 0.185 0.040
0.272 0.186 0.040
0.267 0.186 0.039
0.264 0.187 0.039
0.262 0.188 0.039
0.261 0.191 0.039
0.261 0.195 0.039
0.260 0.197 0.039
0.260 0.200 0.039
0.260 0.204 0.039
0.260 0.207 0.039
0.260 0.211 0.040
0.259 0.214 0.040
0.258 0.217 0.040
0.258 0.220 0.040
0.257 0.223 0.040
0.256 0.226 0.040
0.256 0.230 0.040
0.257 0.234 0.040
0.256 0.238 0.041
0.256 0.241 0.041
0.256 0.246 0.041
0.256 0.250 0.041
0.255 0.253 0.041
0.343 0.358 0.057
0.316 0.346 0.053
0.296 0.330 0.050
0.285 0.323 0.049
0.290 0.334 0.050
0.290 0.339 0.050
0.291 0.346 0.051
0.293 0.354 0.051
0.304 0.373 0.054
0.303 0.379 0.054
0.299 0.380 0.053
0.298 0.384 0.054
0.296 0.387 0.054
0.173 -0.239 0.033
0.179 -0.244 0.034
0.184 -0.248 0.035
0.188 -0.251 0.036
0.276 -0.357 0.052
0.280 -0.357 0.052
0.280 -0.353 0.052
0.283 -0.351 0.052
0.283 -0.347 0.052
0.282 -0.340 0.052
0.284 -0.337 0.052
0.281 -0.329 0.051
0.282 -0.326 0.051
0.283 -0.322 0.051
0.283 -0.317 0.050
0.285 -0.314 0.050
0.290 -0.315 0.051
0.288 -0.309 0.050
0.289 -0.304 0.050
0.290 -0.301 0.050
0.290 -0.296 0.050
0.290 -0.292 0.050
0.287 -0.284 0.049
0.288 -0.281 0.049
0.289 -0.277 0.049
0.288 -0.272 0.048
0.288 -0.268 0.048
0.290 -0.265 0.048
0.290 -0.261 0.048
0.289 -0.257 0.048
0.289 -0.253 0.047
0.291 -0.250 0.047
0.290 -0.245 0.047
0.289 -0.240 0.047
0.278 -0.228 0.045
0.274 -0.221 0.044
0.267 -0.212 0.043
0.207 -0.159 0.033
0.202 -0.152 0.032
0.202 -0.150 0.032
0.209 -0.153 0.033
0.205 -0.147 0.032
0.206 -0.146 0.032
0.207 -0.144 0.032
0.207 -0.141 0.032
0.206 -0.138 0.032
0.211 -0.139 0.032
0.216 -0.140 0.033
0.207 -0.132 0.032
0.210 -0.131 0.032
0.209 -0.128 0.032
0.210 -0.126 0.032
0.210 -0.124 0.032
0.210 -0.122 0.032
0.203 -0.116 0.031
0.207 -0.116 0.031
0.203 -0.111 0.030
0.210 -0.113 0.031
0.209 -0.110 0.031
0.211 -0.109 0.031
0.213 -0.108 0.032
0.208 -0.103 0.031
0.203 -0.098 0.030
0.202 -0.096 0.030
0.204 -0.095 0.030
0.210 -0.096 0.031
0.200 -0.089 0.029
0.207 -0.090 0.030
0.202 -0.086 0.030
0.212 -0.088 0.031
0.216 -0.087 0.031
0.219 -0.086 0.032
0.220 -0.085 0.032
0.217 -0.079 0.031
0.218 -0.077 0.031
0.222 -0.077 0.032
0.224 -0.075 0.032
0.228 -0.074 0.033
0.238 -0.075 0.034
0.243 -0.075 0.035
0.252 -0.075 0.036
0.264 -0.076 0.038
0.271 -0.076 0.039
0.405 -0.109 0.058
0.410 -0.107 0.059
0.418 -0.105 0.060
0.422 -0.102 0.060
0.385 -0.089 0.055
0.400 -0.089 0.057
0.388 -0.083 0.055
0.373 -0.076 0.053
0.369 -0.072 0.052
0.364 -0.068 0.052
0.285 -0.048 0.040
0.284 -0.045 0.040
0.284 -0.042 0.040
0.283 -0.040 0.040
0.283 -0.037 0.040
0.286 -0.035 0.040
0.287 -0.033 0.041
0.289 -0.030 0.041
0.289 -0.027 0.041
0.288 -0.025 0.041
0.290 -0.022 0.041
0.291 -0.020 0.041
0.292 -0.017 0.041
0.291 -0.015 0.041
0.289 -0.012 0.041
0.289 -0.009 0.041
0.293 -0.007 0.041
0.298 -0.004 0.042
0.296 -0.001 0.042
0.295 0.001 0.042
0.293 0.004 0.041
0.298 0.007 0.042
0.298 0.009 0.042
0.296 0.012 0.042
0.295 0.015 0.042
0.290 0.017 0.041
0.296 0.020 0.042
0.303 0.023 0.043
0.302 0.026 0.043
0.307 0.029 0.043
0.293 0.030 0.041
0.297 0.034 0.042
0.303 0.037 0.043
0.298 0.039 0.042
0.294 0.041 0.042
0.292 0.044 0.041
0.293 0.046 0.042
0.295 0.049 0.042
0.302 0.054 0.043
0.311 0.058 0.044
0.310 0.061 0.044
0.305 0.062 0.043
0.294 0.063 0.042
0.296 0.066 0.042
0.307 0.071 0.044
0.317 0.077 0.045
0.312 0.079 0.045
0.308 0.080 0.044
0.303 0.082 0.043
0.302 0.085 0.043
0.305 0.088 0.044
0.298 0.089 0.043
0.299 0.092 0.043
0.302 0.096 0.044
0.312 0.102 0.045
0.312 0.106 0.045
0.316 0.110 0.046
0.314 0.112 0.046
0.310 0.114 0.045
0.301 0.113 0.044
0.300 0.116 0.044
0.309 0.123 0.045
0.331 0.135 0.049
0.339 0.141 0.050
0.343 0.147 0.050
0.348 0.152 0.051
0.398 0.178 0.059
0.395 0.181 0.058
0.386 0.181 0.057
0.376 0.180 0.056
0.370 0.181 0.055
0.365 0.183 0.054
0.355 0.181 0.053
0.348 0.182 0.052
0.339 0.181 0.051
0.334 0.182 0.050
0.330 0.183 0.050
0.324 0.183 0.049
0.316 0.183 0.048
0.310 0.182 0.047
0.306 0.184 0.047
0.302 0.184 0.046
0.298 0.185 0.046
0.294 0.186 0.045
0.290 0.187 0.045
0.282 0.186 0.044
0.276 0.185 0.043
0.273 0.186 0.043
0.267 0.186 0.042
0.266 0.188 0.042
0.262 0.189 0.041
0.260 0.191 0.041
0.260 0.194 0.041
0.260 0.197 0.041
0.261 0.201 0.042
0.260 0.204 0.042
0.260 0.208 0.042
0.259 0.211 0.042
0.259 0.214 0.042
0.258 0.217 0.042
0.257 0.220 0.042
0.257 0.224 0.043
0.256 0.227 0.043
0.256 0.230 0.043
0.256 0.234 0.043
0.256 0.238 0.043
0.255 0.241 0.043
0.256 0.246 0.044
0.256 0.250 0.044
0.255 0.253 0.044
0.257 0.260 0.045
0.285 0.298 0.050
0.290 0.308 0.052
0.289 0.317 0.052
0.286 0.320 0.052
0.284 0.323 0.052
0.281 0.325 0.052
0.289 0.339 0.053
0.290 0.345 0.054
0.291 0.352 0.054
0.304 0.374 0.057
0.300 0.375 0.057
0.298 0.379 0.057
0.297 0.384 0.057
0.298 0.390 0.058
0.162 -0.224 0.033
0.171 -0.234 0.035
0.182 -0.246 0.037
0.194 -0.258 0.039
0.278 -0.360 0.056
0.281 -0.359 0.056
0.284 -0.358 0.056
0.285 -0.354 0.056
0.284 -0.347 0.055
0.284 -0.343 0.055
0.285 -0.338 0.055
0.285 -0.334 0.055
0.285 -0.329 0.055
0.286 -0.326 0.054
0.288 -0.323 0.055
0.290 -0.320 0.055
0.288 -0.313 0.054
0.288 -0.309 0.054
0.289 -0.305 0.053
0.290 -0.301 0.053
0.291 -0.297 0.053
0.288 -0.290 0.052
0.288 -0.285 0.052
0.288 -0.281 0.052
0.289 -0.277 0.052
0.288 -0.272 0.051
0.287 -0.268 0.051
0.287 -0.263 0.051
0.288 -0.260 0.051
0.287 -0.255 0.050
0.287 -0.251 0.050
0.287 -0.247 0.050
0.286 -0.243 0.049
0.284 -0.237 0.049
0.280 -0.229 0.048
0.278 -0.225 0.047
0.269 -0.214 0.046
0.207 -0.159 0.035
0.204 -0.154 0.034
0.204 -0.151 0.034
0.206 -0.150 0.034
0.206 -0.148 0.034
0.207 -0.147 0.034
0.211 -0.146 0.035
0.211 -0.144 0.035
0.212 -0.142 0.035
0.217 -0.143 0.036
0.216 -0.140 0.035
0.214 -0.136 0.035
0.209 -0.130 0.034
0.208 -0.128 0.034
0.205 -0.124 0.033
0.209 -0.124 0.034
0.210 -0.122 0.034
0.209 -0.119 0.033
0.207 -0.115 0.033
0.207 -0.113 0.033
0.206 -0.111 0.033
0.213 -0.112 0.034
0.215 -0.111 0.034
0.212 -0.107 0.033
0.211 -0.104 0.033
0.207 -0.100 0.033
0.212 -0.101 0.033
0.212 -0.099 0.033
0.213 -0.097 0.033
0.214 -0.095 0.033
0.205 -0.089 0.032
0.214 -0.091 0.033
0.207 -0.086 0.032
0.217 -0.088 0.034
0.220 -0.087 0.034
0.219 -0.084 0.034
0.219 -0.082 0.034
0.214 -0.078 0.033
0.218 -0.078 0.034
0.220 -0.076 0.034
0.224 -0.075 0.034
0.231 -0.075 0.035
0.240 -0.076 0.037
0.244 -0.075 0.037
0.249 -0.074 0.038
0.260 -0.075 0.040
0.267 -0.074 0.041
0.391 -0.105 0.059
0.402 -0.105 0.061
0.403 -0.101 0.061
0.391 -0.095 0.059
0.394 -0.092 0.060
0.404 -0.090 0.061
0.402 -0.086 0.061
0.379 -0.078 0.057
0.367 -0.072 0.055
0.357 -0.066 0.054
0.283 -0.047 0.043
0.282 -0.045 0.043
0.283 -0.042 0.043
0.283 -0.040 0.043
0.283 -0.037 0.043
0.283 -0.035 0.043
0.284 -0.032 0.043
0.288 -0.030 0.043
0.291 -0.028 0.044
0.291 -0.025 0.044
0.285 -0.022 0.043
0.288 -0.020 0.043
0.293 -0.017 0.044
0.295 -0.015 0.044
0.292 -0.012 0.044
0.291 -0.009 0.044
0.296 -0.007 0.044
0.298 -0.004 0.045
0.298 -0.001 0.045
0.299 0.001 0.045
0.296 0.004 0.044
0.297 0.007 0.045
0.295 0.009 0.044
0.296 0.012 0.044
0.288 0.014 0.043
0.284 0.017 0.043
0.282 0.019 0.042
0.289 0.022 0.043
0.306 0.026 0.046
0.324 0.031 0.049
0.299 0.031 0.045
0.290 0.033 0.044
0.307 0.037 0.046
0.306 0.040 0.046
0.293 0.041 0.044
0.292 0.044 0.044
0.303 0.048 0.046
0.301 0.051 0.046
0.301 0.053 0.046
0.306 0.057 0.046
0.312 0.061 0.047
0.300 0.061 0.045
0.283 0.061 0.043
0.285 0.064 0.043
0.304 0.071 0.046
0.313 0.076 0.048
0.315 0.079 0.048
0.305 0.080 0.046
0.303 0.082 0.046
0.301 0.084 0.046
0.302 0.088 0.046
0.286 0.086 0.044
0.284 0.088 0.044
0.304 0.097 0.047
0.308 0.101 0.047
0.310 0.105 0.048
0.312 0.109 0.048
0.316 0.113 0.049
0.309 0.114 0.048
0.299 0.113 0.046
0.298 0.115 0.046
0.313 0.124 0.049
0.332 0.135 0.052
0.342 0.143 0.053
0.347 0.149 0.054
0.379 0.166 0.059
0.390 0.175 0.061
0.388 0.178 0.061
0.379 0.178 0.060
0.373 0.179 0.059
0.369 0.181 0.059
0.365 0.183 0.058
0.355 0.182 0.057
0.348 0.182 0.056
0.340 0.181 0.054
0.333 0.181 0.053
0.329 0.183 0.053
0.325 0.184 0.052
0.318 0.184 0.051
0.309 0.182 0.050
0.305 0.183 0.050
0.302 0.185 0.049
0.298 0.186 0.049
0.293 0.186 0.048
0.289 0.187 0.048
0.284 0.187 0.047
0.277 0.186 0.046
0.272 0.186 0.045
0.267 0.186 0.045
0.265 0.187 0.044
0.263 0.190 0.044
0.261 0.191 0.044
0.260 0.194 0.044
0.259 0.197 0.044
0.260 0.201 0.044
0.260 0.204 0.045
0.259 0.207 0.045
0.259 0.211 0.045
0.259 0.214 0.045
0.258 0.217 0.045
0.258 0.221 0.045
0.257 0.223 0.045
0.257 0.227 0.045
0.256 0.230 0.046
0.257 0.235 0.046
0.256 0.238 0.046
0.256 0.242 0.046
0.255 0.246 0.046
0.255 0.249 0.047
0.254 0.253 0.047
0.256 0.258 0.047
0.278 0.285 0.052
0.280 0.293 0.053
0.279 0.297 0.053
0.276 0.298 0.052
0.277 0.304 0.053
0.277 0.310 0.053
0.274 0.312 0.053
0.278 0.321 0.054
0.291 0.341 0.057
0.290 0.345 0.057
0.300 0.363 0.060
0.299 0.368 0.060
0.298 0.374 0.060
0.296 0.376 0.060
0.294 0.380 0.060
0.292 0.383 0.060
0.142 -0.197 0.031
0.163 -0.223 0.035
0.279 -0.362 0.059
0.281 -0.360 0.059
0.283 -0.357 0.059
0.284 -0.353 0.059
0.282 -0.346 0.059
0.284 -0.343 0.058
0.285 -0.340 0.059
0.287 -0.337 0.059
0.287 -0.332 0.058
0.290 -0.330 0.058
0.291 -0.326 0.058
0.291 -0.321 0.058
0.288 -0.313 0.057
0.289 -0.310 0.057
0.290 -0.306 0.057
0.290 -0.301 0.056
0.292 -0.299 0.057
0.290 -0.292 0.056
0.289 -0.287 0.056
0.288 -0.282 0.055
0.289 -0.278 0.055
0.289 -0.274 0.055
0.287 -0.267 0.054
0.288 -0.264 0.054
0.288 -0.260 0.054
0.287 -0.255 0.053
0.286 -0.250 0.053
0.286 -0.246 0.053
0.285 -0.242 0.052
0.283 -0.236 0.052
0.282 -0.231 0.051
0.280 -0.226 0.051
0.270 -0.215 0.049
0.205 -0.155 0.037
0.205 -0.152 0.036
0.204 -0.149 0.036
0.203 -0.146 0.036
0.204 -0.144 0.036
0.207 -0.144 0.036
0.211 -0.144 0.037
0.219 -0.147 0.038
0.218 -0.144 0.038
0.217 -0.141 0.038
0.215 -0.137 0.037
0.211 -0.132 0.036
0.205 -0.126 0.035
0.208 -0.126 0.036
0.207 -0.123 0.035
0.211 -0.122 0.036
0.210 -0.120 0.036
0.209 -0.117 0.035
0.209 -0.114 0.035
0.205 -0.110 0.035
0.212 -0.112 0.036
0.214 -0.111 0.036
0.213 -0.108 0.036
0.214 -0.106 0.036
0.215 -0.104 0.036
0.201 -0.096 0.033
0.205 -0.095 0.034
0.209 -0.095 0.035
0.208 -0.092 0.034
0.202 -0.088 0.033
0.216 -0.092 0.036
0.205 -0.085 0.034
0.217 -0.088 0.036
0.219 -0.086 0.036
0.209 -0.080 0.034
0.220 -0.082 0.036
0.207 -0.076 0.034
0.214 -0.076 0.035
0.223 -0.077 0.036
0.225 -0.076 0.037
0.230 -0.075 0.037
0.233 -0.074 0.038
0.244 -0.075 0.040
0.249 -0.074 0.040
0.254 -0.073 0.041
0.260 -0.073 0.042
0.378 -0.102 0.061
0.385 -0.100 0.062
0.391 -0.098 0.063
0.392 -0.095 0.063
0.395 -0.092 0.064
0.400 -0.089 0.064
0.401 -0.086 0.064
0.389 -0.080 0.062
0.284 -0.048 0.045
0.280 -0.044 0.045
0.280 -0.042 0.045
0.282 -0.040 0.045
0.283 -0.037 0.045
0.283 -0.035 0.045
0.283 -0.032 0.045
0.289 -0.030 0.046
0.293 -0.028 0.047
0.286 -0.025 0.045
0.282 -0.022 0.045
0.284 -0.019 0.045
0.290 -0.017 0.046
0.292 -0.015 0.046
0.292 -0.012 0.046
0.292 -0.009 0.046
0.295 -0.007 0.047
0.298 -0.004 0.047
0.298 -0.001 0.047
0.296 0.001 0.047
0.303 0.004 0.048
0.298 0.007 0.047
0.297 0.009 0.047
0.293 0.012 0.047
0.291 0.014 0.046
0.288 0.017 0.046
0.292 0.020 0.047
0.293 0.022 0.047
0.289 0.025 0.046
0.300 0.028 0.048
0.299 0.031 0.048
0.296 0.033 0.047
0.297 0.036 0.047
0.294 0.039 0.047
0.304 0.043 0.049
0.304 0.045 0.049
0.305 0.048 0.049
0.298 0.050 0.048
0.295 0.052 0.047
0.298 0.056 0.048
0.308 0.060 0.049
0.303 0.062 0.049
0.285 0.061 0.046
0.292 0.065 0.047
0.294 0.069 0.047
0.297 0.072 0.048
0.304 0.077 0.049
0.298 0.078 0.048
0.295 0.080 0.048
0.298 0.083 0.048
0.301 0.087 0.049
0.296 0.089 0.048
0.271 0.084 0.044
0.287 0.092 0.047
0.295 0.097 0.048
0.295 0.100 0.048
0.307 0.107 0.050
0.307 0.110 0.050
0.302 0.111 0.050
0.303 0.114 0.050
0.306 0.119 0.050
0.315 0.125 0.052
0.328 0.134 0.054
0.339 0.142 0.056
0.383 0.168 0.064
0.384 0.172 0.064
0.379 0.174 0.063
0.373 0.175 0.062
0.369 0.177 0.062
0.366 0.180 0.062
0.363 0.182 0.061
0.355 0.182 0.060
0.348 0.182 0.059
0.340 0.181 0.058
0.335 0.182 0.057
0.330 0.183 0.056
0.323 0.183 0.055
0.315 0.182 0.054
0.310 0.183 0.053
0.305 0.183 0.053
0.301 0.184 0.052
0.296 0.185 0.051
0.291 0.185 0.051
0.288 0.187 0.050
0.283 0.186 0.050
0.278 0.187 0.049
0.272 0.186 0.048
0.267 0.186 0.047
0.264 0.187 0.047
0.262 0.189 0.047
0.261 0.191 0.047
0.260 0.194 0.047
0.259 0.197 0.047
0.259 0.201 0.047
0.260 0.204 0.047
0.259 0.208 0.047
0.259 0.211 0.048
0.258 0.214 0.048
0.259 0.218 0.048
0.258 0.221 0.048
0.258 0.225 0.048
0.256 0.227 0.048
0.256 0.231 0.048
0.257 0.235 0.049
0.256 0.238 0.049
0.256 0.242 0.049
0.255 0.246 0.049
0.254 0.249 0.049
0.253 0.252 0.049
0.263 0.266 0.052
0.274 0.282 0.054
0.280 0.293 0.056
0.277 0.294 0.055
0.271 0.293 0.055
0.268 0.294 0.054
0.263 0.294 0.054
0.260 0.296 0.054
0.290 0.341 0.060
0.289 0.345 0.061
0.293 0.356 0.062
0.299 0.369 0.064
0.296 0.371 0.063
0.292 0.372 0.063
0.289 0.374 0.063
0.290 0.381 0.063
0.114 -0.159 0.026
0.278 -0.351 0.062
0.279 -0.348 0.062
0.281 -0.345 0.062
0.283 -0.342 0.062
0.286 -0.340 0.062
0.288 -0.338 0.062
0.289 -0.335 0.062
0.291 -0.331 0.062
0.293 -0.329 0.062
0.291 -0.322 0.061
0.291 -0.317 0.061
0.291 -0.312 0.061
0.292 -0.308 0.060
0.292 -0.304 0.060
0.292 -0.299 0.060
0.291 -0.294 0.059
0.291 -0.289 0.059
0.291 -0.284 0.059
0.290 -0.279 0.058
0.291 -0.276 0.058
0.289 -0.269 0.057
0.289 -0.265 0.057
0.288 -0.261 0.057
0.288 -0.256 0.056
0.285 -0.249 0.056
0.285 -0.246 0.055
0.286 -0.243 0.055
0.283 -0.236 0.055
0.283 -0.233 0.054
0.281 -0.227 0.054
0.208 -0.160 0.039
0.205 -0.155 0.039
0.203 -0.151 0.038
0.204 -0.150 0.038
0.199 -0.144 0.037
0.199 -0.141 0.037
0.201 -0.140 0.037
0.210 -0.144 0.039
0.216 -0.145 0.040
0.216 -0.143 0.040
0.217 -0.141 0.040
0.217 -0.138 0.040
0.214 -0.134 0.039
0.206 -0.127 0.037
0.206 -0.124 0.037
0.211 -0.125 0.038
0.210 -0.122 0.038
0.209 -0.119 0.038
0.211 -0.118 0.038
0.207 -0.114 0.037
0.208 -0.112 0.037
0.204 -0.108 0.036
0.210 -0.109 0.037
0.213 -0.108 0.038
0.217 -0.107 0.038
0.216 -0.105 0.038
0.211 -0.101 0.037
0.201 -0.094 0.035
0.205 -0.093 0.036
0.202 -0.090 0.035
0.212 -0.092 0.037
0.212 -0.088 0.037
0.205 -0.083 0.036
0.211 -0.083 0.037
0.219 -0.084 0.038
0.205 -0.077 0.035
0.205 -0.075 0.035
0.211 -0.075 0.036
0.218 -0.075 0.038
0.224 -0.075 0.038
0.228 -0.075 0.039
0.235 -0.075 0.040
0.238 -0.073 0.041
0.250 -0.075 0.043
0.255 -0.074 0.044
0.257 -0.072 0.044
0.374 -0.101 0.064
0.377 -0.098 0.064
0.385 -0.097 0.066
0.392 -0.095 0.067
0.392 -0.091 0.067
0.385 -0.086 0.065
0.380 -0.081 0.065
0.387 -0.079 0.066
0.378 -0.074 0.064
0.283 -0.048 0.048
0.278 -0.044 0.047
0.280 -0.042 0.047
0.282 -0.040 0.048
0.283 -0.037 0.048
0.281 -0.034 0.047
0.283 -0.032 0.048
0.288 -0.030 0.048
0.291 -0.028 0.049
0.286 -0.025 0.048
0.282 -0.022 0.047
0.286 -0.019 0.048
0.288 -0.017 0.048
0.289 -0.014 0.049
0.288 -0.012 0.048
0.290 -0.009 0.049
0.292 -0.007 0.049
0.293 -0.004 0.049
0.293 -0.001 0.049
0.291 0.001 0.049
0.295 0.004 0.050
0.302 0.007 0.051
0.302 0.009 0.051
0.297 0.012 0.050
0.295 0.015 0.050
0.295 0.017 0.050
0.294 0.020 0.049
0.290 0.022 0.049
0.288 0.025 0.049
0.286 0.027 0.048
0.295 0.031 0.050
0.297 0.034 0.050
0.294 0.036 0.050
0.300 0.039 0.051
0.298 0.042 0.050
0.298 0.045 0.050
0.299 0.048 0.051
0.300 0.050 0.051
0.296 0.053 0.050
0.300 0.056 0.051
0.308 0.060 0.052
0.305 0.063 0.052
0.301 0.065 0.051
0.293 0.066 0.050
0.291 0.068 0.050
0.292 0.071 0.050
0.297 0.075 0.051
0.295 0.077 0.051
0.293 0.079 0.050
0.294 0.082 0.050
0.307 0.089 0.053
0.305 0.091 0.052
0.298 0.092 0.051
0.282 0.090 0.049
0.277 0.091 0.048
0.283 0.096 0.049
0.298 0.107 0.052
0.298 0.110 0.052
0.302 0.114 0.053
0.308 0.119 0.054
0.320 0.127 0.056
0.325 0.133 0.057
0.340 0.142 0.060
0.364 0.156 0.064
0.378 0.166 0.066
0.377 0.169 0.066
0.372 0.171 0.066
0.368 0.173 0.065
0.365 0.176 0.065
0.362 0.178 0.064
0.355 0.178 0.063
0.351 0.180 0.063
0.345 0.181 0.062
0.340 0.181 0.061
0.335 0.182 0.060
0.327 0.182 0.059
0.319 0.181 0.058
0.314 0.181 0.057
0.309 0.182 0.056
0.305 0.183 0.056
0.301 0.184 0.055
0.293 0.183 0.054
0.290 0.184 0.053
0.287 0.186 0.053
0.284 0.187 0.053
0.278 0.187 0.052
0.272 0.186 0.051
0.267 0.186 0.050
0.264 0.187 0.050
0.262 0.189 0.049
0.260 0.191 0.049
0.259 0.194 0.049
0.259 0.197 0.049
0.260 0.201 0.050
0.260 0.204 0.050
0.260 0.209 0.050
0.259 0.211 0.050
0.258 0.214 0.050
0.258 0.218 0.051
0.258 0.221 0.051
0.258 0.225 0.051
0.257 0.228 0.051
0.257 0.232 0.051
0.256 0.235 0.052
0.256 0.239 0.052
0.256 0.242 0.052
0.255 0.245 0.052
0.254 0.249 0.052
0.252 0.252 0.052
0.262 0.266 0.055
0.272 0.281 0.057
0.275 0.289 0.058
0.272 0.290 0.058
0.269 0.291 0.057
0.258 0.284 0.055
0.256 0.287 0.055
0.257 0.292 0.056
0.262 0.304 0.057
0.284 0.335 0.063
0.285 0.341 0.063
0.289 0.351 0.064
0.297 0.367 0.067
0.292 0.367 0.066
0.288 0.367 0.066
0.286 0.370 0.065
0.279 0.367 0.064
0.110 -0.153 0.027
0.109 -0.149 0.026
0.116 -0.157 0.028
0.284 -0.339 0.065
0.288 -0.339 0.065
0.289 -0.335 0.065
0.290 -0.331 0.065
0.290 -0.325 0.065
0.290 -0.321 0.064
0.291 -0.318 0.064
0.291 -0.313 0.064
0.291 -0.307 0.063
0.291 -0.304 0.063
0.293 -0.300 0.063
0.292 -0.295 0.063
0.291 -0.289 0.062
0.291 -0.285 0.062
0.291 -0.281 0.062
0.289 -0.274 0.061
0.290 -0.271 0.061
0.290 -0.267 0.061
0.289 -0.262 0.060
0.287 -0.256 0.059
0.287 -0.252 0.059
0.286 -0.247 0.059
0.285 -0.242 0.058
0.284 -0.238 0.058
0.284 -0.234 0.058
0.284 -0.230 0.057
0.271 -0.216 0.054
0.260 -0.204 0.052
0.207 -0.160 0.041
0.204 -0.155 0.041
0.206 -0.153 0.041
0.208 -0.152 0.041
0.203 -0.146 0.040
0.197 -0.139 0.039
0.201 -0.140 0.039
0.213 -0.146 0.042
0.210 -0.141 0.041
0.211 -0.140 0.041
0.215 -0.139 0.041
0.217 -0.138 0.042
0.215 -0.135 0.041
0.209 -0.128 0.040
0.208 -0.126 0.040
0.209 -0.124 0.040
0.209 -0.121 0.040
0.208 -0.119 0.039
0.211 -0.118 0.040
0.215 -0.118 0.041
0.205 -0.111 0.039
0.208 -0.110 0.039
0.206 -0.107 0.039
0.211 -0.107 0.039
0.214 -0.106 0.040
0.214 -0.104 0.040
0.211 -0.100 0.039
0.206 -0.096 0.038
0.208 -0.095 0.039
0.210 -0.093 0.039
0.210 -0.091 0.039
0.216 -0.092 0.040
0.207 -0.086 0.038
0.214 -0.087 0.039
0.214 -0.085 0.039
0.214 -0.082 0.039
0.220 -0.082 0.040
0.216 -0.079 0.039
0.220 -0.078 0.040
0.215 -0.075 0.039
0.223 -0.075 0.040
0.233 -0.076 0.042
0.238 -0.076 0.043
0.243 -0.075 0.044
0.249 -0.074 0.045
0.255 -0.074 0.046
0.261 -0.073 0.047
0.374 -0.101 0.067
0.375 -0.098 0.067
0.382 -0.096 0.069
0.388 -0.094 0.070
0.386 -0.090 0.069
0.373 -0.083 0.067
0.375 -0.080 0.067
0.381 -0.078 0.068
0.379 -0.074 0.068
0.328 -0.061 0.059
0.315 -0.056 0.056
0.281 -0.047 0.050
0.278 -0.044 0.050
0.280 -0.042 0.050
0.282 -0.040 0.050
0.285 -0.037 0.051
0.284 -0.035 0.051
0.285 -0.032 0.051
0.289 -0.030 0.051
0.288 -0.027 0.051
0.283 -0.024 0.050
0.282 -0.022 0.050
0.285 -0.019 0.051
0.286 -0.017 0.051
0.287 -0.014 0.051
0.285 -0.012 0.051
0.287 -0.009 0.051
0.291 -0.007 0.052
0.291 -0.004 0.052
0.289 -0.001 0.051
0.288 0.001 0.051
0.289 0.004 0.051
0.296 0.007 0.053
0.304 0.010 0.054
0.304 0.012 0.054
0.298 0.015 0.053
0.293 0.017 0.052
0.294 0.020 0.052
0.287 0.022 0.051
0.282 0.024 0.050
0.287 0.027 0.051
0.295 0.031 0.053
0.299 0.034 0.053
0.299 0.037 0.053
0.295 0.039 0.053
0.299 0.042 0.053
0.299 0.045 0.053
0.304 0.048 0.054
0.304 0.051 0.054
0.301 0.053 0.054
0.298 0.056 0.053
0.302 0.059 0.054
0.314 0.064 0.056
0.307 0.066 0.055
0.298 0.067 0.053
0.294 0.069 0.053
0.290 0.070 0.052
0.292 0.074 0.053
0.292 0.076 0.053
0.293 0.080 0.053
0.296 0.083 0.054
0.301 0.087 0.055
0.306 0.092 0.055
0.308 0.095 0.056
0.310 0.099 0.056
0.286 0.094 0.052
0.271 0.092 0.049
0.290 0.107 0.053
0.304 0.115 0.056
0.315 0.122 0.058
0.316 0.126 0.058
0.331 0.135 0.061
0.331 0.138 0.061
0.336 0.144 0.062
0.370 0.166 0.069
0.365 0.168 0.068
0.362 0.170 0.067
0.359 0.173 0.067
0.355 0.175 0.067
0.351 0.176 0.066
0.344 0.177 0.065
0.340 0.178 0.064
0.340 0.182 0.064
0.331 0.181 0.063
0.325 0.181 0.062
0.320 0.182 0.061
0.313 0.181 0.060
0.308 0.182 0.059
0.304 0.183 0.059
0.301 0.184 0.058
0.293 0.183 0.057
0.289 0.184 0.056
0.286 0.185 0.056
0.282 0.187 0.055
0.277 0.186 0.054
0.271 0.185 0.053
0.267 0.186 0.053
0.264 0.187 0.052
0.262 0.189 0.052
0.260 0.192 0.052
0.260 0.194 0.052
0.259 0.198 0.052
0.260 0.201 0.052
0.260 0.205 0.053
0.260 0.208 0.053
0.259 0.211 0.053
0.258 0.214 0.053
0.257 0.217 0.053
0.258 0.221 0.054
0.258 0.225 0.054
0.258 0.229 0.054
0.257 0.232 0.054
0.257 0.236 0.054
0.257 0.240 0.055
0.255 0.242 0.055
0.254 0.245 0.055
0.253 0.248 0.055
0.252 0.251 0.055
0.265 0.268 0.058
0.269 0.277 0.059
0.266 0.279 0.059
0.260 0.277 0.058
0.255 0.276 0.057
0.260 0.287 0.059
0.255 0.286 0.058
0.257 0.293 0.059
0.280 0.330 0.065
0.280 0.336 0.066
0.282 0.343 0.066
0.284 0.351 0.067
0.282 0.354 0.067
0.284 0.363 0.068
0.280 0.364 0.068
0.281 0.370 0.068
0.105 -0.147 0.027
0.105 -0.144 0.027
0.106 -0.144 0.027
0.106 -0.142 0.027
0.107 -0.141 0.027
0.108 -0.140 0.027
0.289 -0.335 0.069
0.288 -0.329 0.068
0.289 -0.325 0.068
0.290 -0.322 0.068
0.291 -0.318 0.068
0.291 -0.313 0.067
0.289 -0.306 0.066
0.291 -0.303 0.066
0.292 -0.299 0.066
0.292 -0.295 0.066
0.291 -0.290 0.066
0.290 -0.285 0.065
0.290 -0.280 0.065
0.290 -0.275 0.064
0.288 -0.269 0.064
0.289 -0.266 0.063
0.290 -0.262 0.063
0.289 -0.258 0.063
0.287 -0.252 0.062
0.286 -0.248 0.062
0.286 -0.243 0.061
0.286 -0.239 0.061
0.285 -0.235 0.061
0.283 -0.229 0.060
0.271 -0.216 0.057
0.260 -0.204 0.055
0.211 -0.163 0.044
0.204 -0.155 0.043
0.210 -0.156 0.044
0.207 -0.152 0.043
0.202 -0.146 0.042
0.203 -0.144 0.042
0.206 -0.143 0.042
0.206 -0.141 0.042
0.208 -0.140 0.042
0.211 -0.140 0.043
0.214 -0.139 0.044
0.215 -0.137 0.044
0.214 -0.134 0.043
0.211 -0.130 0.042
0.207 -0.125 0.042
0.205 -0.121 0.041
0.203 -0.118 0.040
0.206 -0.118 0.041
0.211 -0.118 0.042
0.214 -0.118 0.042
0.204 -0.110 0.040
0.205 -0.108 0.040
0.205 -0.106 0.040
0.208 -0.105 0.041
0.209 -0.104 0.041
0.211 -0.102 0.041
0.209 -0.100 0.041
0.207 -0.097 0.040
0.208 -0.095 0.040
0.209 -0.093 0.040
0.204 -0.089 0.040
0.211 -0.090 0.041
0.199 -0.083 0.038
0.212 -0.086 0.041
0.213 -0.084 0.041
0.216 -0.083 0.041
0.220 -0.083 0.042
0.229 -0.084 0.044
0.220 -0.078 0.042
0.223 -0.077 0.043
0.223 -0.075 0.043
0.230 -0.075 0.044
0.239 -0.076 0.046
0.247 -0.076 0.047
0.245 -0.073 0.047
0.249 -0.072 0.047
0.256 -0.072 0.049
0.371 -0.100 0.070
0.374 -0.098 0.071
0.381 -0.096 0.072
0.384 -0.093 0.073
0.382 -0.089 0.072
0.370 -0.083 0.070
0.368 -0.079 0.069
0.347 -0.068 0.065
0.331 -0.062 0.062
0.283 -0.048 0.053
0.279 -0.044 0.052
0.281 -0.042 0.053
0.281 -0.039 0.053
0.284 -0.037 0.053
0.285 -0.035 0.053
0.286 -0.032 0.053
0.287 -0.030 0.054
0.286 -0.027 0.053
0.284 -0.024 0.053
0.279 -0.022 0.052
0.287 -0.019 0.053
0.288 -0.017 0.054
0.288 -0.014 0.054
0.286 -0.012 0.053
0.288 -0.009 0.054
0.292 -0.007 0.054
0.293 -0.004 0.055
0.292 -0.001 0.054
0.288 0.001 0.054
0.289 0.004 0.054
0.291 0.007 0.054
0.293 0.009 0.055
0.297 0.012 0.055
0.285 0.014 0.053
0.291 0.017 0.054
0.293 0.020 0.055
0.287 0.022 0.054
0.285 0.025 0.053
0.296 0.028 0.055
0.295 0.031 0.055
0.292 0.033 0.055
0.296 0.036 0.056
0.294 0.039 0.055
0.297 0.042 0.056
0.301 0.045 0.056
0.301 0.048 0.056
0.300 0.051 0.056
0.299 0.053 0.056
0.293 0.055 0.055
0.298 0.058 0.056
0.308 0.063 0.058
0.310 0.067 0.058
0.298 0.067 0.056
0.296 0.069 0.056
0.298 0.072 0.056
0.290 0.073 0.055
0.289 0.076 0.055
0.294 0.080 0.056
0.292 0.082 0.056
0.288 0.084 0.055
0.292 0.088 0.056
0.306 0.095 0.058
0.311 0.099 0.060
0.310 0.102 0.059
0.296 0.100 0.057
0.277 0.097 0.053
0.275 0.099 0.053
0.277 0.102 0.053
0.311 0.121 0.060
0.322 0.128 0.062
0.323 0.132 0.063
0.328 0.137 0.064
0.330 0.142 0.064
0.332 0.146 0.065
0.334 0.150 0.065
0.358 0.165 0.070
0.348 0.164 0.068
0.346 0.167 0.068
0.347 0.170 0.068
0.345 0.173 0.068
0.341 0.175 0.068
0.341 0.178 0.068
0.335 0.179 0.067
0.330 0.180 0.066
0.325 0.181 0.065
0.319 0.181 0.064
0.313 0.182 0.063
0.308 0.182 0.062
0.304 0.183 0.062
0.301 0.185 0.061
0.293 0.184 0.060
0.288 0.184 0.059
0.285 0.185 0.058
0.281 0.186 0.058
0.277 0.187 0.057
0.271 0.186 0.056
0.267 0.186 0.055
0.263 0.187 0.055
0.261 0.189 0.055
0.261 0.192 0.055
0.260 0.195 0.055
0.260 0.198 0.055
0.260 0.202 0.055
0.259 0.205 0.055
0.259 0.208 0.056
0.259 0.211 0.056
0.258 0.214 0.056
0.257 0.217 0.056
0.257 0.221 0.056
0.257 0.225 0.056
0.257 0.228 0.057
0.256 0.232 0.057
0.256 0.235 0.057
0.256 0.240 0.057
0.256 0.243 0.058
0.254 0.245 0.057
0.253 0.249 0.058
0.252 0.252 0.058
0.259 0.263 0.060
0.261 0.270 0.061
0.259 0.272 0.060
0.255 0.272 0.060
0.260 0.283 0.062
0.258 0.285 0.061
0.258 0.290 0.062
0.259 0.296 0.062
0.268 0.311 0.065
0.276 0.325 0.067
0.281 0.337 0.069
0.276 0.337 0.068
0.276 0.342 0.069
0.276 0.347 0.069
0.239 0.315 0.061
0.105 -0.146 0.028
0.105 -0.144 0.028
0.106 -0.143 0.028
0.106 -0.142 0.028
0.106 -0.141 0.028
0.108 -0.141 0.028
0.107 -0.137 0.028
0.107 -0.135 0.028
0.111 -0.139 0.028
0.112 -0.138 0.029
0.136 -0.163 0.034
0.289 -0.326 0.071
0.290 -0.322 0.071
0.291 -0.318 0.071
0.292 -0.315 0.071
0.292 -0.310 0.070
0.291 -0.304 0.070
0.292 -0.300 0.070
0.292 -0.296 0.069
0.292 -0.291 0.069
0.289 -0.284 0.068
0.291 -0.281 0.068
0.292 -0.278 0.068
0.288 -0.270 0.067
0.288 -0.266 0.066
0.289 -0.262 0.066
0.288 -0.258 0.066
0.287 -0.252 0.065
0.286 -0.247 0.065
0.286 -0.244 0.065
0.287 -0.240 0.064
0.285 -0.235 0.064
0.282 -0.228 0.063
0.272 -0.217 0.060
0.268 -0.211 0.059
0.217 -0.168 0.048
0.215 -0.163 0.047
0.208 -0.155 0.045
0.205 -0.151 0.045
0.204 -0.147 0.044
0.205 -0.145 0.044
0.205 -0.143 0.044
0.205 -0.141 0.044
0.207 -0.140 0.044
0.213 -0.141 0.045
0.215 -0.140 0.046
0.216 -0.138 0.046
0.216 -0.136 0.046
0.216 -0.133 0.046
0.213 -0.129 0.045
0.204 -0.121 0.043
0.202 -0.118 0.042
0.206 -0.118 0.043
0.210 -0.118 0.044
0.211 -0.116 0.044
0.212 -0.114 0.044
0.202 -0.107 0.042
0.207 -0.107 0.043
0.205 -0.104 0.042
0.209 -0.104 0.043
0.208 -0.101 0.043
0.206 -0.098 0.042
0.204 -0.095 0.042
0.202 -0.092 0.041
0.206 -0.092 0.042
0.217 -0.095 0.044
0.198 -0.084 0.040
0.214 -0.089 0.043
0.220 -0.087 0.044
0.215 -0.083 0.043
0.205 -0.077 0.041
0.228 -0.081 0.046
0.214 -0.074 0.043
0.219 -0.074 0.044
0.226 -0.074 0.045
0.238 -0.076 0.047
0.245 -0.076 0.049
0.246 -0.073 0.049
0.246 -0.071 0.049
0.254 -0.071 0.051
0.366 -0.099 0.073
0.370 -0.097 0.073
0.377 -0.095 0.075
0.378 -0.092 0.075
0.372 -0.087 0.074
0.361 -0.081 0.071
0.356 -0.076 0.070
0.361 -0.074 0.071
0.359 -0.070 0.071
0.282 -0.048 0.056
0.281 -0.045 0.055
0.281 -0.042 0.055
0.280 -0.039 0.055
0.283 -0.037 0.055
0.284 -0.035 0.056
0.284 -0.032 0.056
0.284 -0.030 0.056
0.285 -0.027 0.056
0.282 -0.024 0.055
0.285 -0.022 0.056
0.287 -0.020 0.056
0.286 -0.017 0.056
0.287 -0.014 0.056
0.287 -0.012 0.056
0.290 -0.009 0.057
0.290 -0.007 0.057
0.292 -0.004 0.057
0.290 -0.001 0.057
0.289 0.001 0.057
0.287 0.004 0.056
0.287 0.006 0.056
0.289 0.009 0.057
0.282 0.011 0.055
0.283 0.014 0.055
0.287 0.017 0.056
0.289 0.020 0.057
0.291 0.022 0.057
0.297 0.026 0.058
0.301 0.029 0.059
0.297 0.031 0.058
0.292 0.033 0.057
0.289 0.035 0.057
0.295 0.039 0.058
0.295 0.042 0.058
0.300 0.045 0.059
0.299 0.048 0.059
0.297 0.050 0.059
0.298 0.053 0.059
0.298 0.056 0.059
0.292 0.057 0.058
0.297 0.061 0.059
0.298 0.064 0.059
0.283 0.063 0.056
0.287 0.067 0.057
0.294 0.072 0.058
0.292 0.074 0.058
0.286 0.075 0.057
0.288 0.078 0.057
0.289 0.081 0.058
0.283 0.082 0.057
0.285 0.086 0.057
0.294 0.091 0.059
0.296 0.095 0.059
0.296 0.097 0.059
0.290 0.098 0.058
0.290 0.101 0.058
0.284 0.102 0.057
0.278 0.102 0.056
0.268 0.102 0.054
0.280 0.109 0.057
0.327 0.134 0.066
0.325 0.136 0.066
0.325 0.140 0.066
0.334 0.147 0.068
0.324 0.146 0.066
0.324 0.149 0.067
0.328 0.155 0.068
0.328 0.158 0.068
0.324 0.159 0.067
0.337 0.169 0.070
0.336 0.173 0.070
0.336 0.176 0.070
0.333 0.178 0.070
0.327 0.179 0.069
0.321 0.179 0.068
0.317 0.180 0.067
0.312 0.181 0.066
0.308 0.182 0.065
0.303 0.183 0.064
0.300 0.184 0.064
0.293 0.184 0.063
0.288 0.184 0.062
0.285 0.185 0.061
0.281 0.186 0.061
0.276 0.186 0.060
0.271 0.186 0.059
0.267 0.186 0.058
0.264 0.188 0.058
0.262 0.190 0.057
0.261 0.192 0.057
0.261 0.196 0.058
0.261 0.199 0.058
0.260 0.202 0.058
0.259 0.205 0.058
0.258 0.208 0.058
0.258 0.211 0.058
0.258 0.214 0.058
0.257 0.218 0.059
0.257 0.221 0.059
0.257 0.225 0.059
0.256 0.228 0.059
0.256 0.231 0.059
0.255 0.235 0.060
0.255 0.239 0.060
0.255 0.243 0.060
0.254 0.246 0.060
0.252 0.248 0.060
0.253 0.253 0.061
0.253 0.257 0.061
0.254 0.263 0.062
0.255 0.268 0.062
0.262 0.281 0.065
0.264 0.287 0.065
0.260 0.287 0.065
0.253 0.284 0.064
0.257 0.294 0.065
0.203 0.260 0.054
0.195 0.253 0.052
0.190 0.250 0.051
0.114 -0.159 0.032
0.114 -0.157 0.032
0.115 -0.155 0.032
0.113 -0.151 0.031
0.111 -0.147 0.030
0.111 -0.145 0.030
0.113 -0.145 0.031
0.116 -0.147 0.031
0.115 -0.144 0.031
0.113 -0.140 0.030
0.112 -0.136 0.030
0.129 -0.154 0.034
0.129 -0.152 0.034
0.290 -0.318 0.074
0.291 -0.314 0.074
0.292 -0.310 0.074
0.291 -0.305 0.073
0.292 -0.300 0.073
0.293 -0.297 0.073
0.291 -0.290 0.072
0.290 -0.284 0.071
0.290 -0.281 0.071
0.291 -0.277 0.071
0.290 -0.272 0.070
0.289 -0.267 0.070
0.290 -0.263 0.070
0.289 -0.258 0.069
0.288 -0.253 0.069
0.286 -0.248 0.068
0.286 -0.243 0.067
0.287 -0.241 0.068
0.284 -0.234 0.066
0.282 -0.229 0.066
0.276 -0.220 0.064
0.274 -0.215 0.063
0.223 -0.172 0.051
0.215 -0.163 0.049
0.212 -0.158 0.048
0.206 -0.152 0.047
0.205 -0.148 0.047
0.207 -0.147 0.047
0.207 -0.145 0.047
0.207 -0.142 0.047
0.210 -0.141 0.047
0.216 -0.143 0.048
0.220 -0.143 0.049
0.218 -0.140 0.049
0.216 -0.136 0.048
0.219 -0.135 0.048
0.219 -0.133 0.048
0.210 -0.125 0.046
0.206 -0.120 0.045
0.208 -0.119 0.045
0.207 -0.116 0.045
0.206 -0.113 0.045
0.208 -0.112 0.045
0.210 -0.111 0.046
0.203 -0.105 0.044
0.211 -0.107 0.046
0.207 -0.103 0.044
0.207 -0.101 0.044
0.204 -0.097 0.044
0.203 -0.095 0.043
0.211 -0.096 0.045
0.204 -0.091 0.044
0.207 -0.090 0.044
0.211 -0.090 0.045
0.212 -0.088 0.045
0.214 -0.087 0.045
0.210 -0.083 0.044
0.211 -0.082 0.045
0.215 -0.081 0.045
0.210 -0.075 0.044
0.212 -0.074 0.044
0.214 -0.072 0.045
0.223 -0.073 0.047
0.234 -0.074 0.049
0.240 -0.074 0.050
0.248 -0.074 0.052
0.250 -0.072 0.052
0.257 -0.072 0.054
0.357 -0.093 0.074
0.366 -0.092 0.076
0.366 -0.089 0.076
0.359 -0.084 0.074
0.353 -0.079 0.073
0.350 -0.075 0.072
0.351 -0.072 0.073
0.346 -0.068 0.072
0.318 -0.059 0.066
0.307 -0.055 0.063
0.279 -0.047 0.057
0.284 -0.045 0.059
0.283 -0.042 0.058
0.280 -0.039 0.058
0.280 -0.037 0.058
0.281 -0.035 0.058
0.283 -0.032 0.058
0.283 -0.030 0.058
0.282 -0.027 0.058
0.285 -0.025 0.059
0.288 -0.022 0.059
0.290 -0.020 0.060
0.286 -0.017 0.059
0.285 -0.014 0.059
0.289 -0.012 0.059
0.289 -0.009 0.059
0.284 -0.006 0.058
0.284 -0.004 0.058
0.285 -0.001 0.058
0.283 0.001 0.058
0.285 0.004 0.058
0.289 0.006 0.059
0.292 0.009 0.060
0.290 0.012 0.059
0.284 0.014 0.058
0.280 0.016 0.057
0.283 0.019 0.058
0.286 0.022 0.059
0.292 0.025 0.060
0.295 0.028 0.061
0.294 0.031 0.060
0.289 0.033 0.060
0.291 0.036 0.060
0.291 0.038 0.060
0.290 0.041 0.060
0.291 0.044 0.060
0.302 0.048 0.062
0.293 0.050 0.061
0.297 0.053 0.061
0.303 0.057 0.063
0.307 0.060 0.064
0.301 0.062 0.062
0.290 0.062 0.060
0.286 0.064 0.059
0.286 0.067 0.059
0.290 0.071 0.060
0.291 0.074 0.061
0.290 0.076 0.060
0.288 0.078 0.060
0.288 0.081 0.060
0.289 0.084 0.061
0.294 0.088 0.061
0.292 0.091 0.061
0.292 0.094 0.061
0.281 0.093 0.059
0.286 0.097 0.060
0.288 0.101 0.061
0.291 0.104 0.061
0.277 0.102 0.059
0.272 0.103 0.058
0.268 0.104 0.057
0.273 0.109 0.058
0.315 0.132 0.067
0.317 0.136 0.068
0.320 0.141 0.069
0.330 0.149 0.071
0.323 0.149 0.070
0.319 0.151 0.069
0.313 0.151 0.068
0.313 0.154 0.068
0.321 0.161 0.070
0.319 0.164 0.069
0.320 0.168 0.070
0.322 0.172 0.070
0.321 0.176 0.070
0.317 0.177 0.070
0.313 0.178 0.069
0.310 0.180 0.069
0.305 0.181 0.068
0.301 0.182 0.067
0.297 0.183 0.066
0.293 0.183 0.065
0.287 0.184 0.065
0.284 0.185 0.064
0.281 0.186 0.063
0.274 0.185 0.062
0.269 0.185 0.061
0.265 0.186 0.061
0.264 0.188 0.060
0.262 0.190 0.060
0.261 0.192 0.060
0.260 0.196 0.060
0.260 0.199 0.061
0.260 0.202 0.061
0.259 0.205 0.061
0.258 0.208 0.061
0.258 0.211 0.061
0.258 0.215 0.061
0.258 0.218 0.062
0.258 0.222 0.062
0.257 0.225 0.062
0.256 0.228 0.062
0.255 0.232 0.062
0.254 0.234 0.062
0.255 0.239 0.063
0.255 0.243 0.063
0.251 0.244 0.063
0.249 0.246 0.062
0.248 0.248 0.062
0.245 0.250 0.062
0.243 0.252 0.062
0.252 0.265 0.065
0.263 0.282 0.068
0.263 0.287 0.068
0.203 0.240 0.054
0.195 0.243 0.053
0.198 0.250 0.055
0.194 0.248 0.054
0.190 0.247 0.053
0.184 0.243 0.052
0.116 -0.161 0.034
0.115 -0.158 0.033
0.115 -0.156 0.033
0.113 -0.151 0.032
0.112 -0.148 0.032
0.111 -0.144 0.032
0.112 -0.144 0.032
0.115 -0.146 0.032
0.115 -0.143 0.032
0.109 -0.135 0.030
0.122 -0.148 0.034
0.123 -0.147 0.034
0.123 -0.145 0.034
0.131 -0.150 0.035
0.131 -0.148 0.035
0.289 -0.307 0.076
0.287 -0.300 0.075
0.289 -0.298 0.075
0.290 -0.294 0.075
0.288 -0.288 0.074
0.289 -0.284 0.074
0.289 -0.280 0.074
0.289 -0.276 0.074
0.289 -0.271 0.073
0.289 -0.267 0.073
0.289 -0.263 0.073
0.290 -0.259 0.072
0.288 -0.254 0.072
0.288 -0.250 0.071
0.288 -0.246 0.071
0.284 -0.239 0.070
0.283 -0.234 0.069
0.281 -0.228 0.068
0.277 -0.222 0.067
0.268 -0.211 0.065
0.216 -0.167 0.052
0.217 -0.165 0.052
0.212 -0.159 0.051
0.205 -0.151 0.049
0.205 -0.148 0.049
0.208 -0.148 0.049
0.208 -0.146 0.049
0.206 -0.141 0.048
0.207 -0.140 0.049
0.214 -0.142 0.050
0.221 -0.144 0.051
0.212 -0.136 0.049
0.213 -0.134 0.049
0.212 -0.131 0.049
0.214 -0.130 0.049
0.212 -0.126 0.049
0.206 -0.120 0.047
0.204 -0.117 0.047
0.205 -0.116 0.047
0.200 -0.111 0.046
0.209 -0.113 0.047
0.206 -0.109 0.047
0.202 -0.105 0.046
0.203 -0.103 0.046
0.206 -0.103 0.046
0.205 -0.100 0.046
0.203 -0.097 0.045
0.203 -0.095 0.045
0.203 -0.093 0.045
0.199 -0.089 0.044
0.199 -0.087 0.044
0.207 -0.088 0.046
0.199 -0.083 0.044
0.209 -0.085 0.046
0.202 -0.080 0.045
0.208 -0.081 0.046
0.204 -0.077 0.045
0.207 -0.076 0.045
0.212 -0.076 0.046
0.213 -0.074 0.047
0.214 -0.072 0.047
0.221 -0.072 0.048
0.226 -0.072 0.049
0.237 -0.073 0.052
0.243 -0.073 0.053
0.250 -0.072 0.054
0.254 -0.071 0.055
0.344 -0.090 0.075
0.352 -0.089 0.076
0.349 -0.085 0.076
0.348 -0.081 0.075
0.348 -0.078 0.075
0.346 -0.074 0.075
0.336 -0.069 0.072
0.333 -0.065 0.072
0.313 -0.059 0.067
0.312 -0.056 0.067
0.288 -0.049 0.062
0.282 -0.045 0.061
0.281 -0.042 0.060
0.279 -0.039 0.060
0.279 -0.037 0.060
0.280 -0.034 0.060
0.283 -0.032 0.061
0.281 -0.029 0.060
0.284 -0.027 0.061
0.285 -0.025 0.061
0.291 -0.022 0.062
0.290 -0.020 0.062
0.286 -0.017 0.061
0.288 -0.014 0.062
0.290 -0.012 0.062
0.286 -0.009 0.061
0.283 -0.006 0.061
0.282 -0.004 0.060
0.282 -0.001 0.060
0.279 0.001 0.060
0.279 0.004 0.060
0.291 0.007 0.062
0.294 0.009 0.063
0.295 0.012 0.063
0.286 0.014 0.061
0.282 0.017 0.060
0.280 0.019 0.060
0.285 0.022 0.061
0.282 0.024 0.061
0.293 0.028 0.063
0.293 0.031 0.063
0.296 0.034 0.064
0.297 0.036 0.064
0.294 0.039 0.063
0.291 0.041 0.063
0.295 0.044 0.064
0.290 0.046 0.063
0.278 0.047 0.060
0.280 0.050 0.060
0.304 0.057 0.066
0.308 0.061 0.067
0.302 0.062 0.065
0.294 0.063 0.064
0.285 0.064 0.062
0.280 0.066 0.061
0.280 0.068 0.061
0.285 0.072 0.062
0.292 0.077 0.064
0.289 0.079 0.063
0.287 0.081 0.063
0.292 0.085 0.064
0.297 0.089 0.065
0.302 0.094 0.066
0.304 0.098 0.067
0.299 0.099 0.066
0.290 0.099 0.064
0.292 0.102 0.064
0.292 0.105 0.064
0.287 0.106 0.063
0.280 0.106 0.062
0.276 0.108 0.061
0.263 0.105 0.059
0.261 0.107 0.058
0.304 0.128 0.068
0.312 0.134 0.070
0.318 0.140 0.071
0.320 0.144 0.072
0.323 0.149 0.073
0.317 0.150 0.072
0.309 0.149 0.070
0.308 0.152 0.070
0.310 0.156 0.070
0.312 0.161 0.071
0.312 0.164 0.071
0.316 0.170 0.072
0.314 0.172 0.072
0.311 0.174 0.071
0.310 0.177 0.071
0.306 0.178 0.071
0.303 0.179 0.070
0.298 0.180 0.069
0.296 0.182 0.069
0.292 0.183 0.068
0.286 0.183 0.067
0.280 0.182 0.066
0.277 0.184 0.066
0.275 0.186 0.065
0.270 0.186 0.064
0.265 0.186 0.063
0.263 0.188 0.063
0.262 0.190 0.063
0.261 0.192 0.063
0.260 0.195 0.063
0.261 0.199 0.063
0.260 0.202 0.063
0.259 0.205 0.063
0.258 0.208 0.064
0.258 0.212 0.064
0.257 0.215 0.064
0.257 0.218 0.064
0.257 0.222 0.064
0.255 0.224 0.064
0.256 0.228 0.065
0.254 0.231 0.065
0.254 0.235 0.065
0.253 0.237 0.065
0.252 0.241 0.065
0.252 0.244 0.066
0.249 0.245 0.065
0.243 0.244 0.064
0.237 0.242 0.063
0.235 0.244 0.063
0.216 0.240 0.059
0.211 0.238 0.058
0.202 0.232 0.056
0.197 0.229 0.055
0.194 0.229 0.054
0.192 0.231 0.054
0.192 0.239 0.055
0.192 0.243 0.055
0.193 0.248 0.056
0.195 0.254 0.057
0.224 0.296 0.066
0.100 -0.139 0.030
0.099 -0.137 0.030
0.099 -0.135 0.030
0.100 -0.134 0.030
0.100 -0.132 0.030
0.100 -0.131 0.030
0.100 -0.129 0.030
0.101 -0.128 0.030
0.100 -0.126 0.029
0.100 -0.124 0.029
0.102 -0.124 0.029
0.102 -0.123 0.029
0.103 -0.122 0.029
0.108 -0.126 0.031
0.124 -0.142 0.035
0.126 -0.143 0.036
0.127 -0.141 0.035
0.127 -0.140 0.035
0.134 -0.144 0.037
0.274 -0.282 0.075
0.282 -0.286 0.076
0.285 -0.285 0.077
0.286 -0.282 0.077
0.286 -0.278 0.076
0.287 -0.274 0.076
0.287 -0.270 0.076
0.288 -0.266 0.076
0.289 -0.263 0.076
0.289 -0.259 0.075
0.288 -0.254 0.075
0.287 -0.250 0.074
0.286 -0.244 0.074
0.284 -0.239 0.073
0.282 -0.233 0.072
0.281 -0.229 0.072
0.277 -0.222 0.070
0.267 -0.211 0.067
0.225 -0.174 0.057
0.215 -0.164 0.054
0.207 -0.155 0.052
0.203 -0.149 0.050
0.205 -0.148 0.051
0.207 -0.148 0.051
0.205 -0.144 0.051
0.206 -0.141 0.050
0.207 -0.140 0.051
0.209 -0.139 0.051
0.212 -0.138 0.051
0.217 -0.139 0.053
0.208 -0.131 0.050
0.207 -0.128 0.050
0.210 -0.127 0.050
0.207 -0.124 0.050
0.204 -0.120 0.049
0.206 -0.118 0.049
0.198 -0.111 0.047
0.199 -0.110 0.047
0.206 -0.111 0.049
0.211 -0.112 0.050
0.197 -0.102 0.046
0.175 -0.089 0.041
0.174 -0.087 0.041
0.172 -0.084 0.040
0.172 -0.082 0.040
0.173 -0.081 0.040
0.174 -0.080 0.041
0.175 -0.078 0.041
0.176 -0.077 0.041
0.177 -0.076 0.041
0.179 -0.075 0.041
0.181 -0.074 0.042
0.184 -0.073 0.042
0.192 -0.074 0.044
0.210 -0.079 0.048
0.212 -0.078 0.049
0.216 -0.077 0.049
0.214 -0.075 0.049
0.216 -0.073 0.049
0.218 -0.072 0.050
0.223 -0.071 0.051
0.231 -0.071 0.053
0.240 -0.072 0.055
0.246 -0.071 0.056
0.258 -0.073 0.059
0.336 -0.088 0.076
0.342 -0.086 0.077
0.342 -0.083 0.077
0.340 -0.080 0.077
0.341 -0.077 0.077
0.330 -0.071 0.074
0.324 -0.067 0.073
0.323 -0.063 0.073
0.327 -0.061 0.074
0.308 -0.055 0.069
0.294 -0.050 0.066
0.282 -0.045 0.063
0.277 -0.042 0.062
0.278 -0.039 0.062
0.279 -0.037 0.063
0.279 -0.034 0.063
0.278 -0.032 0.062
0.282 -0.030 0.063
0.280 -0.027 0.063
0.285 -0.025 0.064
0.286 -0.022 0.064
0.286 -0.019 0.064
0.287 -0.017 0.064
0.289 -0.014 0.065
0.292 -0.012 0.065
0.284 -0.009 0.064
0.282 -0.006 0.063
0.282 -0.004 0.063
0.280 -0.001 0.063
0.279 0.001 0.062
0.281 0.004 0.063
0.283 0.006 0.063
0.294 0.009 0.066
0.291 0.012 0.065
0.283 0.014 0.063
0.277 0.016 0.062
0.277 0.019 0.062
0.280 0.022 0.063
0.292 0.025 0.065
0.291 0.028 0.065
0.293 0.031 0.066
0.299 0.034 0.067
0.294 0.036 0.066
0.286 0.038 0.064
0.292 0.041 0.066
0.290 0.044 0.065
0.277 0.044 0.062
0.266 0.045 0.060
0.274 0.049 0.062
0.288 0.054 0.065
0.294 0.058 0.066
0.287 0.059 0.065
0.292 0.063 0.066
0.270 0.061 0.061
0.272 0.064 0.062
0.272 0.066 0.062
0.270 0.068 0.061
0.277 0.076 0.063
0.278 0.078 0.063
0.284 0.083 0.065
0.292 0.088 0.067
0.304 0.095 0.070
0.307 0.099 0.070
0.302 0.100 0.069
0.297 0.101 0.068
0.296 0.104 0.068
0.294 0.106 0.068
0.291 0.108 0.067
0.293 0.112 0.068
0.294 0.115 0.068
0.285 0.114 0.066
0.266 0.109 0.062
0.311 0.137 0.073
0.314 0.142 0.073
