VERSION .7
FIELDS x y z
SIZE 4 4 4
TYPE F F F
COUNT 1 1 1
WIDTH     2439
HEIGHT 1
VIEWPOINT 0 0 0 1 0 0 0
POINTS     2439
DATA ascii
0.304 -0.018 -0.159
0.316 -0.016 -0.166
0.326 0.020 -0.171
0.289 0.021 -0.151
0.304 0.025 -0.159
0.301 0.027 -0.158
0.303 0.030 -0.159
0.308 0.034 -0.162
0.303 0.036 -0.159
0.300 0.039 -0.158
0.300 0.042 -0.158
0.312 0.046 -0.165
0.306 0.051 -0.161
0.312 0.067 -0.165
0.208 -0.137 -0.116
0.208 -0.135 -0.116
0.209 -0.133 -0.116
0.211 -0.132 -0.116
1.382 -0.601 -0.736
1.375 -0.583 -0.730
1.349 -0.502 -0.710
1.360 -0.492 -0.715
1.371 -0.482 -0.720
1.349 -0.461 -0.708
1.326 -0.440 -0.695
1.319 -0.424 -0.690
1.314 -0.410 -0.687
1.312 -0.396 -0.685
1.326 -0.387 -0.691
1.329 -0.375 -0.692
1.339 -0.364 -0.697
1.321 -0.346 -0.687
1.324 -0.334 -0.687
0.299 -0.052 -0.154
0.299 -0.049 -0.154
0.303 -0.047 -0.156
0.308 -0.045 -0.159
0.302 -0.041 -0.155
0.271 -0.034 -0.139
0.307 -0.033 -0.158
0.314 -0.031 -0.161
0.306 -0.027 -0.157
0.294 -0.021 -0.151
0.303 -0.018 -0.156
0.314 -0.016 -0.161
0.309 -0.013 -0.159
0.324 0.011 -0.166
0.309 0.016 -0.159
0.301 0.019 -0.155
0.311 0.022 -0.160
0.303 0.025 -0.156
0.303 0.027 -0.156
0.305 0.031 -0.157
0.303 0.033 -0.156
0.300 0.036 -0.155
0.298 0.038 -0.153
0.297 0.041 -0.153
0.302 0.045 -0.156
0.310 0.049 -0.160
0.301 0.050 -0.156
0.294 0.052 -0.152
0.287 0.079 -0.150
0.348 0.146 -0.186
0.338 0.145 -0.181
0.189 0.233 -0.125
0.185 0.231 -0.123
0.208 -0.137 -0.114
0.208 -0.135 -0.113
0.209 -0.132 -0.113
0.210 -0.131 -0.114
0.304 -0.158 -0.161
0.314 -0.160 -0.166
0.320 -0.160 -0.169
0.323 -0.158 -0.170
0.325 -0.155 -0.171
0.334 -0.156 -0.175
0.341 -0.155 -0.178
0.336 -0.149 -0.176
1.376 -0.582 -0.716
1.358 -0.505 -0.701
1.362 -0.492 -0.702
1.359 -0.477 -0.699
1.339 -0.457 -0.688
1.331 -0.441 -0.683
1.321 -0.424 -0.677
1.322 -0.411 -0.677
1.323 -0.398 -0.676
1.333 -0.388 -0.681
1.343 -0.378 -0.685
1.328 -0.360 -0.676
1.323 -0.346 -0.673
1.325 -0.334 -0.674
0.301 -0.055 -0.152
0.313 -0.055 -0.158
0.291 -0.048 -0.147
0.299 -0.047 -0.151
0.302 -0.044 -0.153
0.307 -0.042 -0.155
0.285 -0.033 -0.143
0.304 -0.033 -0.153
0.310 -0.031 -0.156
0.288 -0.026 -0.145
0.278 -0.022 -0.140
0.283 -0.020 -0.142
0.293 -0.018 -0.147
0.301 -0.015 -0.151
0.291 -0.012 -0.147
0.350 -0.001 -0.176
0.325 0.008 -0.163
0.298 0.016 -0.150
0.302 0.019 -0.152
0.306 0.022 -0.154
0.301 0.024 -0.152
0.306 0.028 -0.154
0.312 0.031 -0.158
0.309 0.034 -0.156
0.311 0.037 -0.157
0.304 0.039 -0.154
0.299 0.041 -0.151
0.295 0.044 -0.149
0.303 0.048 -0.153
0.307 0.051 -0.156
0.317 0.084 -0.162
0.345 0.148 -0.181
0.196 0.227 -0.125
0.183 0.219 -0.118
0.187 0.230 -0.121
0.191 0.238 -0.125
0.182 0.231 -0.120
0.208 -0.137 -0.111
0.208 -0.134 -0.111
0.208 -0.132 -0.111
0.209 -0.130 -0.111
0.297 -0.171 -0.156
0.305 -0.172 -0.160
0.312 -0.172 -0.163
0.315 -0.170 -0.164
0.313 -0.166 -0.163
0.313 -0.162 -0.162
0.317 -0.161 -0.164
0.324 -0.161 -0.167
0.324 -0.158 -0.167
0.328 -0.156 -0.168
0.333 -0.155 -0.171
0.337 -0.153 -0.173
0.339 -0.150 -0.173
0.251 -0.101 -0.128
1.363 -0.505 -0.689
1.352 -0.488 -0.682
1.353 -0.474 -0.682
1.344 -0.457 -0.676
1.327 -0.438 -0.667
1.322 -0.424 -0.664
1.324 -0.411 -0.664
1.324 -0.398 -0.663
1.331 -0.387 -0.666
1.335 -0.375 -0.667
1.323 -0.359 -0.660
1.314 -0.343 -0.655
1.314 -0.330 -0.654
0.301 -0.055 -0.149
0.288 -0.050 -0.142
0.300 -0.049 -0.148
0.295 -0.046 -0.146
0.297 -0.043 -0.147
0.296 -0.040 -0.146
0.296 -0.037 -0.146
0.294 -0.034 -0.145
0.301 -0.032 -0.149
0.295 -0.029 -0.145
0.287 -0.026 -0.141
0.281 -0.022 -0.138
0.275 -0.019 -0.136
0.282 -0.017 -0.139
0.288 -0.015 -0.142
0.293 -0.012 -0.144
0.284 -0.009 -0.140
0.320 0.014 -0.157
0.301 0.016 -0.149
0.304 0.019 -0.150
0.301 0.021 -0.148
0.301 0.024 -0.149
0.309 0.028 -0.153
0.316 0.032 -0.156
0.326 0.036 -0.161
0.326 0.039 -0.161
0.314 0.040 -0.155
0.299 0.041 -0.148
0.286 0.042 -0.142
0.293 0.046 -0.145
0.305 0.071 -0.152
0.324 0.089 -0.162
0.220 0.231 -0.133
0.190 0.216 -0.118
0.186 0.215 -0.116
0.176 0.207 -0.111
0.177 0.211 -0.112
0.174 0.211 -0.111
0.171 0.209 -0.109
0.207 -0.136 -0.108
0.208 -0.134 -0.108
0.209 -0.132 -0.108
0.209 -0.130 -0.108
0.305 -0.182 -0.157
0.306 -0.179 -0.158
0.307 -0.176 -0.157
0.311 -0.175 -0.159
0.320 -0.176 -0.163
0.321 -0.173 -0.164
0.318 -0.168 -0.162
0.318 -0.165 -0.161
0.321 -0.163 -0.162
0.323 -0.160 -0.163
0.327 -0.158 -0.165
0.328 -0.156 -0.165
0.333 -0.154 -0.167
0.336 -0.152 -0.168
0.336 -0.149 -0.168
1.366 -0.505 -0.675
1.351 -0.486 -0.667
1.340 -0.469 -0.661
1.347 -0.458 -0.663
1.331 -0.439 -0.655
1.322 -0.423 -0.650
1.324 -0.410 -0.650
1.321 -0.396 -0.648
1.315 -0.381 -0.643
1.323 -0.371 -0.647
1.319 -0.357 -0.644
1.320 -0.344 -0.644
0.288 -0.053 -0.140
0.297 -0.052 -0.144
0.299 -0.049 -0.145
0.296 -0.046 -0.143
0.293 -0.043 -0.142
0.300 -0.041 -0.145
0.299 -0.038 -0.144
0.299 -0.035 -0.145
0.295 -0.032 -0.142
0.295 -0.029 -0.142
0.304 -0.027 -0.147
0.298 -0.024 -0.144
0.281 -0.020 -0.136
0.283 -0.017 -0.136
0.298 -0.015 -0.144
0.298 -0.012 -0.144
0.313 -0.007 -0.151
0.322 0.002 -0.155
0.308 0.025 -0.149
0.305 0.027 -0.147
0.305 0.030 -0.147
0.319 0.035 -0.154
0.324 0.038 -0.157
0.315 0.040 -0.153
0.310 0.043 -0.150
0.314 0.052 -0.152
0.304 0.053 -0.148
0.316 0.068 -0.154
0.324 0.089 -0.159
0.324 0.098 -0.160
0.317 0.099 -0.156
0.219 0.207 -0.126
0.226 0.217 -0.131
0.232 0.227 -0.135
0.220 0.227 -0.130
0.212 0.221 -0.126
0.194 0.216 -0.117
0.189 0.215 -0.115
0.185 0.213 -0.113
0.180 0.211 -0.111
0.174 0.207 -0.107
0.173 0.209 -0.108
0.174 0.213 -0.109
0.179 0.222 -0.112
0.186 0.234 -0.117
0.183 0.234 -0.116
0.203 -0.135 -0.104
0.213 -0.139 -0.109
0.208 -0.134 -0.106
0.208 -0.131 -0.106
0.209 -0.129 -0.106
0.222 -0.135 -0.112
0.309 -0.184 -0.156
0.310 -0.181 -0.156
0.313 -0.179 -0.157
0.316 -0.177 -0.158
0.321 -0.177 -0.161
0.323 -0.174 -0.161
0.320 -0.169 -0.159
0.319 -0.165 -0.158
0.321 -0.162 -0.159
0.323 -0.160 -0.160
0.325 -0.157 -0.160
0.328 -0.155 -0.161
0.331 -0.153 -0.163
0.333 -0.151 -0.163
0.335 -0.148 -0.164
1.351 -0.485 -0.653
1.345 -0.470 -0.649
1.337 -0.453 -0.644
1.332 -0.439 -0.641
1.325 -0.423 -0.637
1.314 -0.406 -0.631
1.307 -0.391 -0.627
1.309 -0.379 -0.627
1.316 -0.368 -0.630
1.325 -0.358 -0.633
1.327 -0.345 -0.633
0.294 -0.054 -0.139
0.294 -0.051 -0.139
0.294 -0.048 -0.139
0.289 -0.045 -0.137
0.293 -0.043 -0.139
0.302 -0.041 -0.143
0.299 -0.038 -0.142
0.295 -0.034 -0.139
0.297 -0.032 -0.140
0.300 -0.029 -0.142
0.310 -0.027 -0.146
0.310 -0.025 -0.146
0.312 -0.022 -0.147
0.310 -0.019 -0.146
0.311 -0.016 -0.147
0.308 -0.013 -0.145
0.298 -0.010 -0.141
0.309 -0.007 -0.146
0.316 -0.004 -0.149
0.322 -0.001 -0.152
0.326 0.002 -0.154
0.310 0.005 -0.146
0.300 0.007 -0.141
0.305 0.010 -0.144
0.315 0.037 -0.149
0.331 0.042 -0.157
0.298 0.052 -0.142
0.322 0.069 -0.154
0.320 0.084 -0.153
0.319 0.087 -0.153
0.319 0.090 -0.153
0.327 0.099 -0.158
0.317 0.099 -0.153
0.330 0.141 -0.162
0.235 0.210 -0.130
0.223 0.203 -0.124
0.223 0.206 -0.125
0.218 0.205 -0.123
0.222 0.212 -0.125
0.210 0.204 -0.119
0.206 0.204 -0.118
0.208 0.209 -0.119
0.211 0.216 -0.122
0.201 0.209 -0.116
0.190 0.204 -0.111
0.188 0.205 -0.110
0.190 0.211 -0.112
0.193 0.218 -0.115
0.189 0.218 -0.113
0.187 0.219 -0.113
0.185 0.222 -0.112
0.189 0.231 -0.116
0.192 0.238 -0.118
0.183 0.230 -0.113
0.182 0.232 -0.112
0.316 -0.222 -0.160
0.311 -0.214 -0.157
0.217 -0.144 -0.109
0.221 -0.144 -0.110
0.208 -0.133 -0.104
0.208 -0.131 -0.103
0.208 -0.129 -0.103
0.215 -0.130 -0.106
0.307 -0.183 -0.152
0.313 -0.182 -0.154
0.313 -0.179 -0.154
0.316 -0.177 -0.155
0.318 -0.174 -0.155
0.318 -0.171 -0.155
0.318 -0.167 -0.155
0.316 -0.163 -0.154
0.317 -0.160 -0.154
0.323 -0.160 -0.156
0.324 -0.157 -0.157
0.327 -0.154 -0.157
0.330 -0.152 -0.159
0.333 -0.150 -0.160
0.334 -0.147 -0.160
0.280 -0.117 -0.133
0.353 -0.134 -0.167
1.336 -0.479 -0.631
1.338 -0.466 -0.632
1.340 -0.454 -0.632
1.335 -0.438 -0.628
1.319 -0.420 -0.620
1.308 -0.404 -0.614
1.305 -0.390 -0.612
1.307 -0.378 -0.612
1.316 -0.368 -0.616
1.327 -0.358 -0.621
1.333 -0.346 -0.623
0.294 -0.054 -0.137
0.291 -0.050 -0.135
0.288 -0.047 -0.133
0.290 -0.045 -0.135
0.293 -0.042 -0.136
0.297 -0.040 -0.137
0.299 -0.038 -0.138
0.291 -0.034 -0.134
0.289 -0.031 -0.134
0.294 -0.029 -0.136
0.300 -0.027 -0.139
0.312 -0.025 -0.144
0.320 -0.022 -0.148
0.315 -0.019 -0.145
0.303 -0.015 -0.140
0.298 -0.012 -0.138
0.296 -0.010 -0.136
0.294 -0.007 -0.136
0.294 -0.004 -0.136
0.304 -0.001 -0.141
0.306 0.002 -0.141
0.296 0.004 -0.137
0.300 0.007 -0.138
0.293 0.012 -0.135
0.317 0.019 -0.147
0.341 0.040 -0.158
0.344 0.044 -0.159
0.307 0.054 -0.143
0.306 0.059 -0.142
0.300 0.064 -0.140
0.330 0.080 -0.155
0.314 0.082 -0.147
0.306 0.083 -0.144
0.308 0.087 -0.145
0.316 0.092 -0.149
0.303 0.098 -0.143
0.318 0.106 -0.150
0.223 0.182 -0.118
0.220 0.183 -0.117
0.222 0.187 -0.118
0.219 0.188 -0.117
0.220 0.192 -0.118
0.225 0.201 -0.122
0.223 0.202 -0.121
0.222 0.205 -0.122
0.222 0.208 -0.122
0.217 0.207 -0.120
0.209 0.203 -0.116
0.206 0.203 -0.115
0.206 0.206 -0.115
0.202 0.207 -0.114
0.198 0.206 -0.112
0.195 0.206 -0.111
0.193 0.207 -0.110
0.192 0.210 -0.111
0.195 0.220 -0.113
0.194 0.237 -0.116
0.193 0.239 -0.116
0.189 0.238 -0.114
0.183 0.233 -0.111
0.180 0.233 -0.109
0.324 -0.247 -0.163
0.318 -0.239 -0.160
0.322 -0.238 -0.161
0.325 -0.236 -0.162
0.319 -0.227 -0.158
0.318 -0.223 -0.158
0.316 -0.218 -0.156
0.228 -0.152 -0.112
0.220 -0.144 -0.108
0.209 -0.134 -0.102
0.208 -0.131 -0.101
0.208 -0.128 -0.101
0.211 -0.127 -0.102
0.309 -0.180 -0.149
0.312 -0.178 -0.150
0.313 -0.175 -0.150
0.313 -0.171 -0.149
0.316 -0.169 -0.151
0.316 -0.166 -0.151
0.313 -0.161 -0.149
0.313 -0.158 -0.148
0.318 -0.157 -0.150
0.324 -0.156 -0.153
0.325 -0.153 -0.153
0.328 -0.151 -0.154
0.331 -0.149 -0.155
0.333 -0.147 -0.156
0.357 -0.135 -0.166
0.362 -0.133 -0.167
0.368 -0.132 -0.170
1.329 -0.449 -0.613
1.334 -0.437 -0.614
1.321 -0.420 -0.607
1.310 -0.404 -0.602
1.315 -0.392 -0.603
1.310 -0.378 -0.600
1.303 -0.363 -0.597
1.313 -0.353 -0.600
1.327 -0.344 -0.606
0.286 -0.050 -0.130
0.286 -0.047 -0.130
0.294 -0.045 -0.133
0.294 -0.043 -0.133
0.296 -0.040 -0.134
0.291 -0.037 -0.131
0.286 -0.033 -0.129
0.288 -0.031 -0.130
0.295 -0.029 -0.133
0.300 -0.026 -0.135
0.305 -0.024 -0.138
0.317 -0.022 -0.143
0.302 -0.018 -0.137
0.296 -0.015 -0.134
0.291 -0.012 -0.132
0.291 -0.009 -0.131
0.284 -0.007 -0.128
0.287 -0.004 -0.130
0.291 -0.001 -0.131
0.296 0.001 -0.133
0.295 0.004 -0.133
0.292 0.007 -0.132
0.289 0.015 -0.131
0.291 0.018 -0.132
0.308 0.028 -0.140
0.312 0.057 -0.142
0.305 0.065 -0.139
0.305 0.068 -0.139
0.314 0.073 -0.144
0.306 0.080 -0.140
0.294 0.080 -0.135
0.319 0.096 -0.147
0.323 0.104 -0.149
0.308 0.108 -0.143
0.347 0.151 -0.164
0.257 0.188 -0.130
0.248 0.184 -0.126
0.232 0.186 -0.120
0.222 0.181 -0.115
0.222 0.184 -0.115
0.221 0.187 -0.115
0.220 0.189 -0.115
0.219 0.191 -0.115
0.219 0.195 -0.116
0.222 0.200 -0.118
0.219 0.202 -0.117
0.220 0.205 -0.118
0.219 0.209 -0.118
0.216 0.209 -0.117
0.212 0.209 -0.116
0.205 0.205 -0.112
0.198 0.201 -0.109
0.203 0.214 -0.113
0.205 0.227 -0.116
0.209 0.235 -0.119
0.199 0.227 -0.114
0.200 0.232 -0.115
0.192 0.238 -0.113
0.188 0.236 -0.111
0.181 0.230 -0.107
0.180 0.232 -0.107
0.319 -0.264 -0.159
0.324 -0.264 -0.162
0.326 -0.262 -0.162
0.325 -0.257 -0.161
0.334 -0.259 -0.165
0.325 -0.248 -0.160
0.325 -0.243 -0.159
0.324 -0.238 -0.158
0.323 -0.234 -0.157
0.323 -0.230 -0.157
0.321 -0.224 -0.155
0.309 -0.212 -0.149
0.218 -0.142 -0.104
0.210 -0.134 -0.100
0.210 -0.131 -0.100
0.209 -0.128 -0.099
0.210 -0.127 -0.099
0.310 -0.180 -0.146
0.309 -0.176 -0.145
0.309 -0.172 -0.145
0.311 -0.170 -0.145
0.312 -0.167 -0.145
0.311 -0.163 -0.145
0.311 -0.160 -0.144
0.313 -0.157 -0.145
0.317 -0.156 -0.147
0.321 -0.154 -0.148
0.325 -0.153 -0.149
0.327 -0.150 -0.150
0.329 -0.148 -0.151
0.331 -0.145 -0.151
0.314 -0.132 -0.143
0.311 -0.121 -0.141
0.355 -0.134 -0.161
0.363 -0.133 -0.164
0.370 -0.132 -0.167
0.371 -0.129 -0.168
1.319 -0.432 -0.594
1.327 -0.421 -0.597
1.323 -0.407 -0.594
1.318 -0.393 -0.591
1.314 -0.379 -0.589
1.302 -0.362 -0.582
1.305 -0.350 -0.583
1.314 -0.340 -0.587
0.304 -0.055 -0.135
0.293 -0.051 -0.130
0.293 -0.048 -0.130
0.298 -0.046 -0.132
0.302 -0.044 -0.134
0.298 -0.040 -0.132
0.286 -0.036 -0.127
0.277 -0.032 -0.123
0.284 -0.030 -0.125
0.296 -0.029 -0.131
0.298 -0.026 -0.132
0.302 -0.024 -0.133
0.310 -0.022 -0.137
0.314 -0.019 -0.138
0.301 -0.015 -0.133
0.294 -0.012 -0.130
0.292 -0.009 -0.129
0.295 -0.007 -0.130
0.296 -0.004 -0.131
0.300 -0.001 -0.132
0.301 0.002 -0.133
0.298 0.004 -0.132
0.302 0.007 -0.133
0.318 0.013 -0.141
0.306 0.022 -0.135
0.314 0.025 -0.139
0.338 0.040 -0.150
0.312 0.042 -0.138
0.299 0.064 -0.134
0.298 0.066 -0.133
0.306 0.071 -0.137
0.314 0.079 -0.141
0.300 0.078 -0.135
0.290 0.079 -0.130
0.292 0.082 -0.131
0.301 0.087 -0.135
0.326 0.105 -0.147
0.324 0.107 -0.146
0.302 0.103 -0.137
0.314 0.110 -0.143
0.268 0.182 -0.131
0.263 0.181 -0.128
0.259 0.182 -0.127
0.254 0.182 -0.125
0.246 0.179 -0.121
0.241 0.179 -0.119
0.244 0.184 -0.121
0.256 0.197 -0.128
0.231 0.184 -0.116
0.229 0.186 -0.116
0.225 0.186 -0.114
0.222 0.187 -0.113
0.220 0.188 -0.113
0.219 0.191 -0.113
0.215 0.190 -0.111
0.215 0.193 -0.111
0.214 0.196 -0.112
0.219 0.204 -0.115
0.224 0.213 -0.118
0.226 0.218 -0.119
0.224 0.220 -0.119
0.210 0.210 -0.112
0.199 0.202 -0.107
0.203 0.209 -0.110
0.217 0.235 -0.119
0.211 0.233 -0.116
0.212 0.238 -0.118
0.210 0.239 -0.117
0.197 0.228 -0.111
0.196 0.231 -0.111
0.204 0.244 -0.116
0.195 0.240 -0.112
0.180 0.225 -0.104
0.180 0.229 -0.104
0.184 0.236 -0.107
0.327 -0.289 -0.162
0.335 -0.291 -0.166
0.338 -0.289 -0.166
0.333 -0.280 -0.163
0.332 -0.275 -0.162
0.333 -0.271 -0.162
0.331 -0.265 -0.161
0.330 -0.260 -0.160
0.331 -0.256 -0.160
0.329 -0.250 -0.158
0.323 -0.241 -0.154
0.321 -0.236 -0.153
0.320 -0.231 -0.152
0.320 -0.227 -0.152
0.322 -0.225 -0.152
0.314 -0.215 -0.148
0.226 -0.147 -0.105
0.213 -0.136 -0.099
0.208 -0.130 -0.097
0.209 -0.128 -0.097
0.210 -0.127 -0.097
0.305 -0.176 -0.140
0.307 -0.174 -0.141
0.308 -0.172 -0.141
0.309 -0.169 -0.141
0.309 -0.165 -0.141
0.309 -0.162 -0.140
0.312 -0.160 -0.141
0.315 -0.158 -0.142
0.317 -0.156 -0.143
0.319 -0.153 -0.144
0.323 -0.152 -0.145
0.328 -0.150 -0.147
0.331 -0.149 -0.148
0.332 -0.146 -0.148
0.312 -0.124 -0.139
0.360 -0.136 -0.159
0.363 -0.133 -0.160
0.367 -0.131 -0.162
0.373 -0.129 -0.165
0.380 -0.128 -0.168
0.390 -0.127 -0.171
1.319 -0.418 -0.580
1.319 -0.405 -0.579
1.318 -0.392 -0.578
1.317 -0.379 -0.577
1.310 -0.364 -0.573
1.307 -0.350 -0.571
1.302 -0.337 -0.568
0.332 -0.064 -0.144
0.306 -0.056 -0.133
0.299 -0.052 -0.129
0.300 -0.049 -0.130
0.308 -0.047 -0.133
0.300 -0.043 -0.130
0.292 -0.039 -0.126
0.285 -0.036 -0.123
0.276 -0.032 -0.119
0.285 -0.030 -0.123
0.300 -0.029 -0.130
0.304 -0.027 -0.131
0.305 -0.024 -0.132
0.312 -0.022 -0.135
0.314 -0.019 -0.135
0.302 -0.015 -0.130
0.304 -0.013 -0.131
0.306 -0.010 -0.132
0.303 -0.007 -0.130
0.297 -0.004 -0.128
0.297 -0.001 -0.128
0.302 0.002 -0.130
0.302 0.004 -0.130
0.301 0.007 -0.130
0.300 0.010 -0.129
0.310 0.013 -0.134
0.312 0.022 -0.135
0.316 0.025 -0.136
0.305 0.030 -0.132
0.326 0.041 -0.141
0.318 0.043 -0.138
0.297 0.043 -0.129
0.327 0.054 -0.142
0.331 0.061 -0.144
0.315 0.064 -0.137
0.310 0.066 -0.135
0.302 0.067 -0.132
0.309 0.072 -0.135
0.320 0.077 -0.140
0.306 0.077 -0.134
0.306 0.080 -0.134
0.307 0.083 -0.135
0.305 0.085 -0.134
0.302 0.088 -0.133
0.296 0.089 -0.130
0.320 0.102 -0.141
0.319 0.105 -0.141
0.327 0.115 -0.145
0.311 0.112 -0.138
0.280 0.178 -0.132
0.274 0.178 -0.129
0.265 0.176 -0.126
0.258 0.174 -0.123
0.256 0.176 -0.122
0.257 0.180 -0.123
0.250 0.178 -0.120
0.247 0.179 -0.119
0.244 0.181 -0.118
0.249 0.188 -0.121
0.255 0.196 -0.124
0.246 0.195 -0.121
0.239 0.194 -0.118
0.230 0.189 -0.114
0.223 0.187 -0.111
0.220 0.187 -0.110
0.219 0.190 -0.110
0.219 0.193 -0.110
0.217 0.195 -0.110
0.214 0.196 -0.109
0.222 0.206 -0.113
0.226 0.214 -0.116
0.229 0.220 -0.118
0.229 0.224 -0.119
0.220 0.219 -0.115
0.207 0.209 -0.109
0.206 0.212 -0.109
0.213 0.223 -0.113
0.218 0.233 -0.117
0.216 0.237 -0.116
0.213 0.238 -0.115
0.205 0.237 -0.112
0.200 0.234 -0.110
0.205 0.249 -0.114
0.198 0.243 -0.111
0.193 0.248 -0.109
0.322 -0.303 -0.159
0.325 -0.301 -0.160
0.326 -0.297 -0.160
0.329 -0.295 -0.160
0.332 -0.292 -0.161
0.334 -0.290 -0.161
0.337 -0.287 -0.162
0.336 -0.282 -0.161
0.333 -0.275 -0.159
0.334 -0.271 -0.159
0.326 -0.260 -0.154
0.326 -0.256 -0.154
0.325 -0.251 -0.153
0.323 -0.245 -0.151
0.322 -0.240 -0.150
0.318 -0.233 -0.148
0.317 -0.228 -0.147
0.318 -0.225 -0.147
0.317 -0.220 -0.146
0.315 -0.215 -0.145
0.307 -0.206 -0.141
0.218 -0.138 -0.099
0.208 -0.130 -0.094
0.210 -0.128 -0.095
0.210 -0.126 -0.095
0.300 -0.173 -0.135
0.304 -0.172 -0.136
0.307 -0.171 -0.137
0.308 -0.167 -0.137
0.307 -0.164 -0.137
0.308 -0.161 -0.137
0.311 -0.159 -0.138
0.316 -0.158 -0.139
0.317 -0.155 -0.140
0.318 -0.152 -0.140
0.321 -0.151 -0.141
0.327 -0.150 -0.143
0.331 -0.148 -0.145
0.331 -0.145 -0.145
0.309 -0.119 -0.134
0.362 -0.136 -0.156
0.363 -0.133 -0.157
0.368 -0.131 -0.159
0.373 -0.129 -0.161
0.381 -0.128 -0.164
0.388 -0.127 -0.167
0.395 -0.125 -0.169
1.314 -0.403 -0.563
1.313 -0.377 -0.561
1.317 -0.365 -0.563
1.313 -0.352 -0.560
1.304 -0.336 -0.556
0.344 -0.069 -0.146
0.330 -0.063 -0.140
0.313 -0.057 -0.132
0.300 -0.052 -0.127
0.306 -0.050 -0.130
0.307 -0.047 -0.130
0.295 -0.043 -0.125
0.289 -0.039 -0.122
0.286 -0.036 -0.121
0.286 -0.033 -0.121
0.291 -0.031 -0.123
0.300 -0.029 -0.126
0.306 -0.027 -0.129
0.309 -0.024 -0.130
0.308 -0.021 -0.130
0.301 -0.018 -0.127
0.304 -0.015 -0.128
0.311 -0.013 -0.131
0.311 -0.010 -0.131
0.300 -0.007 -0.127
0.292 -0.004 -0.123
0.293 -0.001 -0.124
0.299 0.001 -0.126
0.309 0.004 -0.130
0.302 0.007 -0.127
0.297 0.010 -0.125
0.296 0.012 -0.125
0.305 0.019 -0.129
0.321 0.022 -0.135
0.327 0.041 -0.138
0.338 0.046 -0.143
0.341 0.049 -0.144
0.309 0.048 -0.131
0.331 0.061 -0.141
0.304 0.067 -0.130
0.308 0.071 -0.131
0.313 0.075 -0.134
0.310 0.078 -0.133
0.308 0.080 -0.132
0.311 0.084 -0.133
0.307 0.086 -0.132
0.299 0.087 -0.129
0.303 0.091 -0.130
0.316 0.098 -0.136
0.324 0.104 -0.140
0.337 0.114 -0.146
0.333 0.116 -0.144
0.305 0.110 -0.133
0.313 0.116 -0.136
0.292 0.165 -0.132
0.280 0.161 -0.127
0.279 0.164 -0.127
0.278 0.167 -0.126
0.279 0.171 -0.128
0.277 0.173 -0.127
0.270 0.172 -0.124
0.267 0.173 -0.123
0.265 0.175 -0.123
0.260 0.175 -0.121
0.259 0.178 -0.120
0.257 0.180 -0.120
0.253 0.180 -0.118
0.251 0.182 -0.118
0.246 0.182 -0.116
0.270 0.203 -0.128
0.279 0.214 -0.133
0.273 0.213 -0.130
0.253 0.201 -0.121
0.246 0.199 -0.118
0.243 0.199 -0.117
0.224 0.188 -0.109
0.222 0.189 -0.108
0.221 0.191 -0.108
0.222 0.196 -0.109
0.222 0.199 -0.110
0.225 0.206 -0.112
0.225 0.209 -0.112
0.226 0.213 -0.113
0.225 0.216 -0.114
0.229 0.223 -0.116
0.226 0.224 -0.115
0.219 0.221 -0.112
0.204 0.210 -0.105
0.215 0.240 -0.114
0.206 0.234 -0.110
0.205 0.236 -0.110
0.327 -0.327 -0.160
0.330 -0.324 -0.161
0.325 -0.315 -0.158
0.327 -0.311 -0.158
0.330 -0.309 -0.159
0.331 -0.306 -0.159
0.332 -0.301 -0.158
0.330 -0.295 -0.157
0.329 -0.289 -0.156
0.331 -0.286 -0.156
0.332 -0.283 -0.156
0.329 -0.275 -0.154
0.328 -0.271 -0.153
0.328 -0.265 -0.152
0.323 -0.257 -0.149
0.321 -0.251 -0.148
0.322 -0.248 -0.148
0.322 -0.244 -0.147
0.319 -0.238 -0.146
0.317 -0.232 -0.144
0.317 -0.228 -0.143
0.316 -0.224 -0.143
0.314 -0.218 -0.142
0.313 -0.214 -0.140
0.313 -0.210 -0.140
0.220 -0.140 -0.098
0.208 -0.129 -0.092
0.210 -0.128 -0.093
0.212 -0.127 -0.093
0.296 -0.171 -0.130
0.302 -0.171 -0.132
0.304 -0.169 -0.133
0.306 -0.166 -0.133
0.306 -0.163 -0.133
0.307 -0.160 -0.133
0.309 -0.158 -0.134
0.315 -0.157 -0.136
0.317 -0.155 -0.136
0.318 -0.152 -0.137
0.320 -0.150 -0.137
0.325 -0.148 -0.139
0.329 -0.147 -0.141
0.330 -0.144 -0.141
0.359 -0.135 -0.151
0.363 -0.133 -0.153
0.368 -0.131 -0.155
0.374 -0.129 -0.157
0.380 -0.127 -0.159
0.388 -0.126 -0.163
0.394 -0.125 -0.165
0.400 -0.122 -0.167
1.308 -0.388 -0.547
1.310 -0.375 -0.547
1.320 -0.366 -0.550
1.324 -0.354 -0.552
1.305 -0.336 -0.543
0.301 -0.055 -0.125
0.298 -0.051 -0.123
0.302 -0.049 -0.125
0.296 -0.045 -0.122
0.283 -0.041 -0.117
0.284 -0.038 -0.117
0.289 -0.036 -0.119
0.290 -0.034 -0.120
0.294 -0.031 -0.121
0.301 -0.029 -0.124
0.307 -0.027 -0.126
0.310 -0.024 -0.128
0.307 -0.021 -0.126
0.304 -0.018 -0.125
0.303 -0.015 -0.125
0.310 -0.013 -0.128
0.305 -0.010 -0.126
0.297 -0.007 -0.122
0.288 -0.004 -0.118
0.287 -0.001 -0.118
0.293 0.001 -0.121
0.307 0.004 -0.126
0.308 0.007 -0.127
0.304 0.010 -0.125
0.303 0.013 -0.125
0.298 0.015 -0.123
0.309 0.019 -0.127
0.295 0.021 -0.121
0.316 0.025 -0.130
0.313 0.028 -0.129
0.316 0.031 -0.130
0.303 0.033 -0.125
0.329 0.060 -0.137
0.336 0.065 -0.140
0.315 0.064 -0.131
0.302 0.064 -0.126
0.310 0.068 -0.129
0.318 0.073 -0.133
0.304 0.073 -0.127
0.317 0.079 -0.132
0.302 0.078 -0.126
0.300 0.081 -0.126
0.299 0.084 -0.125
0.308 0.089 -0.129
0.312 0.093 -0.131
0.326 0.101 -0.137
0.334 0.106 -0.141
0.338 0.111 -0.142
0.331 0.112 -0.140
0.324 0.113 -0.137
0.329 0.122 -0.140
0.345 0.149 -0.148
0.300 0.152 -0.130
0.286 0.148 -0.125
0.286 0.152 -0.125
0.282 0.153 -0.124
0.287 0.159 -0.126
0.285 0.161 -0.125
0.279 0.160 -0.123
0.275 0.161 -0.122
0.275 0.165 -0.122
0.273 0.167 -0.122
0.267 0.166 -0.119
0.271 0.172 -0.121
0.273 0.177 -0.123
0.271 0.179 -0.122
0.266 0.178 -0.120
0.264 0.180 -0.120
0.260 0.181 -0.118
0.259 0.184 -0.118
0.254 0.184 -0.117
0.252 0.186 -0.116
0.264 0.198 -0.122
0.275 0.210 -0.128
0.280 0.218 -0.131
0.256 0.206 -0.120
0.252 0.207 -0.119
0.244 0.204 -0.116
0.227 0.192 -0.108
0.225 0.195 -0.108
0.227 0.199 -0.109
0.235 0.210 -0.113
0.239 0.217 -0.116
0.231 0.214 -0.113
0.226 0.213 -0.111
0.226 0.216 -0.111
0.228 0.222 -0.113
0.230 0.228 -0.114
0.227 0.229 -0.114
0.213 0.218 -0.107
0.323 -0.358 -0.159
0.323 -0.353 -0.159
0.327 -0.352 -0.160
0.329 -0.349 -0.160
0.336 -0.351 -0.163
0.335 -0.345 -0.162
0.330 -0.334 -0.158
0.337 -0.336 -0.161
0.336 -0.330 -0.160
0.328 -0.317 -0.155
0.327 -0.311 -0.154
0.329 -0.308 -0.154
0.332 -0.306 -0.155
0.331 -0.300 -0.154
0.330 -0.294 -0.153
0.326 -0.286 -0.151
0.328 -0.283 -0.150
0.327 -0.278 -0.150
0.323 -0.270 -0.147
0.325 -0.267 -0.148
0.326 -0.263 -0.147
0.323 -0.257 -0.145
0.321 -0.251 -0.144
0.322 -0.248 -0.144
0.321 -0.243 -0.143
0.317 -0.236 -0.141
0.317 -0.232 -0.141
0.317 -0.227 -0.140
0.313 -0.221 -0.138
0.313 -0.217 -0.137
0.310 -0.211 -0.136
0.304 -0.203 -0.133
0.210 -0.130 -0.090
0.206 -0.126 -0.089
0.206 -0.124 -0.089
0.217 -0.127 -0.093
0.290 -0.167 -0.124
0.297 -0.168 -0.126
0.303 -0.167 -0.129
0.304 -0.165 -0.129
0.305 -0.162 -0.129
0.306 -0.159 -0.129
0.308 -0.157 -0.130
0.312 -0.156 -0.131
0.317 -0.155 -0.133
0.320 -0.153 -0.134
0.322 -0.151 -0.135
0.325 -0.149 -0.136
0.331 -0.148 -0.138
0.330 -0.144 -0.137
0.306 -0.127 -0.127
0.359 -0.135 -0.148
0.362 -0.132 -0.149
0.368 -0.131 -0.151
0.373 -0.129 -0.153
0.379 -0.127 -0.155
0.387 -0.126 -0.158
0.394 -0.124 -0.161
0.392 -0.120 -0.160
0.394 -0.116 -0.161
1.296 -0.371 -0.528
1.313 -0.363 -0.534
1.334 -0.356 -0.542
1.328 -0.342 -0.539
0.289 -0.052 -0.117
0.297 -0.051 -0.120
0.295 -0.048 -0.119
0.280 -0.043 -0.113
0.278 -0.040 -0.112
0.285 -0.038 -0.115
0.294 -0.037 -0.118
0.292 -0.034 -0.117
0.291 -0.031 -0.117
0.295 -0.029 -0.118
0.301 -0.026 -0.121
0.305 -0.024 -0.122
0.305 -0.021 -0.123
0.303 -0.018 -0.122
0.301 -0.015 -0.121
0.307 -0.013 -0.123
0.305 -0.010 -0.122
0.302 -0.007 -0.121
0.295 -0.004 -0.118
0.291 -0.001 -0.117
0.285 0.001 -0.115
0.294 0.004 -0.118
0.307 0.007 -0.123
0.322 0.011 -0.129
0.323 0.014 -0.130
0.316 0.016 -0.127
0.306 0.019 -0.123
0.307 0.021 -0.123
0.302 0.024 -0.122
0.317 0.028 -0.127
0.309 0.033 -0.125
0.302 0.035 -0.122
0.317 0.040 -0.128
0.337 0.049 -0.136
0.297 0.049 -0.120
0.326 0.063 -0.132
0.326 0.066 -0.132
0.312 0.066 -0.127
0.321 0.071 -0.130
0.316 0.073 -0.129
0.320 0.077 -0.130
0.307 0.077 -0.125
0.293 0.076 -0.120
0.282 0.076 -0.115
0.293 0.082 -0.120
0.303 0.088 -0.124
0.318 0.095 -0.130
0.321 0.099 -0.132
0.322 0.112 -0.133
0.329 0.118 -0.136
0.329 0.121 -0.136
0.331 0.143 -0.138
0.324 0.143 -0.136
0.315 0.143 -0.132
0.306 0.142 -0.129
0.318 0.151 -0.134
0.308 0.149 -0.130
0.310 0.154 -0.131
0.296 0.150 -0.126
0.294 0.152 -0.125
0.295 0.156 -0.126
0.293 0.158 -0.125
0.290 0.160 -0.124
0.286 0.161 -0.123
0.280 0.161 -0.121
0.280 0.164 -0.121
0.279 0.167 -0.121
0.275 0.168 -0.119
0.274 0.170 -0.119
0.281 0.178 -0.123
0.277 0.179 -0.122
0.274 0.180 -0.121
0.273 0.183 -0.120
0.265 0.181 -0.117
0.266 0.185 -0.118
0.261 0.185 -0.117
0.257 0.185 -0.115
0.257 0.189 -0.115
0.271 0.203 -0.122
0.254 0.212 -0.117
0.235 0.203 -0.110
0.238 0.209 -0.112
0.244 0.218 -0.115
0.250 0.227 -0.118
0.234 0.224 -0.112
0.328 -0.391 -0.161
0.341 -0.401 -0.167
0.339 -0.393 -0.165
0.336 -0.383 -0.163
0.326 -0.367 -0.157
0.327 -0.362 -0.157
0.329 -0.358 -0.157
0.333 -0.358 -0.159
0.334 -0.353 -0.158
0.335 -0.349 -0.158
0.333 -0.342 -0.157
0.335 -0.339 -0.157
0.335 -0.333 -0.156
0.336 -0.329 -0.156
0.325 -0.313 -0.150
0.324 -0.308 -0.149
0.328 -0.306 -0.150
0.329 -0.302 -0.150
0.329 -0.298 -0.149
0.324 -0.288 -0.146
0.327 -0.286 -0.147
0.323 -0.278 -0.144
0.323 -0.274 -0.144
0.321 -0.268 -0.143
0.323 -0.265 -0.143
0.324 -0.262 -0.143
0.323 -0.257 -0.142
0.320 -0.250 -0.140
0.320 -0.245 -0.140
0.319 -0.240 -0.139
0.317 -0.235 -0.138
0.316 -0.230 -0.137
0.312 -0.224 -0.134
0.312 -0.220 -0.134
0.309 -0.214 -0.132
0.303 -0.206 -0.129
0.302 -0.202 -0.128
0.212 -0.132 -0.089
0.206 -0.126 -0.087
0.208 -0.124 -0.087
0.209 -0.123 -0.087
0.260 -0.141 -0.108
0.300 -0.159 -0.124
0.305 -0.159 -0.126
0.308 -0.157 -0.126
0.312 -0.155 -0.128
0.315 -0.154 -0.129
0.320 -0.153 -0.131
0.325 -0.151 -0.132
0.329 -0.150 -0.134
0.329 -0.147 -0.134
0.331 -0.144 -0.134
0.310 -0.129 -0.125
0.356 -0.133 -0.143
0.362 -0.132 -0.145
0.368 -0.130 -0.147
0.373 -0.128 -0.149
0.377 -0.126 -0.151
0.379 -0.123 -0.151
0.383 -0.121 -0.153
0.387 -0.118 -0.154
0.387 -0.114 -0.154
0.386 -0.110 -0.154
1.293 -0.344 -0.513
0.367 -0.077 -0.145
0.362 -0.072 -0.143
0.346 -0.066 -0.136
0.297 -0.054 -0.117
0.298 -0.051 -0.117
0.292 -0.047 -0.115
0.281 -0.043 -0.110
0.279 -0.040 -0.110
0.288 -0.039 -0.113
0.294 -0.037 -0.115
0.294 -0.034 -0.115
0.288 -0.031 -0.113
0.296 -0.029 -0.116
0.301 -0.026 -0.118
0.304 -0.024 -0.119
0.302 -0.021 -0.118
0.299 -0.018 -0.117
0.296 -0.015 -0.116
0.300 -0.012 -0.117
0.303 -0.010 -0.119
0.307 -0.007 -0.120
0.309 -0.004 -0.121
0.295 -0.001 -0.116
0.282 0.001 -0.110
0.318 0.007 -0.125
0.317 0.010 -0.124
0.319 0.016 -0.125
0.309 0.019 -0.121
0.319 0.022 -0.125
0.308 0.024 -0.121
0.304 0.030 -0.119
0.303 0.032 -0.119
0.303 0.035 -0.119
0.322 0.043 -0.127
0.317 0.049 -0.125
0.311 0.057 -0.123
0.335 0.064 -0.132
0.311 0.066 -0.123
0.319 0.070 -0.126
0.315 0.072 -0.125
0.312 0.075 -0.124
0.314 0.078 -0.125
0.293 0.076 -0.116
0.290 0.078 -0.116
0.296 0.082 -0.118
0.318 0.092 -0.127
0.298 0.095 -0.119
0.302 0.099 -0.121
0.310 0.105 -0.124
0.321 0.112 -0.129
0.323 0.116 -0.130
0.327 0.120 -0.132
0.327 0.124 -0.132
0.327 0.127 -0.133
0.328 0.131 -0.133
0.324 0.133 -0.132
0.323 0.135 -0.131
0.325 0.140 -0.133
0.318 0.140 -0.130
0.305 0.138 -0.125
0.302 0.140 -0.124
0.300 0.142 -0.123
0.302 0.146 -0.124
0.294 0.145 -0.121
0.293 0.148 -0.121
0.302 0.156 -0.125
0.294 0.155 -0.122
0.299 0.161 -0.125
0.294 0.162 -0.123
0.288 0.162 -0.121
0.292 0.167 -0.123
0.287 0.168 -0.121
0.283 0.169 -0.120
0.281 0.171 -0.119
0.286 0.177 -0.122
0.283 0.179 -0.121
0.295 0.190 -0.126
0.286 0.188 -0.123
0.283 0.189 -0.122
0.278 0.190 -0.120
0.277 0.193 -0.120
0.337 -0.406 -0.162
0.338 -0.402 -0.162
0.334 -0.391 -0.159
0.336 -0.388 -0.159
0.333 -0.380 -0.158
0.329 -0.369 -0.155
0.328 -0.363 -0.154
0.331 -0.360 -0.154
0.335 -0.360 -0.156
0.335 -0.354 -0.155
0.333 -0.347 -0.153
0.331 -0.339 -0.152
0.326 -0.329 -0.149
0.327 -0.325 -0.148
0.327 -0.320 -0.148
0.325 -0.312 -0.146
0.323 -0.306 -0.145
0.325 -0.303 -0.145
0.329 -0.302 -0.146
0.323 -0.291 -0.143
0.324 -0.287 -0.142
0.320 -0.280 -0.140
0.320 -0.275 -0.140
0.318 -0.269 -0.138
0.322 -0.268 -0.139
0.319 -0.262 -0.138
0.322 -0.260 -0.139
0.312 -0.247 -0.133
0.318 -0.248 -0.136
0.317 -0.243 -0.135
0.316 -0.238 -0.134
0.316 -0.234 -0.134
0.314 -0.229 -0.132
0.312 -0.223 -0.131
0.308 -0.217 -0.129
0.304 -0.210 -0.127
0.303 -0.205 -0.126
0.297 -0.198 -0.123
0.293 -0.192 -0.121
0.219 -0.135 -0.090
0.207 -0.126 -0.085
0.208 -0.124 -0.085
0.210 -0.123 -0.085
0.218 -0.125 -0.089
0.243 -0.134 -0.098
0.247 -0.134 -0.100
0.254 -0.135 -0.102
0.303 -0.157 -0.122
0.308 -0.156 -0.123
0.312 -0.155 -0.125
0.315 -0.153 -0.126
0.317 -0.151 -0.126
0.322 -0.150 -0.128
0.325 -0.148 -0.129
0.328 -0.146 -0.130
0.332 -0.144 -0.131
0.316 -0.131 -0.125
0.354 -0.132 -0.139
0.361 -0.131 -0.141
0.366 -0.130 -0.143
0.372 -0.128 -0.145
0.376 -0.125 -0.146
0.377 -0.122 -0.147
0.382 -0.120 -0.148
0.388 -0.118 -0.150
0.386 -0.114 -0.150
0.392 -0.112 -0.152
1.281 -0.341 -0.495
0.363 -0.076 -0.140
0.374 -0.075 -0.144
0.289 -0.052 -0.111
0.292 -0.050 -0.112
0.301 -0.049 -0.115
0.287 -0.044 -0.110
0.281 -0.040 -0.108
0.287 -0.038 -0.110
0.293 -0.037 -0.112
0.295 -0.034 -0.113
0.298 -0.032 -0.114
0.299 -0.029 -0.114
0.303 -0.026 -0.116
0.294 -0.023 -0.112
0.290 -0.020 -0.111
0.297 -0.018 -0.113
0.295 -0.015 -0.113
0.289 -0.012 -0.110
0.296 -0.010 -0.113
0.313 -0.007 -0.119
0.319 -0.004 -0.122
0.308 -0.001 -0.117
0.286 0.001 -0.109
0.297 0.004 -0.113
0.300 0.010 -0.115
0.306 0.013 -0.117
0.310 0.016 -0.118
0.305 0.027 -0.117
0.300 0.029 -0.115
0.308 0.033 -0.118
0.310 0.036 -0.119
0.314 0.039 -0.121
0.312 0.042 -0.120
0.315 0.045 -0.121
0.311 0.048 -0.119
0.310 0.051 -0.119
0.312 0.054 -0.120
0.312 0.057 -0.120
0.316 0.061 -0.122
0.331 0.067 -0.128
0.338 0.071 -0.130
0.311 0.068 -0.120
0.309 0.071 -0.120
0.309 0.074 -0.120
0.311 0.077 -0.121
0.299 0.077 -0.116
0.295 0.079 -0.115
0.305 0.085 -0.118
0.311 0.089 -0.121
0.320 0.095 -0.125
0.290 0.089 -0.113
0.298 0.095 -0.116
0.308 0.101 -0.120
0.318 0.107 -0.124
0.322 0.112 -0.126
0.329 0.118 -0.129
0.320 0.118 -0.126
0.319 0.120 -0.126
0.320 0.124 -0.127
0.325 0.129 -0.128
0.322 0.132 -0.128
0.323 0.135 -0.128
0.320 0.137 -0.127
0.320 0.141 -0.128
0.316 0.142 -0.126
0.305 0.141 -0.122
0.303 0.143 -0.122
0.302 0.146 -0.121
0.298 0.147 -0.120
0.298 0.150 -0.120
0.294 0.151 -0.119
0.302 0.159 -0.122
0.305 0.164 -0.124
0.309 0.169 -0.126
0.304 0.174 -0.125
0.297 0.177 -0.122
0.310 -0.415 -0.150
0.320 -0.407 -0.153
0.324 -0.407 -0.154
0.345 -0.427 -0.163
0.346 -0.423 -0.163
0.339 -0.408 -0.159
0.334 -0.397 -0.156
0.334 -0.391 -0.155
0.335 -0.386 -0.155
0.334 -0.379 -0.154
0.333 -0.373 -0.153
0.331 -0.365 -0.151
0.331 -0.360 -0.150
0.332 -0.355 -0.150
0.334 -0.352 -0.150
0.328 -0.341 -0.147
0.322 -0.329 -0.143
0.317 -0.319 -0.141
0.319 -0.316 -0.141
0.322 -0.314 -0.142
0.323 -0.310 -0.141
0.322 -0.305 -0.140
0.323 -0.300 -0.140
0.320 -0.293 -0.138
0.320 -0.288 -0.138
0.320 -0.284 -0.137
0.320 -0.279 -0.136
0.317 -0.272 -0.135
0.318 -0.269 -0.135
0.315 -0.261 -0.133
0.319 -0.260 -0.134
0.315 -0.253 -0.132
0.316 -0.250 -0.132
0.312 -0.243 -0.130
0.314 -0.240 -0.130
0.313 -0.235 -0.129
0.311 -0.230 -0.128
0.307 -0.223 -0.126
0.306 -0.219 -0.125
0.307 -0.215 -0.125
0.305 -0.210 -0.124
0.301 -0.204 -0.122
0.299 -0.199 -0.121
0.293 -0.191 -0.118
0.232 -0.146 -0.093
0.222 -0.137 -0.089
0.208 -0.126 -0.083
0.208 -0.124 -0.083
0.208 -0.121 -0.082
0.217 -0.124 -0.086
0.252 -0.142 -0.100
0.243 -0.134 -0.096
0.243 -0.131 -0.096
0.252 -0.133 -0.099
0.307 -0.156 -0.120
0.310 -0.154 -0.121
0.315 -0.153 -0.123
0.318 -0.151 -0.123
0.320 -0.149 -0.124
0.324 -0.147 -0.125
0.327 -0.145 -0.126
0.337 -0.146 -0.130
0.329 -0.136 -0.126
0.319 -0.122 -0.122
0.353 -0.132 -0.135
0.360 -0.131 -0.137
0.365 -0.129 -0.139
0.367 -0.126 -0.139
0.372 -0.124 -0.141
0.380 -0.123 -0.144
0.387 -0.122 -0.147
0.390 -0.119 -0.148
0.398 -0.117 -0.150
0.402 -0.115 -0.152
0.366 -0.076 -0.137
0.376 -0.075 -0.141
0.370 -0.070 -0.138
0.277 -0.050 -0.104
0.289 -0.049 -0.108
0.297 -0.048 -0.111
0.293 -0.045 -0.109
0.287 -0.041 -0.107
0.284 -0.038 -0.106
0.289 -0.036 -0.108
0.300 -0.035 -0.112
0.300 -0.032 -0.112
0.302 -0.029 -0.113
0.293 -0.026 -0.109
0.288 -0.022 -0.107
0.286 -0.020 -0.107
0.290 -0.017 -0.108
0.297 -0.015 -0.111
0.283 -0.012 -0.105
0.328 -0.007 -0.122
0.329 -0.004 -0.122
0.314 -0.001 -0.117
0.300 0.001 -0.112
0.294 0.004 -0.109
0.296 0.007 -0.110
0.315 0.010 -0.117
0.302 0.013 -0.112
0.306 0.016 -0.114
0.304 0.018 -0.113
0.313 0.022 -0.117
0.312 0.025 -0.116
0.304 0.027 -0.113
0.292 0.028 -0.109
0.303 0.032 -0.113
0.311 0.036 -0.116
0.314 0.039 -0.117
0.309 0.042 -0.115
0.308 0.044 -0.115
0.302 0.046 -0.113
0.310 0.050 -0.116
0.309 0.053 -0.116
0.310 0.056 -0.116
0.310 0.059 -0.116
0.331 0.066 -0.124
0.332 0.070 -0.125
0.308 0.071 -0.116
0.317 0.076 -0.119
0.313 0.078 -0.118
0.306 0.079 -0.115
0.304 0.081 -0.115
0.308 0.085 -0.117
0.304 0.087 -0.115
0.296 0.088 -0.112
0.307 0.094 -0.117
0.309 0.098 -0.118
0.349 0.114 -0.133
0.346 0.116 -0.132
0.328 0.114 -0.126
0.326 0.116 -0.125
0.310 0.114 -0.119
0.312 0.117 -0.120
0.315 0.122 -0.121
0.319 0.127 -0.123
0.328 0.134 -0.127
0.321 0.134 -0.124
0.321 0.137 -0.124
0.319 0.140 -0.124
0.316 0.142 -0.123
0.315 0.145 -0.123
0.313 0.147 -0.122
0.303 0.146 -0.118
0.302 0.149 -0.118
0.299 0.151 -0.118
0.306 0.157 -0.120
0.314 0.165 -0.124
0.313 0.168 -0.124
0.321 0.176 -0.127
0.324 0.181 -0.129
0.316 -0.423 -0.149
0.325 -0.430 -0.153
0.335 -0.438 -0.157
0.332 -0.428 -0.155
0.328 -0.417 -0.152
0.340 -0.427 -0.157
0.346 -0.429 -0.159
0.345 -0.420 -0.158
0.333 -0.401 -0.152
0.333 -0.395 -0.151
0.336 -0.393 -0.152
0.336 -0.387 -0.151
0.335 -0.380 -0.150
0.330 -0.369 -0.147
0.331 -0.364 -0.147
0.329 -0.357 -0.145
0.326 -0.348 -0.143
0.324 -0.341 -0.142
0.323 -0.334 -0.141
0.322 -0.329 -0.140
0.319 -0.321 -0.138
0.317 -0.313 -0.136
0.319 -0.311 -0.137
0.321 -0.308 -0.137
0.322 -0.304 -0.136
0.320 -0.297 -0.135
0.318 -0.291 -0.134
0.319 -0.287 -0.133
0.320 -0.283 -0.133
0.317 -0.276 -0.132
0.316 -0.271 -0.131
0.315 -0.265 -0.130
0.316 -0.262 -0.130
0.312 -0.254 -0.128
0.314 -0.252 -0.128
0.313 -0.247 -0.127
0.314 -0.244 -0.127
0.311 -0.238 -0.126
0.310 -0.233 -0.125
0.308 -0.227 -0.124
0.305 -0.221 -0.122
0.304 -0.216 -0.121
0.305 -0.213 -0.121
0.303 -0.209 -0.120
0.299 -0.202 -0.118
0.298 -0.198 -0.117
0.296 -0.193 -0.116
0.222 -0.137 -0.086
0.209 -0.127 -0.081
0.208 -0.124 -0.080
0.208 -0.121 -0.080
0.214 -0.123 -0.083
0.248 -0.139 -0.095
0.244 -0.134 -0.093
0.243 -0.131 -0.093
0.244 -0.129 -0.093
0.257 -0.133 -0.098
0.303 -0.153 -0.115
0.308 -0.153 -0.117
0.315 -0.153 -0.119
0.318 -0.151 -0.120
0.321 -0.149 -0.121
0.324 -0.147 -0.122
0.326 -0.145 -0.122
0.334 -0.145 -0.125
0.322 -0.133 -0.121
0.313 -0.120 -0.116
0.353 -0.132 -0.131
0.362 -0.131 -0.134
0.363 -0.128 -0.135
0.365 -0.125 -0.135
0.371 -0.123 -0.137
0.378 -0.122 -0.140
0.387 -0.121 -0.143
0.398 -0.121 -0.147
0.408 -0.120 -0.150
0.418 -0.119 -0.153
0.428 -0.118 -0.157
0.444 -0.118 -0.163
0.349 -0.073 -0.127
0.370 -0.074 -0.135
0.370 -0.070 -0.135
0.271 -0.049 -0.099
0.285 -0.049 -0.104
0.295 -0.048 -0.107
0.296 -0.045 -0.108
0.290 -0.041 -0.106
0.291 -0.039 -0.106
0.295 -0.037 -0.107
0.301 -0.035 -0.109
0.302 -0.032 -0.110
0.297 -0.029 -0.108
0.293 -0.026 -0.106
0.294 -0.023 -0.107
0.290 -0.020 -0.105
0.288 -0.017 -0.104
0.290 -0.015 -0.105
0.331 -0.011 -0.120
0.340 -0.008 -0.123
0.327 -0.004 -0.119
0.311 -0.001 -0.112
0.299 0.001 -0.108
0.295 0.004 -0.107
0.303 0.007 -0.110
0.305 0.010 -0.111
0.314 0.013 -0.114
0.311 0.016 -0.113
0.316 0.019 -0.115
0.324 0.022 -0.118
0.317 0.025 -0.115
0.307 0.027 -0.111
0.299 0.029 -0.109
0.301 0.032 -0.109
0.311 0.036 -0.113
0.316 0.040 -0.115
0.310 0.042 -0.113
0.307 0.044 -0.112
0.315 0.048 -0.115
0.305 0.050 -0.111
0.307 0.053 -0.112
0.308 0.056 -0.112
0.308 0.059 -0.113
0.307 0.062 -0.112
0.327 0.069 -0.120
0.326 0.072 -0.120
0.333 0.076 -0.122
0.330 0.079 -0.121
0.320 0.079 -0.118
0.306 0.079 -0.113
0.304 0.081 -0.112
0.306 0.085 -0.113
0.297 0.085 -0.110
0.301 0.089 -0.111
0.312 0.096 -0.116
0.338 0.107 -0.125
0.351 0.115 -0.130
0.336 0.113 -0.125
0.330 0.114 -0.123
0.306 0.109 -0.114
0.310 0.114 -0.116
0.316 0.119 -0.118
0.324 0.125 -0.121
0.326 0.129 -0.122
0.318 0.129 -0.119
0.332 0.139 -0.125
0.329 0.141 -0.124
0.329 0.144 -0.124
0.319 0.143 -0.121
0.315 0.145 -0.119
0.316 0.148 -0.120
0.317 0.152 -0.121
0.314 0.155 -0.120
0.349 0.175 -0.134
0.351 0.180 -0.135
0.322 -0.431 -0.148
0.320 -0.422 -0.146
0.335 -0.437 -0.153
0.338 -0.435 -0.153
0.333 -0.423 -0.150
0.337 -0.422 -0.151
0.345 -0.426 -0.154
0.342 -0.417 -0.153
0.336 -0.403 -0.149
0.331 -0.392 -0.146
0.332 -0.388 -0.146
0.334 -0.383 -0.146
0.333 -0.377 -0.145
0.327 -0.365 -0.142
0.326 -0.359 -0.141
0.324 -0.351 -0.139
0.324 -0.345 -0.138
0.320 -0.336 -0.136
0.320 -0.331 -0.135
0.320 -0.326 -0.135
0.319 -0.320 -0.134
0.319 -0.314 -0.133
0.320 -0.311 -0.133
0.321 -0.307 -0.133
0.320 -0.301 -0.132
0.319 -0.296 -0.131
0.317 -0.289 -0.130
0.318 -0.285 -0.129
0.317 -0.280 -0.128
0.314 -0.273 -0.127
0.313 -0.267 -0.126
0.314 -0.264 -0.126
0.313 -0.259 -0.125
0.314 -0.255 -0.125
0.311 -0.249 -0.123
0.313 -0.247 -0.124
0.310 -0.240 -0.122
0.308 -0.235 -0.121
0.308 -0.231 -0.120
0.308 -0.227 -0.120
0.306 -0.222 -0.119
0.301 -0.214 -0.117
0.301 -0.210 -0.116
0.300 -0.206 -0.115
0.298 -0.201 -0.114
0.295 -0.196 -0.113
0.295 -0.192 -0.112
0.210 -0.127 -0.079
0.208 -0.123 -0.078
0.209 -0.122 -0.079
0.213 -0.122 -0.080
0.250 -0.140 -0.093
0.247 -0.136 -0.092
0.243 -0.131 -0.091
0.244 -0.129 -0.091
0.251 -0.129 -0.093
0.300 -0.152 -0.111
0.309 -0.153 -0.114
0.314 -0.152 -0.116
0.318 -0.151 -0.117
0.322 -0.149 -0.118
0.323 -0.146 -0.118
0.323 -0.143 -0.118
0.331 -0.143 -0.121
0.293 -0.121 -0.107
0.345 -0.128 -0.125
0.360 -0.130 -0.130
0.363 -0.128 -0.131
0.363 -0.124 -0.131
0.369 -0.123 -0.133
0.377 -0.122 -0.135
0.387 -0.121 -0.139
0.400 -0.122 -0.144
0.413 -0.121 -0.148
0.422 -0.120 -0.151
0.430 -0.118 -0.154
0.442 -0.117 -0.158
0.361 -0.075 -0.128
0.364 -0.072 -0.129
0.358 -0.068 -0.127
0.281 -0.051 -0.100
0.290 -0.050 -0.103
0.295 -0.048 -0.105
0.293 -0.045 -0.104
0.290 -0.041 -0.103
0.294 -0.039 -0.104
0.303 -0.038 -0.107
0.303 -0.035 -0.107
0.297 -0.031 -0.105
0.294 -0.028 -0.104
0.299 -0.026 -0.105
0.300 -0.023 -0.106
0.297 -0.020 -0.105
0.298 -0.018 -0.105
0.307 -0.015 -0.108
0.319 -0.013 -0.112
0.326 -0.010 -0.115
0.329 -0.008 -0.116
0.319 -0.004 -0.112
0.304 -0.001 -0.107
0.296 0.001 -0.104
0.298 0.004 -0.105
0.306 0.007 -0.108
0.316 0.010 -0.112
0.317 0.013 -0.112
0.322 0.016 -0.114
0.322 0.019 -0.114
0.324 0.022 -0.114
0.322 0.025 -0.114
0.326 0.029 -0.115
0.332 0.032 -0.117
0.314 0.033 -0.111
0.306 0.035 -0.108
0.316 0.039 -0.112
0.327 0.044 -0.116
0.323 0.046 -0.115
0.322 0.049 -0.114
0.323 0.052 -0.115
0.310 0.053 -0.110
0.305 0.055 -0.108
0.302 0.057 -0.107
0.313 0.063 -0.112
0.317 0.066 -0.113
0.329 0.072 -0.118
0.329 0.075 -0.117
0.339 0.081 -0.121
0.325 0.081 -0.116
0.304 0.081 -0.109
0.307 0.085 -0.110
0.306 0.088 -0.110
0.305 0.090 -0.110
0.321 0.098 -0.116
0.318 0.104 -0.115
0.312 0.105 -0.113
0.309 0.107 -0.112
0.307 0.112 -0.112
0.322 0.121 -0.117
0.327 0.126 -0.119
0.337 0.148 -0.124
0.321 0.144 -0.118
0.323 -0.438 -0.145
0.322 -0.431 -0.144
0.326 -0.430 -0.145
0.333 -0.434 -0.147
0.333 -0.428 -0.147
0.329 -0.418 -0.145
0.330 -0.413 -0.145
0.335 -0.413 -0.146
0.340 -0.414 -0.147
0.331 -0.397 -0.143
0.329 -0.389 -0.141
0.325 -0.378 -0.139
0.324 -0.372 -0.138
0.322 -0.364 -0.137
0.325 -0.362 -0.137
0.325 -0.356 -0.136
0.322 -0.348 -0.134
0.319 -0.340 -0.133
0.319 -0.334 -0.132
0.319 -0.329 -0.131
0.318 -0.324 -0.131
0.318 -0.319 -0.130
0.319 -0.314 -0.129
0.320 -0.310 -0.129
0.319 -0.304 -0.128
0.319 -0.300 -0.128
0.317 -0.293 -0.127
0.315 -0.287 -0.125
0.313 -0.281 -0.124
0.313 -0.276 -0.123
0.313 -0.271 -0.123
0.312 -0.267 -0.122
0.312 -0.262 -0.121
0.313 -0.259 -0.121
0.311 -0.253 -0.120
0.312 -0.249 -0.120
0.310 -0.244 -0.119
0.304 -0.235 -0.116
0.304 -0.231 -0.116
0.306 -0.229 -0.116
0.307 -0.225 -0.116
0.301 -0.217 -0.113
0.300 -0.213 -0.113
0.298 -0.208 -0.112
0.297 -0.204 -0.111
0.290 -0.196 -0.108
0.289 -0.192 -0.108
0.285 -0.186 -0.106
0.279 -0.178 -0.103
0.210 -0.127 -0.077
0.208 -0.123 -0.076
0.208 -0.121 -0.076
0.210 -0.120 -0.077
0.246 -0.137 -0.089
0.244 -0.134 -0.089
0.245 -0.131 -0.089
0.246 -0.130 -0.089
0.247 -0.128 -0.089
0.297 -0.150 -0.107
0.311 -0.154 -0.112
0.313 -0.151 -0.112
0.316 -0.150 -0.113
0.320 -0.148 -0.114
0.320 -0.145 -0.114
0.324 -0.143 -0.115
0.285 -0.117 -0.101
0.290 -0.114 -0.102
0.302 -0.115 -0.106
0.342 -0.127 -0.120
0.358 -0.130 -0.126
0.360 -0.127 -0.126
0.364 -0.124 -0.127
0.368 -0.122 -0.129
0.379 -0.122 -0.133
0.390 -0.122 -0.136
0.399 -0.121 -0.139
0.410 -0.120 -0.143
0.420 -0.119 -0.146
0.430 -0.118 -0.149
0.436 -0.115 -0.151
0.441 -0.112 -0.153
0.428 -0.105 -0.148
0.383 -0.083 -0.132
0.381 -0.079 -0.132
0.374 -0.074 -0.129
0.302 -0.054 -0.104
0.294 -0.050 -0.101
0.292 -0.047 -0.101
0.286 -0.043 -0.098
0.283 -0.040 -0.097
0.293 -0.039 -0.101
0.306 -0.038 -0.105
0.303 -0.035 -0.104
0.300 -0.032 -0.103
0.302 -0.029 -0.104
0.303 -0.026 -0.104
0.308 -0.024 -0.106
0.311 -0.021 -0.107
0.311 -0.019 -0.107
0.321 -0.016 -0.110
0.316 -0.013 -0.108
0.311 -0.010 -0.107
0.310 -0.007 -0.106
0.310 -0.004 -0.106
0.309 -0.001 -0.106
0.296 0.001 -0.102
0.295 0.004 -0.101
0.311 0.007 -0.107
0.319 0.010 -0.109
0.321 0.013 -0.110
0.317 0.016 -0.109
0.318 0.019 -0.109
0.320 0.022 -0.110
0.323 0.025 -0.111
0.331 0.029 -0.114
0.317 0.031 -0.109
0.314 0.033 -0.108
0.305 0.035 -0.105
0.311 0.039 -0.107
0.317 0.042 -0.109
0.315 0.045 -0.109
0.320 0.049 -0.110
0.335 0.054 -0.116
0.320 0.055 -0.111
0.309 0.056 -0.107
0.309 0.059 -0.107
0.317 0.063 -0.110
0.319 0.067 -0.111
0.320 0.070 -0.111
0.324 0.074 -0.113
0.327 0.078 -0.114
0.331 0.082 -0.115
0.321 0.083 -0.112
0.309 0.082 -0.108
0.306 0.087 -0.107
0.307 0.091 -0.107
0.316 0.097 -0.111
0.321 0.101 -0.112
0.313 0.102 -0.110
0.308 0.103 -0.108
0.317 0.109 -0.112
0.318 0.113 -0.112
0.319 0.116 -0.113
0.320 0.120 -0.113
0.316 0.122 -0.112
0.337 0.147 -0.121
0.339 0.152 -0.121
0.338 0.177 -0.123
0.337 0.184 -0.123
0.325 -0.439 -0.141
0.327 -0.437 -0.142
0.330 -0.435 -0.143
0.331 -0.431 -0.143
0.330 -0.423 -0.141
0.328 -0.415 -0.140
0.328 -0.409 -0.139
0.331 -0.407 -0.140
0.328 -0.398 -0.138
0.330 -0.395 -0.138
0.325 -0.383 -0.135
0.320 -0.372 -0.133
0.318 -0.364 -0.132
0.320 -0.362 -0.132
0.323 -0.359 -0.132
0.323 -0.353 -0.132
0.320 -0.345 -0.130
0.320 -0.340 -0.129
0.320 -0.335 -0.129
0.319 -0.329 -0.128
0.318 -0.322 -0.126
0.317 -0.316 -0.126
0.316 -0.311 -0.125
0.316 -0.306 -0.124
0.317 -0.302 -0.124
0.316 -0.296 -0.123
0.314 -0.290 -0.122
0.313 -0.284 -0.121
0.312 -0.279 -0.120
0.312 -0.274 -0.119
0.312 -0.270 -0.119
0.311 -0.265 -0.118
0.310 -0.260 -0.117
0.309 -0.255 -0.117
0.311 -0.252 -0.117
0.310 -0.247 -0.116
0.307 -0.241 -0.114
0.302 -0.233 -0.112
0.300 -0.228 -0.111
0.301 -0.225 -0.111
0.297 -0.218 -0.109
0.294 -0.212 -0.108
0.294 -0.208 -0.108
0.228 -0.145 -0.082
0.227 -0.142 -0.081
0.227 -0.139 -0.081
0.212 -0.128 -0.076
0.209 -0.124 -0.074
0.209 -0.121 -0.074
0.209 -0.119 -0.074
0.245 -0.134 -0.086
0.245 -0.132 -0.086
0.246 -0.129 -0.086
0.247 -0.127 -0.086
0.310 -0.153 -0.108
0.311 -0.151 -0.108
0.315 -0.149 -0.109
0.318 -0.147 -0.110
0.322 -0.145 -0.111
0.324 -0.143 -0.112
0.331 -0.143 -0.114
0.287 -0.118 -0.099
0.297 -0.113 -0.102
0.338 -0.125 -0.115
0.353 -0.128 -0.121
0.359 -0.126 -0.122
0.362 -0.124 -0.123
0.371 -0.123 -0.126
0.382 -0.123 -0.130
0.393 -0.123 -0.133
0.400 -0.121 -0.136
0.404 -0.118 -0.137
0.413 -0.117 -0.140
0.426 -0.117 -0.144
0.434 -0.115 -0.146
0.439 -0.112 -0.148
0.444 -0.109 -0.150
0.392 -0.085 -0.132
0.393 -0.082 -0.132
0.385 -0.076 -0.129
0.298 -0.054 -0.100
0.294 -0.050 -0.098
0.293 -0.047 -0.098
0.285 -0.043 -0.095
0.283 -0.040 -0.095
0.287 -0.038 -0.096
0.298 -0.037 -0.100
0.301 -0.034 -0.100
0.297 -0.031 -0.099
0.306 -0.030 -0.102
0.316 -0.028 -0.105
0.321 -0.025 -0.107
0.333 -0.023 -0.111
0.336 -0.020 -0.112
0.306 -0.015 -0.102
0.310 -0.013 -0.103
0.302 -0.010 -0.101
0.301 -0.007 -0.100
0.328 -0.004 -0.109
0.329 -0.001 -0.110
0.313 0.001 -0.104
0.317 0.004 -0.106
0.319 0.007 -0.106
0.325 0.010 -0.109
0.323 0.013 -0.108
0.310 0.016 -0.104
0.318 0.019 -0.106
0.321 0.022 -0.107
0.322 0.025 -0.107
0.317 0.028 -0.106
0.312 0.030 -0.104
0.306 0.032 -0.102
0.307 0.035 -0.103
0.308 0.038 -0.103
0.306 0.041 -0.103
0.308 0.044 -0.103
0.311 0.047 -0.104
0.312 0.050 -0.105
0.323 0.055 -0.108
0.318 0.057 -0.107
0.318 0.060 -0.107
0.315 0.063 -0.106
0.315 0.066 -0.106
0.314 0.069 -0.106
0.316 0.072 -0.107
0.327 0.078 -0.110
0.327 0.081 -0.110
0.324 0.083 -0.110
0.307 0.085 -0.104
0.305 0.087 -0.103
0.313 0.092 -0.106
0.317 0.097 -0.108
0.318 0.100 -0.108
0.321 0.104 -0.110
0.321 0.107 -0.110
0.329 0.113 -0.113
0.332 0.118 -0.114
0.329 0.120 -0.113
0.310 0.116 -0.107
0.310 0.119 -0.107
0.351 0.157 -0.122
0.350 0.183 -0.124
0.353 0.196 -0.126
0.326 -0.440 -0.138
0.327 -0.436 -0.138
0.331 -0.435 -0.139
0.330 -0.429 -0.138
0.330 -0.423 -0.137
0.329 -0.416 -0.136
0.328 -0.409 -0.135
0.327 -0.402 -0.134
0.327 -0.397 -0.134
0.327 -0.391 -0.133
0.326 -0.383 -0.132
0.321 -0.372 -0.129
0.318 -0.364 -0.128
0.320 -0.360 -0.128
0.322 -0.357 -0.128
0.321 -0.351 -0.127
0.321 -0.345 -0.126
0.322 -0.341 -0.126
0.322 -0.336 -0.125
0.317 -0.326 -0.123
0.314 -0.318 -0.121
0.314 -0.313 -0.121
0.315 -0.309 -0.121
0.316 -0.305 -0.120
0.316 -0.300 -0.120
0.314 -0.294 -0.119
0.313 -0.289 -0.118
0.312 -0.283 -0.117
0.312 -0.278 -0.116
0.309 -0.271 -0.115
0.306 -0.264 -0.113
0.312 -0.265 -0.115
0.311 -0.260 -0.114
0.309 -0.255 -0.113
0.306 -0.248 -0.112
0.306 -0.243 -0.111
0.306 -0.240 -0.111
0.301 -0.232 -0.109
0.299 -0.227 -0.108
0.298 -0.222 -0.107
0.298 -0.218 -0.106
0.297 -0.214 -0.106
0.208 -0.142 -0.073
0.208 -0.139 -0.073
0.209 -0.138 -0.073
0.212 -0.137 -0.074
0.223 -0.142 -0.078
0.225 -0.141 -0.078
0.225 -0.138 -0.078
0.213 -0.128 -0.074
0.208 -0.123 -0.072
0.208 -0.120 -0.072
0.209 -0.119 -0.072
0.218 -0.122 -0.075
0.244 -0.133 -0.083
0.245 -0.131 -0.084
0.244 -0.128 -0.083
0.245 -0.126 -0.083
0.248 -0.125 -0.084
0.307 -0.151 -0.104
0.312 -0.150 -0.105
0.315 -0.148 -0.106
0.318 -0.147 -0.107
0.321 -0.145 -0.108
0.322 -0.142 -0.108
0.335 -0.144 -0.112
0.327 -0.137 -0.109
0.286 -0.115 -0.095
0.287 -0.112 -0.095
0.298 -0.114 -0.099
0.307 -0.114 -0.102
0.354 -0.128 -0.117
0.357 -0.125 -0.118
0.361 -0.123 -0.120
0.369 -0.122 -0.122
0.381 -0.123 -0.126
0.396 -0.123 -0.130
0.398 -0.120 -0.131
0.407 -0.119 -0.134
0.416 -0.118 -0.137
0.423 -0.116 -0.139
0.434 -0.115 -0.142
0.441 -0.112 -0.145
0.436 -0.107 -0.143
0.392 -0.085 -0.128
0.395 -0.082 -0.129
0.388 -0.077 -0.127
0.297 -0.053 -0.097
0.294 -0.050 -0.095
0.289 -0.046 -0.094
0.288 -0.044 -0.093
0.287 -0.041 -0.093
0.288 -0.038 -0.093
0.296 -0.037 -0.096
0.299 -0.034 -0.097
0.304 -0.032 -0.099
0.317 -0.028 -0.103
0.319 -0.025 -0.103
0.331 -0.023 -0.107
0.335 -0.020 -0.108
0.288 -0.012 -0.093
0.298 -0.010 -0.097
0.316 -0.007 -0.102
0.328 -0.004 -0.106
0.329 -0.001 -0.106
0.323 0.004 -0.105
0.326 0.007 -0.106
0.323 0.010 -0.105
0.326 0.013 -0.106
0.321 0.016 -0.104
0.310 0.019 -0.101
0.312 0.022 -0.101
0.316 0.025 -0.102
0.316 0.028 -0.103
0.311 0.030 -0.101
0.313 0.033 -0.102
0.308 0.035 -0.100
0.307 0.038 -0.100
0.311 0.041 -0.101
0.313 0.045 -0.102
0.303 0.046 -0.099
0.305 0.049 -0.099
0.319 0.055 -0.104
0.324 0.058 -0.106
0.318 0.060 -0.104
0.307 0.061 -0.100
0.309 0.064 -0.101
0.314 0.068 -0.103
0.321 0.073 -0.105
0.325 0.077 -0.107
0.328 0.081 -0.108
0.324 0.083 -0.107
0.316 0.084 -0.104
0.346 0.102 -0.114
0.326 0.099 -0.108
0.335 0.105 -0.111
0.336 0.109 -0.111
0.334 0.112 -0.111
0.330 0.113 -0.110
0.332 0.117 -0.111
0.315 0.115 -0.105
0.319 0.119 -0.106
0.317 0.122 -0.106
0.350 0.156 -0.118
0.354 0.185 -0.122
0.352 0.187 -0.121
0.366 0.203 -0.127
0.360 0.204 -0.125
0.391 0.239 -0.137
0.321 -0.439 -0.132
0.321 -0.433 -0.132
0.322 -0.429 -0.132
0.325 -0.427 -0.132
0.328 -0.426 -0.133
0.327 -0.418 -0.132
0.327 -0.412 -0.131
0.326 -0.405 -0.130
0.325 -0.399 -0.130
0.326 -0.395 -0.129
0.327 -0.390 -0.129
0.324 -0.381 -0.127
0.321 -0.372 -0.125
0.321 -0.366 -0.125
0.322 -0.362 -0.125
0.321 -0.356 -0.124
