VERSION .7
FIELDS x y z
SIZE 4 4 4
TYPE F F F
COUNT 1 1 1
WIDTH     2440
HEIGHT 1
VIEWPOINT 0 0 0 1 0 0 0
POINTS     2440
DATA ascii
1.312 -0.373 -0.740
1.316 -0.361 -0.741
1.317 -0.348 -0.742
1.312 -0.334 -0.738
0.289 -0.054 -0.161
0.300 -0.053 -0.168
0.291 -0.046 -0.162
0.299 -0.044 -0.167
0.303 -0.042 -0.169
0.309 -0.028 -0.172
0.314 -0.025 -0.175
0.323 -0.023 -0.180
0.333 -0.020 -0.185
0.291 0.015 -0.162
0.292 0.018 -0.162
0.299 0.022 -0.167
0.307 0.025 -0.171
0.304 0.028 -0.170
0.301 0.030 -0.168
0.306 0.034 -0.171
0.306 0.037 -0.171
0.293 0.038 -0.163
0.295 0.041 -0.165
0.287 0.049 -0.161
0.295 0.053 -0.165
0.157 -0.111 -0.094
0.164 -0.113 -0.098
0.205 -0.139 -0.122
0.209 -0.139 -0.124
0.209 -0.137 -0.124
0.208 -0.134 -0.123
0.204 -0.129 -0.120
1.379 -0.786 -0.800
1.380 -0.772 -0.799
1.372 -0.751 -0.792
1.372 -0.736 -0.790
1.372 -0.720 -0.788
1.344 -0.588 -0.760
1.358 -0.580 -0.767
0.245 -0.099 -0.138
0.245 -0.097 -0.138
1.359 -0.509 -0.761
1.365 -0.497 -0.763
1.358 -0.481 -0.758
1.351 -0.465 -0.753
1.349 -0.450 -0.751
1.349 -0.437 -0.750
1.326 -0.416 -0.736
1.324 -0.402 -0.734
1.323 -0.388 -0.733
1.325 -0.376 -0.733
1.330 -0.364 -0.735
1.329 -0.351 -0.734
1.325 -0.337 -0.731
0.303 -0.050 -0.166
0.296 -0.046 -0.162
0.299 -0.044 -0.164
0.283 -0.036 -0.154
0.280 -0.030 -0.153
0.314 -0.028 -0.172
0.304 -0.024 -0.166
0.303 -0.019 -0.165
0.292 0.015 -0.159
0.295 0.019 -0.161
0.306 0.022 -0.167
0.308 0.025 -0.168
0.305 0.028 -0.166
0.306 0.031 -0.167
0.316 0.035 -0.173
0.309 0.037 -0.169
0.303 0.039 -0.166
0.297 0.041 -0.163
0.261 0.041 -0.143
0.273 0.046 -0.150
0.164 -0.115 -0.096
0.157 -0.108 -0.092
0.200 -0.136 -0.117
0.209 -0.139 -0.122
0.209 -0.136 -0.121
0.209 -0.134 -0.121
0.209 -0.131 -0.120
1.403 -0.814 -0.800
1.390 -0.791 -0.791
1.384 -0.756 -0.783
1.378 -0.737 -0.778
1.384 -0.725 -0.780
1.376 -0.705 -0.774
1.368 -0.597 -0.758
1.352 -0.576 -0.748
0.250 -0.101 -0.138
0.258 -0.102 -0.142
1.358 -0.508 -0.745
1.356 -0.493 -0.743
1.359 -0.480 -0.744
1.359 -0.466 -0.742
1.351 -0.450 -0.737
1.335 -0.431 -0.727
1.324 -0.415 -0.721
1.320 -0.400 -0.718
1.325 -0.388 -0.719
1.325 -0.375 -0.718
1.330 -0.363 -0.720
1.331 -0.350 -0.720
1.325 -0.336 -0.716
0.276 -0.043 -0.148
0.284 -0.042 -0.152
0.296 -0.041 -0.159
0.292 -0.037 -0.156
0.283 -0.033 -0.152
0.275 -0.030 -0.147
0.280 -0.028 -0.150
0.291 -0.026 -0.156
0.310 -0.025 -0.166
0.321 -0.017 -0.171
0.270 0.012 -0.145
0.292 0.015 -0.156
0.300 0.019 -0.160
0.310 0.022 -0.166
0.312 0.025 -0.167
0.299 0.027 -0.160
0.297 0.030 -0.159
0.310 0.034 -0.166
0.314 0.038 -0.169
0.311 0.040 -0.167
0.309 0.043 -0.166
0.291 0.049 -0.156
0.304 0.054 -0.164
0.293 0.081 -0.159
0.209 -0.138 -0.119
0.208 -0.135 -0.118
0.209 -0.133 -0.118
0.210 -0.131 -0.118
1.421 -0.823 -0.794
1.362 -0.508 -0.732
1.348 -0.489 -0.724
1.352 -0.477 -0.725
1.364 -0.467 -0.730
1.347 -0.448 -0.720
1.334 -0.430 -0.712
1.327 -0.415 -0.708
1.329 -0.402 -0.708
1.319 -0.386 -0.702
1.306 -0.369 -0.694
1.304 -0.355 -0.692
1.317 -0.346 -0.699
1.322 -0.334 -0.701
0.290 -0.051 -0.153
0.294 -0.049 -0.155
0.278 -0.043 -0.146
0.278 -0.041 -0.146
0.298 -0.041 -0.157
0.299 -0.038 -0.157
0.293 -0.035 -0.154
0.278 -0.027 -0.146
0.307 -0.025 -0.161
0.322 -0.023 -0.168
0.321 -0.020 -0.168
0.325 -0.017 -0.170
0.298 0.016 -0.156
0.296 0.018 -0.155
0.308 0.022 -0.162
0.311 0.025 -0.163
0.295 0.027 -0.155
0.297 0.030 -0.156
0.303 0.033 -0.159
0.312 0.037 -0.164
0.311 0.040 -0.164
0.307 0.043 -0.161
0.300 0.047 -0.158
0.305 0.051 -0.161
0.319 0.057 -0.168
0.180 0.225 -0.122
0.208 -0.138 -0.116
0.208 -0.135 -0.116
0.209 -0.133 -0.116
0.209 -0.131 -0.116
1.353 -0.574 -0.719
1.364 -0.508 -0.718
1.361 -0.493 -0.716
1.358 -0.478 -0.713
1.352 -0.462 -0.709
1.342 -0.445 -0.703
1.330 -0.428 -0.696
1.329 -0.414 -0.695
1.331 -0.402 -0.695
1.332 -0.389 -0.694
1.319 -0.372 -0.687
1.306 -0.355 -0.679
1.308 -0.343 -0.680
1.315 -0.332 -0.683
0.297 -0.052 -0.153
0.297 -0.049 -0.153
0.299 -0.047 -0.154
0.295 -0.043 -0.152
0.300 -0.041 -0.154
0.300 -0.038 -0.154
0.295 -0.032 -0.152
0.300 -0.030 -0.154
0.294 -0.026 -0.151
0.313 -0.025 -0.161
0.324 -0.023 -0.166
0.313 -0.019 -0.161
0.303 -0.016 -0.155
0.316 0.014 -0.163
0.314 0.017 -0.162
0.299 0.019 -0.154
0.304 0.022 -0.156
0.304 0.025 -0.156
0.306 0.028 -0.158
0.304 0.030 -0.157
0.303 0.033 -0.156
0.306 0.036 -0.158
0.310 0.040 -0.160
0.304 0.042 -0.157
0.313 0.046 -0.162
0.298 0.047 -0.154
0.305 0.051 -0.158
0.319 0.057 -0.165
0.305 0.069 -0.159
0.303 0.084 -0.159
0.304 0.093 -0.160
0.183 0.223 -0.121
0.181 0.224 -0.120
0.185 0.231 -0.123
0.209 -0.138 -0.114
0.209 -0.135 -0.114
0.209 -0.133 -0.113
0.209 -0.130 -0.113
0.305 -0.159 -0.162
0.317 -0.162 -0.168
0.324 -0.162 -0.171
0.328 -0.160 -0.173
0.331 -0.157 -0.174
0.324 -0.151 -0.170
0.327 -0.149 -0.171
0.336 -0.149 -0.175
1.372 -0.510 -0.708
1.371 -0.495 -0.706
1.360 -0.478 -0.700
1.344 -0.458 -0.690
1.341 -0.444 -0.688
1.329 -0.427 -0.681
1.321 -0.411 -0.676
1.327 -0.400 -0.678
1.333 -0.388 -0.681
1.329 -0.374 -0.678
1.319 -0.358 -0.672
1.308 -0.342 -0.666
1.308 -0.330 -0.665
0.292 -0.054 -0.148
0.296 -0.052 -0.150
0.298 -0.049 -0.151
0.306 -0.048 -0.154
0.302 -0.044 -0.152
0.293 -0.040 -0.148
0.293 -0.037 -0.148
0.284 -0.033 -0.143
0.288 -0.031 -0.145
0.300 -0.030 -0.151
0.312 -0.028 -0.157
0.309 -0.025 -0.156
0.312 -0.022 -0.157
0.294 -0.018 -0.148
0.291 -0.015 -0.146
0.298 -0.012 -0.150
0.312 0.002 -0.157
0.304 0.013 -0.153
0.317 0.017 -0.159
0.299 0.021 -0.151
0.306 0.025 -0.154
0.308 0.028 -0.155
0.311 0.031 -0.157
0.313 0.034 -0.158
0.307 0.037 -0.155
0.302 0.039 -0.153
0.302 0.045 -0.153
0.292 0.046 -0.148
0.316 0.090 -0.162
0.196 0.223 -0.124
0.194 0.225 -0.124
0.185 0.218 -0.119
0.180 0.215 -0.116
0.180 0.218 -0.117
0.183 0.225 -0.119
0.188 0.235 -0.123
0.160 -0.109 -0.086
0.209 -0.137 -0.112
0.209 -0.135 -0.111
0.209 -0.132 -0.111
0.209 -0.130 -0.111
0.305 -0.175 -0.160
0.318 -0.179 -0.166
0.321 -0.177 -0.167
0.320 -0.173 -0.166
0.317 -0.168 -0.165
0.316 -0.164 -0.164
0.320 -0.163 -0.165
0.323 -0.161 -0.167
0.328 -0.159 -0.169
0.331 -0.157 -0.170
0.336 -0.156 -0.172
0.338 -0.153 -0.173
0.342 -0.152 -0.175
1.381 -0.512 -0.698
1.365 -0.492 -0.689
1.331 -0.467 -0.671
1.329 -0.453 -0.669
1.338 -0.442 -0.672
1.341 -0.430 -0.673
1.317 -0.409 -0.660
1.324 -0.398 -0.663
1.324 -0.385 -0.662
1.326 -0.372 -0.663
1.326 -0.359 -0.661
1.310 -0.342 -0.653
0.297 -0.055 -0.147
0.297 -0.052 -0.147
0.299 -0.049 -0.148
0.306 -0.048 -0.151
0.306 -0.045 -0.151
0.302 -0.041 -0.149
0.294 -0.037 -0.145
0.294 -0.034 -0.145
0.296 -0.032 -0.146
0.304 -0.030 -0.150
0.311 -0.028 -0.153
0.312 -0.025 -0.154
0.303 -0.021 -0.149
0.289 -0.018 -0.143
0.290 -0.015 -0.143
0.304 -0.013 -0.150
0.305 -0.010 -0.150
0.296 -0.007 -0.146
0.310 -0.001 -0.152
0.296 0.013 -0.146
0.315 0.016 -0.155
0.317 0.023 -0.156
0.302 0.024 -0.149
0.312 0.028 -0.154
0.318 0.032 -0.157
0.325 0.035 -0.160
0.325 0.039 -0.161
0.307 0.042 -0.152
0.295 0.043 -0.146
0.314 0.086 -0.157
0.306 0.090 -0.154
0.312 0.095 -0.157
0.190 0.199 -0.115
0.189 0.215 -0.118
0.186 0.215 -0.117
0.182 0.214 -0.114
0.181 0.215 -0.114
0.185 0.224 -0.117
0.185 0.227 -0.118
0.188 0.235 -0.121
0.196 0.247 -0.126
0.166 -0.113 -0.087
0.158 -0.105 -0.083
0.206 -0.135 -0.108
0.207 -0.133 -0.108
0.208 -0.132 -0.108
0.209 -0.130 -0.109
0.305 -0.182 -0.157
0.308 -0.180 -0.159
0.316 -0.181 -0.162
0.320 -0.180 -0.164
0.321 -0.177 -0.164
0.320 -0.173 -0.163
0.319 -0.169 -0.162
0.319 -0.165 -0.162
0.318 -0.161 -0.161
0.322 -0.160 -0.163
0.327 -0.159 -0.165
0.331 -0.157 -0.166
0.335 -0.155 -0.168
0.339 -0.154 -0.170
0.342 -0.151 -0.171
0.259 -0.101 -0.128
1.373 -0.508 -0.679
1.350 -0.486 -0.667
1.334 -0.467 -0.658
1.332 -0.453 -0.656
1.341 -0.442 -0.660
1.337 -0.428 -0.657
1.340 -0.415 -0.657
1.311 -0.393 -0.643
1.319 -0.383 -0.646
1.323 -0.371 -0.647
1.323 -0.358 -0.646
1.314 -0.343 -0.641
0.300 -0.055 -0.146
0.295 -0.051 -0.143
0.297 -0.049 -0.144
0.303 -0.047 -0.147
0.303 -0.044 -0.146
0.305 -0.041 -0.148
0.302 -0.038 -0.146
0.304 -0.036 -0.147
0.307 -0.033 -0.148
0.301 -0.030 -0.145
0.306 -0.027 -0.147
0.304 -0.024 -0.147
0.304 -0.021 -0.147
0.303 -0.018 -0.146
0.293 -0.015 -0.141
0.299 -0.012 -0.144
0.303 -0.010 -0.146
0.292 -0.007 -0.141
0.288 -0.004 -0.139
0.312 0.005 -0.150
0.323 0.014 -0.156
0.321 0.020 -0.155
0.320 0.026 -0.154
0.318 0.029 -0.154
0.330 0.033 -0.159
0.329 0.036 -0.159
0.328 0.039 -0.159
0.320 0.041 -0.155
0.301 0.041 -0.146
0.305 0.045 -0.148
0.320 0.053 -0.155
0.336 0.059 -0.163
0.333 0.065 -0.162
0.290 0.062 -0.141
0.316 0.086 -0.155
0.308 0.087 -0.151
0.314 0.098 -0.155
0.335 0.143 -0.168
0.234 0.224 -0.135
0.213 0.215 -0.125
0.200 0.206 -0.118
0.202 0.211 -0.120
0.190 0.212 -0.115
0.187 0.212 -0.114
0.184 0.212 -0.113
0.179 0.210 -0.110
0.181 0.215 -0.112
0.183 0.221 -0.113
0.185 0.227 -0.116
0.185 0.230 -0.116
0.185 0.234 -0.116
0.210 -0.137 -0.107
0.207 -0.133 -0.106
0.208 -0.131 -0.106
0.209 -0.129 -0.106
0.222 -0.135 -0.113
0.306 -0.182 -0.154
0.311 -0.181 -0.156
0.317 -0.181 -0.159
0.319 -0.179 -0.160
0.319 -0.175 -0.159
0.319 -0.172 -0.159
0.320 -0.169 -0.159
0.318 -0.164 -0.158
0.318 -0.161 -0.158
0.320 -0.159 -0.158
0.327 -0.158 -0.161
0.329 -0.156 -0.162
0.332 -0.154 -0.163
0.336 -0.152 -0.165
0.334 -0.148 -0.164
1.351 -0.499 -0.654
1.347 -0.484 -0.651
1.343 -0.469 -0.648
1.335 -0.426 -0.642
1.324 -0.410 -0.636
1.322 -0.396 -0.634
1.321 -0.383 -0.633
1.319 -0.369 -0.631
1.316 -0.355 -0.629
1.321 -0.344 -0.631
1.332 -0.334 -0.636
0.291 -0.053 -0.138
0.290 -0.050 -0.138
0.291 -0.048 -0.138
0.294 -0.045 -0.139
0.304 -0.044 -0.144
0.304 -0.041 -0.144
0.312 -0.039 -0.148
0.317 -0.037 -0.150
0.297 -0.032 -0.140
0.294 -0.029 -0.139
0.304 -0.027 -0.144
0.312 -0.025 -0.147
0.316 -0.022 -0.149
0.302 -0.018 -0.142
0.297 -0.015 -0.140
0.299 -0.012 -0.141
0.312 -0.010 -0.147
0.303 -0.007 -0.143
0.293 -0.004 -0.138
0.308 0.002 -0.145
0.299 0.004 -0.141
0.301 0.007 -0.142
0.346 0.031 -0.164
0.318 0.034 -0.150
0.319 0.044 -0.151
0.312 0.049 -0.148
0.329 0.058 -0.157
0.294 0.060 -0.140
0.293 0.063 -0.140
0.302 0.073 -0.144
0.310 0.082 -0.149
0.315 0.086 -0.151
0.307 0.087 -0.148
0.316 0.096 -0.152
0.327 0.102 -0.158
0.317 0.109 -0.154
0.323 0.114 -0.157
0.324 0.138 -0.159
0.224 0.193 -0.123
0.225 0.197 -0.124
0.225 0.201 -0.125
0.218 0.198 -0.121
0.209 0.193 -0.117
0.211 0.199 -0.119
0.226 0.216 -0.128
0.208 0.206 -0.118
0.206 0.207 -0.118
0.208 0.213 -0.120
0.204 0.213 -0.118
0.196 0.212 -0.115
0.198 0.217 -0.117
0.192 0.217 -0.114
0.190 0.218 -0.114
0.182 0.212 -0.109
0.174 0.207 -0.105
0.175 0.211 -0.106
0.185 0.226 -0.113
0.184 0.228 -0.113
0.181 0.227 -0.111
0.179 0.229 -0.111
0.319 -0.228 -0.162
0.319 -0.224 -0.162
0.214 -0.140 -0.107
0.208 -0.133 -0.104
0.208 -0.131 -0.104
0.210 -0.130 -0.104
0.213 -0.129 -0.105
0.304 -0.181 -0.150
0.310 -0.181 -0.153
0.315 -0.180 -0.155
0.317 -0.177 -0.155
0.314 -0.172 -0.153
0.314 -0.169 -0.153
0.319 -0.168 -0.155
0.316 -0.163 -0.154
0.318 -0.160 -0.154
0.324 -0.160 -0.157
0.327 -0.158 -0.158
0.328 -0.155 -0.158
0.330 -0.152 -0.158
0.331 -0.149 -0.159
0.334 -0.147 -0.160
0.349 -0.132 -0.165
0.347 -0.128 -0.164
1.341 -0.481 -0.634
1.341 -0.467 -0.633
1.314 -0.419 -0.618
1.318 -0.407 -0.619
1.323 -0.395 -0.620
1.323 -0.382 -0.620
1.320 -0.369 -0.618
1.313 -0.354 -0.614
1.323 -0.344 -0.618
0.288 -0.053 -0.133
0.290 -0.050 -0.134
0.289 -0.047 -0.134
0.293 -0.045 -0.136
0.301 -0.044 -0.140
0.316 -0.043 -0.146
0.318 -0.040 -0.147
0.305 -0.036 -0.141
0.288 -0.031 -0.133
0.294 -0.029 -0.136
0.308 -0.027 -0.142
0.322 -0.025 -0.149
0.315 -0.022 -0.145
0.304 -0.018 -0.140
0.291 -0.015 -0.134
0.304 -0.013 -0.140
0.311 -0.010 -0.144
0.310 -0.007 -0.143
0.305 -0.004 -0.141
0.317 -0.001 -0.146
0.314 0.002 -0.145
0.298 0.004 -0.138
0.301 0.007 -0.139
0.298 0.013 -0.138
0.341 0.024 -0.158
0.296 0.032 -0.137
0.309 0.036 -0.143
0.307 0.048 -0.142
0.344 0.067 -0.160
0.308 0.066 -0.144
0.308 0.069 -0.144
0.322 0.088 -0.151
0.315 0.089 -0.148
0.320 0.093 -0.150
0.332 0.100 -0.157
0.338 0.105 -0.159
0.345 0.111 -0.163
0.339 0.113 -0.161
0.309 0.109 -0.147
0.322 0.137 -0.155
0.333 0.145 -0.160
0.241 0.197 -0.128
0.228 0.189 -0.121
0.220 0.186 -0.117
0.218 0.188 -0.117
0.220 0.193 -0.119
0.225 0.200 -0.122
0.221 0.200 -0.120
0.216 0.199 -0.118
0.217 0.204 -0.119
0.216 0.206 -0.119
0.206 0.199 -0.114
0.200 0.198 -0.112
0.201 0.202 -0.113
0.204 0.209 -0.115
0.198 0.206 -0.112
0.195 0.205 -0.111
0.192 0.206 -0.110
0.201 0.219 -0.116
0.185 0.229 -0.111
0.183 0.230 -0.110
0.177 0.226 -0.107
0.175 0.227 -0.107
0.322 -0.255 -0.163
0.322 -0.250 -0.162
0.326 -0.249 -0.164
0.326 -0.245 -0.164
0.325 -0.240 -0.162
0.322 -0.234 -0.160
0.322 -0.229 -0.160
0.320 -0.224 -0.159
0.317 -0.218 -0.156
0.221 -0.144 -0.108
0.209 -0.134 -0.102
0.210 -0.132 -0.102
0.211 -0.130 -0.102
0.213 -0.129 -0.103
0.295 -0.175 -0.142
0.309 -0.180 -0.149
0.312 -0.178 -0.150
0.310 -0.173 -0.149
0.309 -0.169 -0.148
0.308 -0.165 -0.147
0.310 -0.163 -0.147
0.315 -0.162 -0.150
0.317 -0.160 -0.150
0.319 -0.157 -0.151
0.326 -0.157 -0.154
0.327 -0.154 -0.154
0.329 -0.152 -0.155
0.331 -0.149 -0.155
0.337 -0.148 -0.158
0.253 -0.103 -0.118
0.256 -0.102 -0.119
0.360 -0.136 -0.167
0.357 -0.131 -0.165
0.349 -0.125 -0.161
1.314 -0.418 -0.604
1.320 -0.407 -0.606
1.327 -0.396 -0.609
1.324 -0.382 -0.607
1.318 -0.367 -0.603
1.308 -0.352 -0.598
1.306 -0.339 -0.597
0.295 -0.054 -0.134
0.301 -0.052 -0.137
0.297 -0.049 -0.135
0.295 -0.046 -0.134
0.306 -0.044 -0.138
0.317 -0.043 -0.143
0.314 -0.040 -0.142
0.301 -0.035 -0.136
0.309 -0.033 -0.139
0.314 -0.031 -0.142
0.316 -0.028 -0.143
0.310 -0.025 -0.140
0.314 -0.022 -0.142
0.303 -0.018 -0.137
0.295 -0.015 -0.133
0.298 -0.012 -0.134
0.304 -0.010 -0.137
0.302 -0.007 -0.136
0.309 -0.001 -0.139
0.307 0.002 -0.139
0.310 0.004 -0.140
0.309 0.007 -0.140
0.319 0.011 -0.144
0.344 0.021 -0.155
0.353 0.025 -0.160
0.345 0.028 -0.156
0.324 0.038 -0.147
0.323 0.041 -0.146
0.317 0.043 -0.144
0.313 0.046 -0.142
0.333 0.061 -0.152
0.305 0.068 -0.139
0.306 0.071 -0.140
0.309 0.075 -0.141
0.323 0.081 -0.148
0.323 0.084 -0.148
0.319 0.087 -0.146
0.317 0.089 -0.146
0.326 0.098 -0.150
0.346 0.108 -0.160
0.333 0.110 -0.154
0.319 0.109 -0.148
0.315 0.111 -0.146
0.314 0.114 -0.146
0.347 0.147 -0.163
0.355 0.154 -0.167
0.253 0.188 -0.128
0.258 0.195 -0.131
0.244 0.195 -0.126
0.234 0.190 -0.121
0.227 0.188 -0.118
0.221 0.186 -0.115
0.219 0.187 -0.115
0.220 0.192 -0.116
0.221 0.196 -0.117
0.221 0.200 -0.117
0.218 0.200 -0.116
0.221 0.207 -0.119
0.213 0.203 -0.115
0.205 0.199 -0.111
0.197 0.194 -0.108
0.199 0.199 -0.109
0.200 0.203 -0.110
0.201 0.208 -0.111
0.202 0.213 -0.113
0.216 0.239 -0.122
0.203 0.229 -0.116
0.201 0.230 -0.115
0.197 0.228 -0.113
0.189 0.233 -0.110
0.190 0.238 -0.112
0.178 0.226 -0.105
0.177 0.229 -0.105
0.322 -0.267 -0.161
0.328 -0.268 -0.164
0.333 -0.267 -0.165
0.331 -0.261 -0.164
0.326 -0.252 -0.161
0.324 -0.247 -0.159
0.328 -0.246 -0.161
0.326 -0.240 -0.159
0.321 -0.232 -0.156
0.318 -0.226 -0.154
0.318 -0.222 -0.154
0.314 -0.216 -0.151
0.240 -0.159 -0.115
0.231 -0.150 -0.110
0.212 -0.135 -0.101
0.211 -0.132 -0.100
0.212 -0.130 -0.100
0.213 -0.128 -0.101
0.309 -0.179 -0.145
0.310 -0.176 -0.145
0.310 -0.173 -0.145
0.309 -0.169 -0.144
0.308 -0.165 -0.144
0.309 -0.162 -0.144
0.312 -0.160 -0.145
0.316 -0.159 -0.146
0.318 -0.157 -0.147
0.321 -0.155 -0.148
0.327 -0.154 -0.151
0.331 -0.152 -0.152
0.330 -0.148 -0.151
0.333 -0.146 -0.152
0.362 -0.137 -0.164
0.363 -0.133 -0.164
0.361 -0.129 -0.163
0.368 -0.128 -0.166
1.332 -0.436 -0.600
1.319 -0.419 -0.593
1.328 -0.408 -0.596
1.335 -0.397 -0.599
1.325 -0.382 -0.593
1.313 -0.365 -0.588
1.306 -0.351 -0.584
1.312 -0.340 -0.586
0.336 -0.065 -0.149
0.311 -0.057 -0.138
0.302 -0.052 -0.134
0.300 -0.049 -0.133
0.297 -0.046 -0.132
0.299 -0.043 -0.132
0.303 -0.041 -0.134
0.308 -0.039 -0.136
0.308 -0.036 -0.136
0.297 -0.032 -0.131
0.307 -0.030 -0.136
0.309 -0.027 -0.136
0.313 -0.025 -0.138
0.309 -0.021 -0.136
0.310 -0.019 -0.137
0.304 -0.015 -0.134
0.298 -0.012 -0.132
0.293 -0.009 -0.129
0.299 -0.007 -0.132
0.301 -0.004 -0.133
0.308 -0.001 -0.136
0.304 0.002 -0.134
0.310 0.004 -0.137
0.325 0.008 -0.143
0.331 0.011 -0.146
0.354 0.022 -0.156
0.356 0.025 -0.157
0.327 0.029 -0.144
0.328 0.051 -0.146
0.323 0.053 -0.143
0.319 0.059 -0.142
0.305 0.062 -0.136
0.309 0.066 -0.138
0.307 0.068 -0.137
0.311 0.072 -0.139
0.313 0.076 -0.140
0.318 0.080 -0.142
0.318 0.083 -0.143
0.308 0.083 -0.138
0.313 0.088 -0.141
0.324 0.097 -0.146
0.338 0.105 -0.152
0.309 0.102 -0.140
0.307 0.105 -0.139
0.325 0.117 -0.148
0.345 0.150 -0.159
0.260 0.172 -0.126
0.256 0.173 -0.124
0.256 0.177 -0.125
0.255 0.179 -0.125
0.252 0.180 -0.124
0.247 0.180 -0.122
0.247 0.183 -0.122
0.253 0.191 -0.126
0.258 0.198 -0.129
0.254 0.199 -0.127
0.241 0.192 -0.121
0.233 0.189 -0.118
0.228 0.188 -0.116
0.223 0.187 -0.114
0.220 0.188 -0.113
0.219 0.190 -0.112
0.214 0.189 -0.111
0.213 0.192 -0.111
0.215 0.197 -0.112
0.220 0.205 -0.115
0.222 0.211 -0.117
0.213 0.205 -0.113
0.201 0.198 -0.107
0.199 0.199 -0.106
0.201 0.204 -0.108
0.208 0.215 -0.113
0.227 0.246 -0.125
0.217 0.239 -0.120
0.204 0.229 -0.113
0.198 0.226 -0.111
0.202 0.234 -0.113
0.192 0.229 -0.109
0.189 0.229 -0.108
0.189 0.233 -0.108
0.179 0.224 -0.103
0.178 0.226 -0.103
0.181 0.233 -0.105
0.329 -0.286 -0.163
0.333 -0.285 -0.164
0.334 -0.281 -0.164
0.334 -0.276 -0.163
0.333 -0.271 -0.162
0.333 -0.267 -0.162
0.329 -0.259 -0.159
0.326 -0.252 -0.157
0.325 -0.248 -0.156
0.325 -0.243 -0.156
0.324 -0.238 -0.154
0.320 -0.231 -0.152
0.314 -0.223 -0.149
0.311 -0.217 -0.147
0.312 -0.214 -0.147
0.306 -0.206 -0.143
0.214 -0.136 -0.100
0.208 -0.130 -0.097
0.209 -0.128 -0.097
0.212 -0.128 -0.098
0.307 -0.178 -0.141
0.309 -0.175 -0.141
0.309 -0.172 -0.141
0.309 -0.169 -0.141
0.309 -0.165 -0.141
0.308 -0.161 -0.140
0.308 -0.158 -0.140
0.314 -0.158 -0.142
0.318 -0.156 -0.143
0.322 -0.155 -0.145
0.326 -0.153 -0.146
0.329 -0.151 -0.148
0.334 -0.150 -0.149
0.332 -0.146 -0.149
0.282 -0.109 -0.125
0.361 -0.136 -0.160
0.368 -0.135 -0.163
0.370 -0.132 -0.164
0.374 -0.130 -0.165
0.381 -0.128 -0.168
1.331 -0.409 -0.584
1.336 -0.397 -0.586
1.331 -0.383 -0.583
0.356 -0.072 -0.155
0.307 -0.056 -0.133
0.292 -0.050 -0.127
0.287 -0.047 -0.124
0.286 -0.044 -0.124
0.290 -0.042 -0.126
0.293 -0.039 -0.127
0.298 -0.037 -0.129
0.300 -0.035 -0.130
0.298 -0.032 -0.129
0.293 -0.029 -0.126
0.306 -0.027 -0.132
0.312 -0.025 -0.134
0.307 -0.021 -0.133
0.313 -0.019 -0.135
0.318 -0.016 -0.137
0.309 -0.013 -0.133
0.289 -0.009 -0.125
0.288 -0.007 -0.124
0.300 -0.004 -0.129
0.299 -0.001 -0.129
0.300 0.001 -0.129
0.303 0.004 -0.131
0.314 0.007 -0.135
0.327 0.011 -0.141
0.321 0.014 -0.139
0.331 0.029 -0.143
0.342 0.034 -0.148
0.339 0.037 -0.147
0.316 0.037 -0.137
0.317 0.040 -0.137
0.315 0.043 -0.137
0.325 0.050 -0.141
0.321 0.053 -0.139
0.318 0.055 -0.138
0.318 0.058 -0.138
0.310 0.060 -0.135
0.295 0.060 -0.128
0.290 0.062 -0.126
0.304 0.067 -0.133
0.314 0.073 -0.137
0.309 0.074 -0.135
0.296 0.074 -0.130
0.298 0.078 -0.131
0.308 0.083 -0.135
0.316 0.092 -0.139
0.317 0.095 -0.140
0.317 0.111 -0.141
0.341 0.148 -0.153
0.296 0.174 -0.137
0.272 0.167 -0.127
0.274 0.171 -0.129
0.275 0.175 -0.129
0.265 0.172 -0.125
0.255 0.169 -0.121
0.253 0.171 -0.120
0.253 0.174 -0.121
0.253 0.177 -0.121
0.249 0.178 -0.120
0.246 0.179 -0.119
0.243 0.180 -0.118
0.270 0.204 -0.131
0.271 0.208 -0.132
0.258 0.202 -0.126
0.246 0.196 -0.121
0.239 0.193 -0.118
0.232 0.191 -0.115
0.225 0.188 -0.112
0.222 0.189 -0.111
0.220 0.191 -0.110
0.217 0.192 -0.110
0.216 0.194 -0.109
0.215 0.196 -0.109
0.230 0.214 -0.118
0.229 0.217 -0.118
0.219 0.211 -0.113
0.208 0.204 -0.108
0.202 0.201 -0.106
0.205 0.208 -0.108
0.221 0.227 -0.117
0.229 0.240 -0.122
0.225 0.240 -0.120
0.221 0.239 -0.119
0.218 0.240 -0.118
0.201 0.224 -0.109
0.197 0.242 -0.110
0.181 0.225 -0.101
0.186 0.236 -0.105
0.187 0.240 -0.106
0.179 0.233 -0.102
0.321 -0.307 -0.159
0.328 -0.303 -0.161
0.333 -0.303 -0.163
0.337 -0.302 -0.164
0.333 -0.294 -0.162
0.333 -0.288 -0.161
0.333 -0.284 -0.160
0.333 -0.280 -0.160
0.332 -0.274 -0.159
0.335 -0.272 -0.159
0.329 -0.263 -0.156
0.325 -0.255 -0.154
0.324 -0.250 -0.152
0.323 -0.245 -0.151
0.323 -0.241 -0.151
0.322 -0.236 -0.150
0.317 -0.229 -0.147
0.313 -0.222 -0.145
0.313 -0.218 -0.144
0.310 -0.212 -0.143
0.307 -0.206 -0.141
0.215 -0.137 -0.098
0.207 -0.129 -0.094
0.210 -0.128 -0.095
0.210 -0.126 -0.095
0.304 -0.176 -0.137
0.303 -0.172 -0.136
0.305 -0.170 -0.136
0.307 -0.167 -0.137
0.307 -0.164 -0.137
0.307 -0.161 -0.136
0.310 -0.158 -0.137
0.313 -0.157 -0.138
0.318 -0.156 -0.140
0.322 -0.154 -0.141
0.324 -0.152 -0.142
0.330 -0.151 -0.145
0.333 -0.149 -0.146
0.336 -0.147 -0.147
0.307 -0.128 -0.133
0.286 -0.110 -0.124
0.364 -0.137 -0.157
0.368 -0.135 -0.159
0.373 -0.133 -0.161
0.377 -0.130 -0.162
0.382 -0.128 -0.164
0.389 -0.127 -0.167
0.401 -0.127 -0.172
1.314 -0.403 -0.563
1.314 -0.390 -0.563
1.308 -0.376 -0.559
1.332 -0.369 -0.569
1.302 -0.349 -0.556
0.319 -0.061 -0.135
0.295 -0.054 -0.125
0.283 -0.049 -0.120
0.272 -0.044 -0.115
0.278 -0.043 -0.117
0.288 -0.041 -0.122
0.291 -0.039 -0.123
0.295 -0.037 -0.125
0.296 -0.034 -0.125
0.294 -0.031 -0.124
0.302 -0.029 -0.128
0.307 -0.027 -0.129
0.309 -0.024 -0.130
0.307 -0.021 -0.129
0.311 -0.019 -0.131
0.316 -0.016 -0.133
0.308 -0.013 -0.130
0.287 -0.009 -0.121
0.280 -0.006 -0.118
0.286 -0.004 -0.121
0.305 -0.001 -0.129
0.302 0.001 -0.127
0.301 0.004 -0.127
0.301 0.007 -0.127
0.310 0.010 -0.131
0.314 0.013 -0.132
0.297 0.015 -0.125
0.301 0.018 -0.127
0.306 0.021 -0.129
0.335 0.027 -0.141
0.332 0.030 -0.140
0.328 0.032 -0.138
0.312 0.037 -0.132
0.326 0.047 -0.138
0.313 0.057 -0.133
0.298 0.063 -0.127
0.309 0.068 -0.132
0.316 0.073 -0.135
0.310 0.075 -0.132
0.303 0.076 -0.130
0.312 0.081 -0.133
0.320 0.086 -0.137
0.325 0.091 -0.140
0.325 0.094 -0.140
0.325 0.101 -0.140
0.330 0.105 -0.142
0.323 0.110 -0.140
0.313 0.110 -0.136
0.312 0.112 -0.135
0.344 0.149 -0.151
0.293 0.169 -0.133
0.295 0.173 -0.134
0.271 0.163 -0.123
0.275 0.168 -0.125
0.274 0.171 -0.125
0.270 0.172 -0.124
0.265 0.172 -0.122
0.262 0.173 -0.121
0.255 0.172 -0.118
0.260 0.178 -0.121
0.259 0.181 -0.121
0.252 0.179 -0.118
0.252 0.183 -0.119
0.246 0.182 -0.116
0.275 0.207 -0.130
0.276 0.212 -0.131
0.272 0.212 -0.130
0.260 0.206 -0.125
0.254 0.205 -0.122
0.252 0.207 -0.122
0.229 0.191 -0.111
0.225 0.192 -0.110
0.223 0.193 -0.109
0.222 0.196 -0.109
0.221 0.198 -0.109
0.230 0.210 -0.115
0.237 0.220 -0.118
0.231 0.218 -0.116
0.223 0.214 -0.113
0.214 0.209 -0.109
0.214 0.212 -0.109
0.216 0.218 -0.111
0.221 0.227 -0.114
0.222 0.231 -0.115
0.208 0.236 -0.111
0.317 -0.326 -0.156
0.326 -0.330 -0.160
0.333 -0.333 -0.163
0.338 -0.332 -0.165
0.337 -0.326 -0.163
0.329 -0.313 -0.159
0.330 -0.310 -0.159
0.332 -0.306 -0.159
0.333 -0.303 -0.159
0.334 -0.299 -0.159
0.333 -0.293 -0.158
0.332 -0.287 -0.156
0.329 -0.280 -0.155
0.327 -0.274 -0.153
0.324 -0.267 -0.151
0.325 -0.264 -0.151
0.324 -0.258 -0.150
0.325 -0.255 -0.150
0.322 -0.248 -0.148
0.320 -0.242 -0.146
0.321 -0.239 -0.146
0.319 -0.234 -0.145
0.319 -0.229 -0.144
0.319 -0.225 -0.144
0.314 -0.218 -0.141
0.310 -0.212 -0.139
0.304 -0.204 -0.136
0.220 -0.140 -0.098
0.208 -0.129 -0.092
0.209 -0.127 -0.092
0.214 -0.128 -0.094
0.295 -0.170 -0.129
0.299 -0.169 -0.131
0.299 -0.166 -0.130
0.305 -0.166 -0.133
0.305 -0.162 -0.132
0.306 -0.160 -0.133
0.309 -0.158 -0.134
0.313 -0.157 -0.135
0.316 -0.155 -0.136
0.318 -0.152 -0.136
0.319 -0.149 -0.137
0.328 -0.150 -0.140
0.330 -0.148 -0.141
0.338 -0.148 -0.144
0.360 -0.135 -0.152
0.362 -0.132 -0.153
0.370 -0.131 -0.156
0.376 -0.130 -0.158
0.383 -0.129 -0.161
0.388 -0.126 -0.163
0.394 -0.124 -0.165
0.400 -0.122 -0.167
1.295 -0.384 -0.541
1.301 -0.373 -0.543
1.311 -0.363 -0.547
1.317 -0.352 -0.549
0.349 -0.070 -0.144
0.269 -0.046 -0.111
0.274 -0.045 -0.113
0.276 -0.042 -0.114
0.285 -0.041 -0.118
0.296 -0.040 -0.122
0.296 -0.037 -0.122
0.294 -0.034 -0.121
0.296 -0.031 -0.122
0.292 -0.028 -0.120
0.303 -0.027 -0.125
0.303 -0.024 -0.125
0.300 -0.021 -0.124
0.300 -0.018 -0.123
0.300 -0.015 -0.123
0.286 -0.012 -0.118
0.286 -0.009 -0.118
0.292 -0.007 -0.120
0.287 -0.004 -0.118
0.295 -0.001 -0.121
0.306 0.002 -0.126
0.296 0.004 -0.122
0.294 0.007 -0.121
0.298 0.010 -0.123
0.309 0.013 -0.127
0.302 0.016 -0.124
0.299 0.018 -0.123
0.318 0.022 -0.131
0.326 0.026 -0.135
0.336 0.030 -0.138
0.297 0.035 -0.122
0.318 0.040 -0.131
0.321 0.043 -0.133
0.318 0.049 -0.131
0.313 0.051 -0.130
0.310 0.054 -0.128
0.308 0.056 -0.128
0.304 0.058 -0.126
0.308 0.062 -0.128
0.310 0.066 -0.129
0.311 0.069 -0.130
0.315 0.073 -0.131
0.315 0.076 -0.132
0.317 0.079 -0.132
0.326 0.085 -0.136
0.325 0.088 -0.136
0.326 0.091 -0.137
0.309 0.089 -0.130
0.304 0.091 -0.128
0.320 0.099 -0.134
0.321 0.112 -0.136
0.347 0.150 -0.149
0.293 0.149 -0.127
0.295 0.153 -0.129
0.300 0.159 -0.131
0.298 0.161 -0.131
0.300 0.166 -0.132
0.298 0.168 -0.131
0.285 0.164 -0.126
0.276 0.162 -0.122
0.278 0.167 -0.124
0.279 0.170 -0.124
0.277 0.172 -0.124
0.272 0.173 -0.122
0.272 0.176 -0.122
0.268 0.177 -0.121
0.265 0.178 -0.120
0.267 0.182 -0.121
0.265 0.185 -0.121
0.259 0.184 -0.119
0.255 0.184 -0.117
0.254 0.187 -0.117
0.262 0.197 -0.121
0.266 0.203 -0.123
0.270 0.210 -0.126
0.266 0.210 -0.124
0.261 0.210 -0.122
0.255 0.209 -0.120
0.237 0.198 -0.112
0.230 0.195 -0.109
0.226 0.195 -0.108
0.228 0.201 -0.110
0.231 0.207 -0.112
0.239 0.217 -0.116
0.236 0.219 -0.115
0.227 0.214 -0.111
0.222 0.213 -0.109
0.223 0.217 -0.110
0.226 0.223 -0.112
0.229 0.230 -0.114
0.231 0.237 -0.116
0.315 -0.344 -0.155
0.314 -0.339 -0.154
0.331 -0.346 -0.160
0.325 -0.334 -0.157
0.331 -0.335 -0.159
0.335 -0.334 -0.160
0.337 -0.331 -0.160
0.331 -0.320 -0.157
0.330 -0.313 -0.155
0.331 -0.310 -0.155
0.332 -0.306 -0.155
0.332 -0.301 -0.154
0.330 -0.294 -0.153
0.329 -0.289 -0.152
0.326 -0.282 -0.150
0.326 -0.277 -0.149
0.323 -0.270 -0.147
0.321 -0.264 -0.146
0.319 -0.258 -0.144
0.321 -0.255 -0.145
0.322 -0.252 -0.145
0.320 -0.246 -0.143
0.321 -0.243 -0.143
0.323 -0.240 -0.144
0.323 -0.236 -0.143
0.319 -0.229 -0.141
0.317 -0.224 -0.140
0.314 -0.217 -0.138
0.308 -0.210 -0.135
0.305 -0.204 -0.133
0.209 -0.130 -0.090
0.209 -0.128 -0.090
0.208 -0.124 -0.089
0.218 -0.128 -0.093
0.293 -0.169 -0.125
0.294 -0.166 -0.125
0.299 -0.165 -0.127
0.302 -0.164 -0.128
0.303 -0.161 -0.128
0.304 -0.158 -0.128
0.308 -0.157 -0.130
0.310 -0.155 -0.130
0.315 -0.154 -0.132
0.316 -0.151 -0.132
0.319 -0.149 -0.133
0.324 -0.148 -0.135
0.330 -0.147 -0.137
0.336 -0.146 -0.140
0.324 -0.135 -0.134
0.355 -0.133 -0.146
0.360 -0.131 -0.148
0.365 -0.129 -0.150
0.377 -0.130 -0.155
0.383 -0.128 -0.157
0.385 -0.125 -0.158
0.386 -0.122 -0.158
0.391 -0.120 -0.160
0.397 -0.118 -0.162
1.299 -0.372 -0.529
1.312 -0.363 -0.534
1.320 -0.352 -0.537
1.327 -0.341 -0.539
0.358 -0.072 -0.145
0.277 -0.050 -0.112
0.280 -0.048 -0.113
0.282 -0.046 -0.114
0.282 -0.043 -0.113
0.285 -0.041 -0.115
0.294 -0.040 -0.118
0.303 -0.038 -0.122
0.299 -0.035 -0.120
0.292 -0.031 -0.117
0.295 -0.029 -0.119
0.293 -0.026 -0.118
0.295 -0.023 -0.118
0.300 -0.021 -0.121
0.298 -0.018 -0.120
0.296 -0.015 -0.119
0.291 -0.012 -0.117
0.291 -0.009 -0.117
0.299 -0.007 -0.120
0.302 -0.004 -0.121
0.299 -0.001 -0.120
0.302 0.001 -0.121
0.306 0.004 -0.123
0.308 0.007 -0.124
0.312 0.010 -0.125
0.313 0.013 -0.126
0.312 0.016 -0.125
0.320 0.019 -0.129
0.315 0.022 -0.127
0.329 0.026 -0.132
0.331 0.032 -0.133
0.302 0.032 -0.122
0.307 0.036 -0.124
0.319 0.040 -0.129
0.314 0.045 -0.127
0.317 0.055 -0.128
0.310 0.057 -0.126
0.328 0.063 -0.133
0.316 0.064 -0.128
0.308 0.065 -0.125
0.311 0.069 -0.126
0.314 0.072 -0.128
0.317 0.076 -0.129
0.331 0.083 -0.135
0.330 0.085 -0.134
0.324 0.087 -0.132
0.316 0.088 -0.129
0.311 0.090 -0.127
0.322 0.096 -0.132
0.316 0.097 -0.130
0.323 0.103 -0.133
0.322 0.106 -0.133
0.320 0.108 -0.132
0.310 0.108 -0.128
0.320 0.115 -0.132
0.322 0.139 -0.135
0.307 0.135 -0.129
0.310 0.140 -0.130
0.310 0.144 -0.131
0.300 0.142 -0.127
0.298 0.145 -0.126
0.301 0.149 -0.128
0.291 0.147 -0.123
0.291 0.151 -0.124
0.293 0.155 -0.125
0.295 0.159 -0.126
0.295 0.163 -0.127
0.290 0.163 -0.125
0.281 0.161 -0.121
0.282 0.165 -0.122
0.280 0.168 -0.122
0.279 0.170 -0.121
0.281 0.175 -0.122
0.282 0.178 -0.123
0.277 0.179 -0.122
0.276 0.181 -0.121
0.276 0.185 -0.122
0.270 0.184 -0.120
0.265 0.184 -0.118
0.266 0.188 -0.119
0.260 0.188 -0.116
0.257 0.189 -0.116
0.256 0.191 -0.115
0.271 0.218 -0.124
0.241 0.204 -0.112
0.235 0.202 -0.109
0.233 0.204 -0.109
0.239 0.213 -0.113
0.235 0.236 -0.115
0.322 -0.379 -0.158
0.327 -0.379 -0.159
0.322 -0.368 -0.156
0.335 -0.377 -0.162
0.334 -0.370 -0.161
0.327 -0.356 -0.156
0.326 -0.350 -0.155
0.333 -0.352 -0.158
0.335 -0.349 -0.158
0.333 -0.342 -0.156
0.329 -0.332 -0.154
0.334 -0.332 -0.155
0.331 -0.324 -0.153
0.325 -0.314 -0.150
0.327 -0.310 -0.150
0.329 -0.307 -0.150
0.328 -0.302 -0.150
0.326 -0.295 -0.148
0.327 -0.291 -0.148
0.324 -0.284 -0.146
0.321 -0.276 -0.144
0.322 -0.273 -0.144
0.322 -0.268 -0.143
0.319 -0.262 -0.141
0.318 -0.256 -0.140
0.318 -0.252 -0.140
0.319 -0.249 -0.140
0.320 -0.246 -0.140
0.320 -0.242 -0.139
0.323 -0.240 -0.140
0.320 -0.233 -0.138
0.314 -0.225 -0.135
0.314 -0.221 -0.135
0.311 -0.215 -0.133
0.308 -0.209 -0.131
0.305 -0.203 -0.130
0.212 -0.132 -0.089
0.210 -0.128 -0.088
0.210 -0.126 -0.088
0.210 -0.123 -0.088
0.299 -0.159 -0.123
0.305 -0.159 -0.126
0.308 -0.157 -0.126
0.311 -0.155 -0.128
0.313 -0.153 -0.128
0.317 -0.151 -0.129
0.320 -0.149 -0.130
0.324 -0.148 -0.132
0.327 -0.146 -0.133
0.332 -0.144 -0.134
0.336 -0.139 -0.136
0.352 -0.132 -0.142
0.358 -0.130 -0.144
0.367 -0.130 -0.147
0.373 -0.129 -0.149
0.380 -0.127 -0.152
0.383 -0.124 -0.153
0.386 -0.122 -0.154
0.389 -0.119 -0.155
0.397 -0.117 -0.158
1.302 -0.359 -0.517
1.311 -0.349 -0.520
1.321 -0.339 -0.523
0.370 -0.077 -0.146
0.361 -0.072 -0.143
0.298 -0.054 -0.117
0.293 -0.050 -0.115
0.293 -0.048 -0.115
0.291 -0.045 -0.114
0.287 -0.041 -0.113
0.292 -0.039 -0.115
0.303 -0.038 -0.119
0.303 -0.035 -0.119
0.303 -0.032 -0.119
0.293 -0.028 -0.115
0.293 -0.026 -0.115
0.294 -0.023 -0.115
0.301 -0.021 -0.118
0.302 -0.018 -0.118
0.305 -0.015 -0.119
0.302 -0.012 -0.118
0.301 -0.010 -0.118
0.304 -0.007 -0.119
0.304 -0.004 -0.119
0.295 -0.001 -0.116
0.294 0.001 -0.115
0.303 0.004 -0.119
0.316 0.007 -0.124
0.321 0.010 -0.126
0.317 0.013 -0.124
0.318 0.016 -0.125
0.329 0.020 -0.129
0.323 0.022 -0.126
0.318 0.025 -0.125
0.331 0.029 -0.130
0.335 0.033 -0.132
0.313 0.033 -0.123
0.314 0.036 -0.123
0.327 0.041 -0.129
0.328 0.044 -0.129
0.317 0.046 -0.125
0.318 0.049 -0.125
0.324 0.053 -0.128
0.328 0.057 -0.129
0.338 0.062 -0.134
0.297 0.062 -0.117
0.307 0.068 -0.122
0.319 0.073 -0.126
0.331 0.079 -0.132
0.337 0.084 -0.134
0.332 0.086 -0.132
0.321 0.086 -0.128
0.323 0.093 -0.129
0.326 0.097 -0.130
0.330 0.108 -0.132
0.323 0.109 -0.130
0.314 0.109 -0.127
0.322 0.115 -0.130
0.319 0.117 -0.129
0.324 0.122 -0.131
0.310 0.120 -0.126
0.312 0.124 -0.126
0.317 0.130 -0.129
0.318 0.134 -0.130
0.312 0.134 -0.127
0.303 0.134 -0.124
0.302 0.136 -0.124
0.303 0.140 -0.124
0.298 0.141 -0.123
0.302 0.146 -0.125
0.304 0.150 -0.126
0.294 0.149 -0.122
0.294 0.152 -0.122
0.293 0.155 -0.122
0.291 0.157 -0.121
0.288 0.158 -0.120
0.286 0.160 -0.120
0.287 0.165 -0.121
0.283 0.166 -0.119
0.284 0.170 -0.120
0.283 0.172 -0.120
0.282 0.175 -0.120
0.286 0.181 -0.122
0.292 0.188 -0.125
0.290 0.194 -0.125
0.262 0.178 -0.113
0.258 0.179 -0.112
0.268 0.190 -0.117
0.323 -0.395 -0.156
0.330 -0.398 -0.159
0.328 -0.390 -0.157
0.332 -0.390 -0.158
0.332 -0.384 -0.158
0.334 -0.381 -0.158
0.339 -0.381 -0.160
0.335 -0.371 -0.157
0.330 -0.359 -0.154
0.331 -0.355 -0.153
0.334 -0.352 -0.154
0.334 -0.348 -0.154
0.324 -0.332 -0.148
0.325 -0.327 -0.148
0.328 -0.326 -0.149
0.327 -0.320 -0.148
0.323 -0.311 -0.145
0.323 -0.306 -0.144
0.325 -0.303 -0.145
0.322 -0.295 -0.143
0.322 -0.291 -0.142
0.322 -0.286 -0.142
0.318 -0.278 -0.139
0.320 -0.275 -0.140
0.315 -0.267 -0.137
0.318 -0.264 -0.138
0.317 -0.260 -0.137
0.317 -0.255 -0.136
0.315 -0.249 -0.135
0.317 -0.247 -0.135
0.317 -0.243 -0.135
0.315 -0.237 -0.133
0.315 -0.233 -0.133
0.310 -0.226 -0.131
0.311 -0.222 -0.130
0.310 -0.218 -0.130
0.309 -0.214 -0.129
0.307 -0.208 -0.128
0.303 -0.202 -0.126
0.297 -0.194 -0.123
0.216 -0.134 -0.089
0.209 -0.127 -0.086
0.209 -0.124 -0.085
0.211 -0.123 -0.086
0.222 -0.127 -0.090
0.249 -0.140 -0.101
0.244 -0.135 -0.099
0.245 -0.132 -0.099
0.299 -0.155 -0.120
0.309 -0.157 -0.124
0.311 -0.155 -0.124
0.314 -0.153 -0.125
0.318 -0.151 -0.127
0.320 -0.149 -0.127
0.323 -0.147 -0.128
0.325 -0.145 -0.129
0.328 -0.143 -0.130
0.337 -0.143 -0.133
0.331 -0.137 -0.130
0.321 -0.123 -0.126
0.351 -0.131 -0.137
0.357 -0.130 -0.140
0.367 -0.130 -0.144
0.371 -0.128 -0.145
0.374 -0.125 -0.146
0.383 -0.124 -0.149
0.389 -0.122 -0.151
0.397 -0.121 -0.154
0.401 -0.118 -0.155
0.409 -0.117 -0.159
1.291 -0.344 -0.499
0.372 -0.078 -0.143
0.374 -0.075 -0.144
0.309 -0.056 -0.119
0.298 -0.051 -0.114
0.303 -0.049 -0.116
0.295 -0.045 -0.113
0.292 -0.042 -0.112
0.297 -0.040 -0.114
0.303 -0.038 -0.116
0.309 -0.036 -0.118
0.303 -0.032 -0.116
0.293 -0.028 -0.112
0.294 -0.026 -0.112
0.300 -0.023 -0.115
0.309 -0.021 -0.118
0.307 -0.018 -0.117
0.301 -0.015 -0.115
0.303 -0.013 -0.116
0.304 -0.010 -0.116
0.312 -0.007 -0.119
0.311 -0.004 -0.119
0.297 -0.001 -0.113
0.291 0.001 -0.111
0.300 0.004 -0.115
0.315 0.007 -0.120
0.316 0.010 -0.121
0.313 0.013 -0.120
0.319 0.016 -0.122
0.330 0.020 -0.126
0.323 0.022 -0.123
0.314 0.025 -0.120
0.314 0.028 -0.120
0.321 0.031 -0.123
0.319 0.034 -0.122
0.311 0.036 -0.119
0.312 0.039 -0.119
0.327 0.044 -0.125
0.317 0.046 -0.122
0.321 0.049 -0.123
0.337 0.058 -0.130
0.344 0.063 -0.132
0.317 0.070 -0.123
0.329 0.076 -0.127
0.333 0.080 -0.129
0.339 0.084 -0.131
0.325 0.084 -0.126
0.318 0.085 -0.123
0.321 0.089 -0.125
0.337 0.097 -0.131
0.333 0.099 -0.130
0.319 0.098 -0.124
0.333 0.106 -0.130
0.335 0.110 -0.131
0.331 0.112 -0.130
0.331 0.115 -0.130
0.328 0.117 -0.129
0.332 0.122 -0.131
0.324 0.122 -0.128
0.328 0.127 -0.129
0.322 0.128 -0.127
0.321 0.131 -0.127
0.319 0.134 -0.127
0.316 0.136 -0.126
0.310 0.136 -0.124
0.309 0.139 -0.124
0.304 0.140 -0.122
0.305 0.144 -0.122
0.306 0.148 -0.123
0.305 0.150 -0.123
0.301 0.152 -0.121
0.297 0.153 -0.120
0.296 0.156 -0.120
0.293 0.157 -0.119
0.288 0.158 -0.117
0.289 0.162 -0.118
0.294 0.172 -0.121
0.293 0.174 -0.121
0.326 -0.431 -0.157
0.333 -0.436 -0.160
0.319 -0.406 -0.152
0.333 -0.418 -0.158
0.339 -0.420 -0.160
0.337 -0.412 -0.159
0.331 -0.399 -0.155
0.333 -0.395 -0.155
0.334 -0.391 -0.155
0.333 -0.384 -0.154
0.331 -0.376 -0.152
0.330 -0.369 -0.151
0.328 -0.362 -0.150
0.328 -0.357 -0.149
0.329 -0.352 -0.149
0.330 -0.348 -0.148
0.327 -0.340 -0.146
0.323 -0.330 -0.144
0.323 -0.326 -0.143
0.326 -0.323 -0.144
0.326 -0.318 -0.143
0.321 -0.308 -0.140
0.321 -0.303 -0.140
0.321 -0.299 -0.139
0.322 -0.295 -0.139
0.320 -0.288 -0.138
0.319 -0.283 -0.137
0.319 -0.279 -0.136
0.317 -0.272 -0.135
0.320 -0.270 -0.135
0.313 -0.260 -0.132
0.315 -0.257 -0.132
0.314 -0.252 -0.131
0.314 -0.248 -0.131
0.313 -0.244 -0.130
0.313 -0.239 -0.130
0.312 -0.234 -0.129
0.309 -0.228 -0.127
0.309 -0.224 -0.127
0.308 -0.220 -0.126
0.309 -0.217 -0.126
0.308 -0.213 -0.125
0.305 -0.206 -0.124
0.303 -0.201 -0.122
0.297 -0.194 -0.119
0.217 -0.134 -0.087
0.209 -0.127 -0.083
0.208 -0.124 -0.083
0.209 -0.122 -0.083
0.217 -0.124 -0.086
0.246 -0.138 -0.097
0.244 -0.135 -0.096
0.245 -0.132 -0.096
0.250 -0.132 -0.098
0.307 -0.156 -0.120
0.311 -0.155 -0.121
0.315 -0.153 -0.122
0.318 -0.151 -0.123
0.322 -0.150 -0.125
0.321 -0.146 -0.124
0.324 -0.144 -0.125
0.326 -0.141 -0.126
0.294 -0.122 -0.113
0.352 -0.131 -0.134
0.360 -0.131 -0.137
0.365 -0.129 -0.139
0.370 -0.127 -0.141
0.375 -0.125 -0.142
0.380 -0.123 -0.144
0.387 -0.122 -0.147
0.395 -0.120 -0.149
0.403 -0.119 -0.152
0.408 -0.116 -0.154
0.416 -0.115 -0.157
0.383 -0.080 -0.144
0.386 -0.077 -0.144
0.292 -0.053 -0.109
0.300 -0.051 -0.112
0.297 -0.048 -0.111
0.292 -0.044 -0.109
0.293 -0.042 -0.110
0.297 -0.040 -0.111
0.305 -0.038 -0.114
0.300 -0.035 -0.112
0.297 -0.032 -0.111
0.296 -0.029 -0.110
0.300 -0.026 -0.112
0.307 -0.024 -0.114
0.308 -0.021 -0.115
0.305 -0.018 -0.114
0.298 -0.015 -0.111
0.294 -0.012 -0.109
0.296 -0.009 -0.110
0.304 -0.007 -0.113
0.309 -0.004 -0.115
0.297 0.001 -0.111
0.302 0.004 -0.112
0.311 0.007 -0.116
0.311 0.010 -0.116
0.315 0.013 -0.117
0.315 0.016 -0.117
0.322 0.019 -0.120
0.316 0.022 -0.118
0.313 0.025 -0.117
0.309 0.027 -0.115
0.317 0.031 -0.118
0.312 0.033 -0.116
0.309 0.036 -0.115
0.311 0.039 -0.116
0.317 0.046 -0.118
0.316 0.048 -0.118
0.327 0.053 -0.122
0.331 0.057 -0.124
0.320 0.058 -0.120
0.319 0.061 -0.120
0.307 0.062 -0.115
0.328 0.075 -0.124
0.327 0.078 -0.123
0.325 0.081 -0.123
0.315 0.081 -0.119
0.312 0.084 -0.118
0.316 0.088 -0.120
0.330 0.095 -0.125
0.327 0.100 -0.124
0.320 0.101 -0.122
0.337 0.110 -0.128
0.333 0.112 -0.127
0.336 0.116 -0.128
0.333 0.119 -0.128
0.327 0.120 -0.125
0.320 0.121 -0.123
0.325 0.126 -0.125
0.326 0.129 -0.126
0.324 0.132 -0.125
0.329 0.138 -0.127
0.319 0.137 -0.124
0.316 0.139 -0.123
0.312 0.140 -0.121
0.309 0.142 -0.120
0.312 0.147 -0.122
0.307 0.148 -0.120
0.304 0.150 -0.119
0.304 0.153 -0.120
0.309 0.159 -0.122
0.350 0.196 -0.139
0.351 0.201 -0.140
0.327 -0.438 -0.154
0.333 -0.441 -0.157
0.336 -0.438 -0.157
0.339 -0.436 -0.158
0.329 -0.419 -0.153
0.334 -0.418 -0.154
0.340 -0.420 -0.156
0.334 -0.407 -0.153
0.333 -0.401 -0.152
0.335 -0.397 -0.152
0.335 -0.391 -0.151
0.333 -0.383 -0.150
0.330 -0.375 -0.148
0.328 -0.366 -0.146
0.326 -0.360 -0.145
0.327 -0.354 -0.144
0.328 -0.351 -0.144
0.328 -0.345 -0.144
0.326 -0.337 -0.142
0.322 -0.329 -0.140
0.323 -0.325 -0.140
0.326 -0.322 -0.140
0.323 -0.315 -0.138
0.320 -0.307 -0.136
0.319 -0.301 -0.135
0.320 -0.297 -0.135
0.320 -0.292 -0.135
0.318 -0.286 -0.133
0.317 -0.281 -0.132
0.317 -0.276 -0.132
0.319 -0.273 -0.132
0.317 -0.267 -0.131
0.312 -0.259 -0.128
0.311 -0.254 -0.127
0.314 -0.252 -0.128
0.313 -0.247 -0.127
0.312 -0.242 -0.126
0.311 -0.237 -0.125
0.309 -0.232 -0.124
0.309 -0.228 -0.124
0.307 -0.223 -0.123
0.307 -0.218 -0.122
0.305 -0.214 -0.121
0.303 -0.208 -0.120
0.299 -0.202 -0.118
0.303 -0.201 -0.119
0.294 -0.192 -0.115
0.288 -0.184 -0.112
0.217 -0.134 -0.084
0.209 -0.127 -0.081
0.209 -0.124 -0.081
0.210 -0.122 -0.081
0.218 -0.125 -0.084
0.253 -0.142 -0.097
0.244 -0.134 -0.094
0.245 -0.132 -0.094
0.246 -0.130 -0.094
0.308 -0.156 -0.117
0.311 -0.154 -0.118
0.315 -0.153 -0.119
0.318 -0.151 -0.120
0.318 -0.148 -0.120
0.322 -0.146 -0.121
0.324 -0.144 -0.122
0.324 -0.140 -0.121
0.354 -0.132 -0.131
0.358 -0.130 -0.133
0.364 -0.129 -0.135
0.369 -0.126 -0.137
0.374 -0.125 -0.138
0.379 -0.122 -0.140
0.382 -0.120 -0.141
0.387 -0.118 -0.143
0.397 -0.117 -0.146
0.415 -0.118 -0.153
0.422 -0.116 -0.155
0.432 -0.115 -0.158
0.367 -0.080 -0.134
0.378 -0.079 -0.138
0.309 -0.056 -0.112
0.294 -0.050 -0.107
0.292 -0.047 -0.106
0.290 -0.044 -0.105
0.292 -0.042 -0.106
0.295 -0.039 -0.107
0.294 -0.037 -0.107
0.300 -0.035 -0.109
0.300 -0.032 -0.109
0.302 -0.029 -0.110
0.307 -0.027 -0.111
0.304 -0.024 -0.110
0.305 -0.021 -0.111
0.297 -0.018 -0.108
0.296 -0.015 -0.107
0.300 -0.012 -0.109
0.285 -0.009 -0.103
0.304 -0.007 -0.110
0.319 -0.004 -0.115
0.318 -0.001 -0.115
0.318 0.002 -0.115
0.322 0.004 -0.117
0.325 0.008 -0.118
0.320 0.010 -0.116
0.327 0.014 -0.118
0.327 0.017 -0.119
0.325 0.020 -0.118
0.321 0.022 -0.116
0.322 0.025 -0.117
0.320 0.028 -0.116
0.319 0.031 -0.116
0.314 0.033 -0.114
0.309 0.036 -0.112
0.321 0.040 -0.117
0.315 0.042 -0.115
0.314 0.048 -0.115
0.326 0.053 -0.119
0.315 0.054 -0.115
0.313 0.057 -0.114
0.319 0.061 -0.117
0.319 0.064 -0.117
0.312 0.065 -0.114
0.321 0.073 -0.118
0.309 0.077 -0.114
0.303 0.078 -0.112
0.307 0.082 -0.113
0.312 0.086 -0.115
0.320 0.092 -0.118
0.319 0.098 -0.118
0.320 0.101 -0.118
0.332 0.108 -0.123
0.329 0.111 -0.122
0.326 0.113 -0.121
0.331 0.118 -0.124
0.327 0.120 -0.122
0.320 0.121 -0.120
0.321 0.124 -0.120
0.329 0.131 -0.123
0.333 0.136 -0.125
0.334 0.140 -0.126
0.330 0.141 -0.125
0.324 0.142 -0.123
0.317 0.142 -0.120
0.320 0.147 -0.121
0.312 0.147 -0.119
0.313 0.151 -0.119
0.314 0.154 -0.120
0.341 0.175 -0.131
0.360 0.205 -0.140
0.331 -0.443 -0.152
0.329 -0.434 -0.150
0.337 -0.439 -0.153
0.332 -0.427 -0.150
0.329 -0.417 -0.148
0.330 -0.413 -0.148
0.330 -0.408 -0.148
0.328 -0.400 -0.146
0.333 -0.400 -0.148
0.335 -0.397 -0.148
0.333 -0.388 -0.146
0.332 -0.381 -0.145
0.331 -0.375 -0.144
0.329 -0.367 -0.143
0.327 -0.359 -0.141
0.327 -0.354 -0.140
0.327 -0.349 -0.140
0.328 -0.345 -0.140
0.324 -0.335 -0.137
0.320 -0.326 -0.135
0.320 -0.321 -0.134
0.322 -0.318 -0.135
0.319 -0.310 -0.133
0.319 -0.305 -0.132
0.319 -0.300 -0.131
0.316 -0.293 -0.130
0.315 -0.288 -0.129
0.315 -0.283 -0.128
0.314 -0.277 -0.127
0.314 -0.273 -0.127
0.315 -0.270 -0.127
0.313 -0.263 -0.125
0.312 -0.258 -0.125
0.312 -0.254 -0.124
0.313 -0.251 -0.124
0.311 -0.245 -0.123
0.309 -0.239 -0.122
0.308 -0.235 -0.121
0.309 -0.231 -0.121
0.307 -0.226 -0.120
0.303 -0.219 -0.118
0.303 -0.215 -0.117
0.302 -0.211 -0.117
0.298 -0.205 -0.115
0.300 -0.202 -0.115
0.299 -0.198 -0.114
0.296 -0.193 -0.113
0.290 -0.185 -0.110
0.277 -0.174 -0.105
0.209 -0.127 -0.079
0.208 -0.123 -0.078
0.208 -0.121 -0.078
0.216 -0.123 -0.081
0.249 -0.139 -0.093
0.246 -0.135 -0.092
0.244 -0.131 -0.091
0.245 -0.129 -0.091
0.257 -0.133 -0.095
0.307 -0.155 -0.114
0.313 -0.155 -0.115
0.315 -0.153 -0.116
0.318 -0.151 -0.117
0.319 -0.148 -0.117
0.319 -0.145 -0.117
0.324 -0.144 -0.118
0.323 -0.140 -0.118
0.293 -0.121 -0.107
0.299 -0.120 -0.109
0.350 -0.130 -0.127
0.358 -0.130 -0.129
0.363 -0.128 -0.131
0.367 -0.126 -0.132
0.369 -0.123 -0.133
0.375 -0.121 -0.135
0.380 -0.119 -0.136
0.395 -0.120 -0.141
0.410 -0.121 -0.147
0.419 -0.119 -0.150
0.424 -0.116 -0.152
0.435 -0.115 -0.155
0.440 -0.112 -0.157
0.375 -0.078 -0.133
0.366 -0.073 -0.130
0.292 -0.050 -0.104
0.291 -0.047 -0.103
0.295 -0.045 -0.104
0.297 -0.042 -0.105
0.293 -0.039 -0.104
0.294 -0.037 -0.104
0.298 -0.034 -0.105
0.302 -0.032 -0.107
0.300 -0.029 -0.106
0.298 -0.026 -0.105
0.303 -0.024 -0.107
0.291 -0.020 -0.103
0.285 -0.017 -0.101
0.294 -0.015 -0.104
0.307 -0.013 -0.108
0.329 -0.011 -0.116
0.327 -0.007 -0.115
0.326 -0.004 -0.115
0.324 -0.001 -0.114
0.327 0.002 -0.115
0.329 0.005 -0.116
0.326 0.008 -0.115
0.325 0.011 -0.115
0.334 0.014 -0.118
0.336 0.017 -0.119
0.324 0.019 -0.114
0.315 0.022 -0.111
0.319 0.025 -0.113
0.319 0.028 -0.113
0.320 0.031 -0.113
0.315 0.033 -0.112
0.320 0.037 -0.113
0.321 0.040 -0.113
0.318 0.043 -0.113
0.304 0.044 -0.108
0.307 0.047 -0.109
0.317 0.051 -0.112
0.321 0.055 -0.114
0.312 0.056 -0.111
0.323 0.062 -0.115
0.327 0.065 -0.117
0.312 0.065 -0.111
0.307 0.067 -0.109
0.314 0.072 -0.112
0.325 0.077 -0.116
0.314 0.078 -0.112
0.296 0.076 -0.106
0.313 0.087 -0.112
0.334 0.096 -0.120
0.329 0.098 -0.119
0.307 0.094 -0.111
0.321 0.101 -0.116
0.327 0.107 -0.118
0.322 0.108 -0.116
0.328 0.113 -0.119
0.331 0.118 -0.120
0.331 0.121 -0.120
0.321 0.121 -0.117
0.318 0.123 -0.116
0.331 0.145 -0.122
0.323 0.145 -0.119
0.334 0.157 -0.123
0.354 0.178 -0.132
0.327 -0.442 -0.146
0.332 -0.443 -0.148
0.328 -0.433 -0.146
0.326 -0.425 -0.144
0.327 -0.420 -0.144
0.326 -0.414 -0.143
0.325 -0.406 -0.142
0.325 -0.401 -0.142
0.328 -0.399 -0.142
0.327 -0.392 -0.141
0.334 -0.395 -0.144
0.332 -0.387 -0.142
0.329 -0.377 -0.140
0.329 -0.372 -0.139
0.329 -0.367 -0.139
0.326 -0.357 -0.137
0.325 -0.351 -0.136
0.326 -0.347 -0.135
0.324 -0.339 -0.134
0.322 -0.332 -0.132
0.318 -0.323 -0.130
0.317 -0.318 -0.130
0.318 -0.314 -0.129
0.315 -0.306 -0.127
0.316 -0.302 -0.127
0.317 -0.298 -0.127
0.317 -0.293 -0.127
0.315 -0.287 -0.125
0.310 -0.278 -0.123
0.312 -0.275 -0.123
0.312 -0.271 -0.123
0.312 -0.266 -0.122
0.312 -0.262 -0.122
0.312 -0.258 -0.121
0.313 -0.254 -0.121
0.311 -0.249 -0.120
0.307 -0.241 -0.118
0.306 -0.237 -0.117
0.307 -0.233 -0.117
0.306 -0.229 -0.116
0.304 -0.224 -0.115
0.299 -0.216 -0.113
0.298 -0.212 -0.112
0.296 -0.206 -0.111
0.295 -0.202 -0.110
0.296 -0.199 -0.110
0.294 -0.195 -0.109
0.288 -0.187 -0.107
0.287 -0.183 -0.106
0.209 -0.126 -0.077
0.207 -0.122 -0.076
0.207 -0.121 -0.076
0.209 -0.119 -0.076
0.248 -0.138 -0.090
0.243 -0.133 -0.088
0.243 -0.131 -0.088
0.245 -0.129 -0.088
0.249 -0.128 -0.090
0.298 -0.151 -0.107
0.309 -0.153 -0.111
0.315 -0.153 -0.113
0.318 -0.150 -0.114
0.320 -0.148 -0.114
0.321 -0.146 -0.115
0.321 -0.142 -0.114
0.323 -0.140 -0.115
0.299 -0.123 -0.106
0.299 -0.117 -0.106
0.304 -0.116 -0.107
0.345 -0.128 -0.121
0.352 -0.127 -0.124
0.363 -0.128 -0.127
0.364 -0.125 -0.128
0.366 -0.122 -0.128
0.370 -0.119 -0.129
0.384 -0.120 -0.134
0.404 -0.122 -0.141
0.410 -0.120 -0.143
0.415 -0.118 -0.144
0.422 -0.116 -0.147
0.434 -0.115 -0.151
0.443 -0.113 -0.154
0.394 -0.082 -0.136
0.384 -0.076 -0.133
0.296 -0.053 -0.102
0.294 -0.050 -0.101
0.293 -0.047 -0.101
0.299 -0.045 -0.103
0.298 -0.042 -0.103
0.296 -0.039 -0.102
0.292 -0.036 -0.100
0.296 -0.034 -0.102
0.297 -0.031 -0.102
0.293 -0.028 -0.101
0.298 -0.026 -0.102
0.292 -0.023 -0.100
0.292 -0.020 -0.100
0.292 -0.017 -0.100
0.304 -0.015 -0.104
0.329 -0.014 -0.113
0.313 -0.010 -0.107
0.322 -0.007 -0.110
0.324 -0.004 -0.111
0.329 -0.001 -0.113
0.334 0.002 -0.115
0.337 0.005 -0.115
0.329 0.008 -0.113
0.328 0.011 -0.113
0.335 0.014 -0.115
0.328 0.017 -0.113
0.303 0.018 -0.104
0.302 0.021 -0.104
0.321 0.025 -0.110
0.322 0.028 -0.111
0.320 0.031 -0.110
0.321 0.034 -0.110
0.327 0.038 -0.112
0.326 0.041 -0.112
0.309 0.041 -0.107
0.306 0.044 -0.106
0.307 0.047 -0.106
0.315 0.051 -0.109
0.311 0.053 -0.108
0.315 0.057 -0.109
0.320 0.061 -0.111
0.324 0.065 -0.112
0.322 0.067 -0.112
0.316 0.069 -0.110
0.317 0.072 -0.110
0.314 0.075 -0.109
0.327 0.081 -0.114
0.307 0.079 -0.107
0.307 0.082 -0.107
0.331 0.092 -0.116
0.337 0.096 -0.118
0.314 0.093 -0.110
0.303 0.093 -0.106
0.315 0.099 -0.111
0.326 0.106 -0.115
0.327 0.109 -0.115
0.330 0.114 -0.116
0.330 0.120 -0.117
0.324 0.121 -0.115
0.319 0.123 -0.113
0.334 0.146 -0.120
0.324 0.145 -0.116
0.327 -0.442 -0.142
0.329 -0.439 -0.143
0.334 -0.439 -0.144
0.328 -0.427 -0.141
0.326 -0.418 -0.140
0.321 -0.406 -0.137
0.324 -0.404 -0.138
0.325 -0.400 -0.138
0.323 -0.392 -0.136
0.328 -0.393 -0.138
0.327 -0.386 -0.136
0.327 -0.380 -0.136
0.324 -0.371 -0.134
0.325 -0.366 -0.134
0.326 -0.362 -0.133
0.324 -0.355 -0.132
0.324 -0.349 -0.131
0.322 -0.342 -0.130
0.316 -0.331 -0.127
0.317 -0.326 -0.127
0.314 -0.319 -0.125
0.314 -0.314 -0.125
0.317 -0.311 -0.125
0.316 -0.306 -0.124
0.313 -0.298 -0.122
0.315 -0.296 -0.123
0.317 -0.292 -0.123
0.314 -0.286 -0.121
0.311 -0.278 -0.120
0.309 -0.272 -0.118
0.309 -0.268 -0.118
0.311 -0.265 -0.118
0.311 -0.261 -0.118
0.311 -0.256 -0.117
0.309 -0.251 -0.116
0.306 -0.244 -0.115
0.304 -0.239 -0.114
0.304 -0.235 -0.113
0.305 -0.232 -0.113
0.306 -0.229 -0.113
0.300 -0.220 -0.110
0.296 -0.214 -0.109
0.292 -0.207 -0.107
0.289 -0.201 -0.105
0.230 -0.144 -0.082
0.237 -0.146 -0.085
0.210 -0.127 -0.075
0.208 -0.123 -0.074
0.208 -0.121 -0.074
0.209 -0.119 -0.074
0.232 -0.130 -0.082
0.244 -0.133 -0.086
0.244 -0.131 -0.086
0.245 -0.129 -0.086
0.247 -0.127 -0.087
0.310 -0.153 -0.108
0.312 -0.151 -0.109
0.317 -0.150 -0.110
0.321 -0.148 -0.111
0.323 -0.146 -0.112
0.323 -0.142 -0.111
0.333 -0.144 -0.115
0.292 -0.120 -0.100
0.359 -0.130 -0.123
0.363 -0.127 -0.124
0.363 -0.124 -0.124
0.365 -0.121 -0.124
0.378 -0.122 -0.128
0.395 -0.123 -0.134
0.406 -0.123 -0.138
0.410 -0.120 -0.139
0.414 -0.117 -0.140
0.423 -0.116 -0.143
0.432 -0.114 -0.146
0.440 -0.112 -0.148
0.449 -0.110 -0.151
0.388 -0.084 -0.130
0.390 -0.081 -0.131
0.385 -0.076 -0.129
0.300 -0.054 -0.101
0.291 -0.050 -0.097
0.291 -0.047 -0.097
0.293 -0.045 -0.098
0.293 -0.042 -0.098
0.292 -0.039 -0.098
0.291 -0.036 -0.097
0.296 -0.034 -0.099
0.298 -0.031 -0.100
0.300 -0.029 -0.100
0.295 -0.026 -0.098
0.298 -0.023 -0.099
0.307 -0.021 -0.103
0.303 -0.018 -0.101
0.315 -0.016 -0.105
0.313 -0.013 -0.104
0.305 -0.010 -0.102
0.307 -0.007 -0.102
0.318 -0.004 -0.106
0.327 -0.001 -0.109
0.340 0.002 -0.114
0.339 0.005 -0.113
0.328 0.008 -0.109
0.325 0.010 -0.108
0.323 0.013 -0.108
0.322 0.016 -0.107
0.300 0.018 -0.100
0.302 0.021 -0.101
0.313 0.025 -0.105
0.314 0.027 -0.105
0.317 0.031 -0.106
0.320 0.034 -0.107
0.324 0.037 -0.108
0.324 0.040 -0.109
0.305 0.041 -0.102
0.302 0.043 -0.101
0.313 0.048 -0.105
0.318 0.051 -0.107
0.316 0.054 -0.106
0.312 0.056 -0.105
