VERSION .7
FIELDS x y z
SIZE 4 4 4
TYPE F F F
COUNT 1 1 1
WIDTH     2587
HEIGHT 1
VIEWPOINT 0 0 0 1 0 0 0
POINTS     2587
DATA ascii
0.178 0.021 0.074
0.173 0.022 0.072
0.171 0.023 0.071
0.154 0.022 0.064
0.158 0.026 0.066
0.163 0.028 0.068
0.172 0.032 0.072
0.178 0.034 0.075
0.191 0.039 0.080
0.206 0.044 0.087
0.218 0.048 0.092
0.228 0.053 0.096
0.236 0.057 0.100
0.222 0.056 0.094
0.216 0.056 0.091
0.206 0.056 0.087
0.196 0.055 0.083
0.200 0.058 0.085
0.201 0.060 0.086
0.201 0.062 0.085
0.199 0.064 0.085
0.196 0.065 0.083
0.197 0.067 0.084
0.198 0.070 0.085
0.198 0.071 0.085
0.197 0.073 0.084
0.195 0.074 0.084
0.194 0.076 0.084
0.193 0.078 0.084
0.193 0.080 0.084
0.192 0.081 0.083
0.193 0.084 0.084
0.193 0.086 0.084
0.192 0.087 0.084
0.191 0.089 0.083
0.191 0.091 0.084
0.191 0.093 0.084
0.192 0.096 0.085
0.196 0.100 0.086
0.193 0.101 0.086
0.184 0.098 0.082
0.177 0.096 0.079
0.175 0.097 0.078
0.169 0.096 0.076
0.167 0.096 0.075
0.163 0.096 0.074
0.165 0.099 0.074
0.170 0.105 0.077
0.178 0.111 0.081
0.183 0.117 0.083
0.189 0.123 0.086
0.189 0.125 0.087
0.187 0.127 0.086
0.187 0.129 0.086
0.187 0.131 0.087
0.211 0.151 0.098
0.207 0.150 0.097
0.193 0.143 0.090
0.182 0.138 0.086
0.179 0.138 0.085
0.187 0.146 0.089
0.183 0.146 0.088
0.196 0.159 0.094
0.190 0.157 0.092
0.181 0.152 0.087
0.176 0.151 0.086
0.174 0.152 0.085
0.172 0.153 0.085
0.172 0.155 0.085
0.172 0.158 0.085
0.173 0.161 0.086
0.172 0.163 0.086
0.171 0.165 0.086
0.171 0.168 0.087
0.170 0.170 0.087
0.169 0.172 0.087
0.168 0.174 0.087
0.167 0.176 0.087
0.167 0.179 0.087
0.166 0.181 0.087
0.166 0.183 0.088
0.164 0.185 0.087
0.164 0.188 0.088
0.164 0.191 0.089
0.164 0.193 0.089
0.163 0.195 0.089
0.162 0.197 0.089
0.161 0.199 0.089
0.160 0.202 0.089
0.160 0.204 0.089
0.161 0.209 0.090
0.160 0.209 0.090
0.102 -0.134 0.057
0.103 -0.134 0.058
0.099 -0.126 0.055
0.100 -0.127 0.056
0.115 -0.143 0.063
0.123 -0.151 0.067
0.121 -0.146 0.066
0.123 -0.146 0.067
0.127 -0.149 0.069
0.131 -0.151 0.070
0.124 -0.141 0.066
0.123 -0.139 0.066
0.124 -0.138 0.066
0.124 -0.135 0.065
0.121 -0.130 0.063
0.119 -0.126 0.062
0.114 -0.119 0.059
0.112 -0.115 0.058
0.105 -0.106 0.054
0.105 -0.105 0.054
0.108 -0.106 0.055
0.110 -0.106 0.056
0.113 -0.108 0.057
0.116 -0.109 0.058
0.128 -0.117 0.064
0.189 -0.168 0.094
0.194 -0.170 0.096
0.195 -0.167 0.096
0.195 -0.165 0.095
0.195 -0.162 0.095
0.195 -0.159 0.095
0.194 -0.156 0.094
0.195 -0.155 0.094
0.196 -0.152 0.094
0.196 -0.150 0.094
0.195 -0.146 0.093
0.194 -0.143 0.092
0.193 -0.140 0.091
0.194 -0.138 0.091
0.194 -0.136 0.091
0.194 -0.134 0.091
0.195 -0.132 0.091
0.196 -0.130 0.091
0.197 -0.129 0.092
0.197 -0.126 0.091
0.196 -0.123 0.090
0.196 -0.121 0.090
0.197 -0.119 0.090
0.197 -0.117 0.090
0.199 -0.116 0.091
0.199 -0.113 0.090
0.200 -0.112 0.091
0.200 -0.109 0.090
0.200 -0.107 0.090
0.198 -0.104 0.089
0.199 -0.102 0.089
0.199 -0.100 0.089
0.200 -0.098 0.089
0.200 -0.096 0.089
0.200 -0.094 0.089
0.201 -0.093 0.089
0.202 -0.091 0.090
0.202 -0.089 0.089
0.202 -0.087 0.089
0.201 -0.084 0.088
0.201 -0.082 0.088
0.200 -0.080 0.088
0.202 -0.078 0.089
0.203 -0.077 0.089
0.203 -0.075 0.089
0.203 -0.073 0.089
0.204 -0.071 0.089
0.206 -0.070 0.090
0.207 -0.068 0.090
0.208 -0.066 0.090
0.208 -0.064 0.090
0.208 -0.062 0.090
0.207 -0.060 0.090
0.208 -0.058 0.090
0.209 -0.056 0.090
0.211 -0.055 0.091
0.209 -0.052 0.090
0.211 -0.051 0.091
0.211 -0.049 0.091
0.211 -0.046 0.090
0.211 -0.044 0.090
0.211 -0.042 0.090
0.211 -0.041 0.091
0.211 -0.038 0.090
0.210 -0.036 0.090
0.210 -0.034 0.090
0.209 -0.032 0.089
0.208 -0.030 0.089
0.210 -0.028 0.090
0.244 -0.031 0.104
0.244 -0.028 0.104
0.237 -0.025 0.101
0.228 -0.022 0.097
0.211 -0.019 0.090
0.184 -0.013 0.078
0.183 -0.011 0.078
0.177 -0.009 0.075
0.175 -0.007 0.075
0.176 -0.006 0.075
0.166 -0.004 0.071
0.167 -0.002 0.071
0.168 -0.001 0.072
0.168 0.001 0.072
0.174 0.002 0.074
0.176 0.004 0.075
0.184 0.006 0.078
0.175 0.007 0.075
0.166 0.009 0.071
0.165 0.010 0.070
0.167 0.012 0.071
0.172 0.014 0.073
0.171 0.015 0.073
0.170 0.017 0.073
0.169 0.018 0.072
0.163 0.019 0.070
0.158 0.020 0.068
0.154 0.021 0.066
0.149 0.022 0.064
0.135 0.021 0.058
0.151 0.025 0.065
0.146 0.026 0.063
0.185 0.036 0.080
0.198 0.040 0.085
0.207 0.044 0.089
0.213 0.047 0.092
0.217 0.050 0.093
0.219 0.053 0.095
0.217 0.055 0.094
0.214 0.056 0.093
0.202 0.055 0.088
0.193 0.054 0.084
0.192 0.056 0.083
0.197 0.059 0.086
0.197 0.061 0.086
0.197 0.063 0.086
0.196 0.065 0.086
0.196 0.067 0.086
0.196 0.069 0.086
0.196 0.071 0.086
0.195 0.073 0.086
0.193 0.074 0.085
0.191 0.075 0.084
0.191 0.077 0.085
0.191 0.079 0.085
0.190 0.081 0.084
0.190 0.082 0.084
0.190 0.085 0.085
0.189 0.086 0.085
0.188 0.088 0.084
0.189 0.090 0.085
0.190 0.093 0.085
0.198 0.099 0.090
0.196 0.100 0.089
0.190 0.099 0.086
0.181 0.097 0.082
0.166 0.091 0.076
0.161 0.090 0.074
0.162 0.092 0.074
0.159 0.092 0.073
0.164 0.097 0.076
0.173 0.104 0.080
0.181 0.111 0.084
0.184 0.115 0.086
0.184 0.118 0.086
0.188 0.122 0.088
0.185 0.123 0.087
0.184 0.125 0.087
0.184 0.127 0.087
0.183 0.129 0.087
0.197 0.141 0.094
0.204 0.149 0.098
0.186 0.138 0.089
0.177 0.134 0.085
0.172 0.132 0.083
0.170 0.134 0.083
0.173 0.138 0.085
0.185 0.150 0.091
0.185 0.153 0.091
0.178 0.150 0.088
0.175 0.150 0.087
0.173 0.151 0.087
0.170 0.151 0.086
0.169 0.152 0.085
0.168 0.155 0.086
0.168 0.157 0.086
0.168 0.160 0.087
0.168 0.163 0.087
0.168 0.165 0.087
0.168 0.168 0.088
0.166 0.169 0.087
0.165 0.171 0.087
0.165 0.174 0.088
0.165 0.177 0.088
0.165 0.180 0.089
0.164 0.182 0.089
0.162 0.183 0.089
0.161 0.185 0.088
0.162 0.188 0.089
0.162 0.191 0.090
0.161 0.193 0.090
0.160 0.195 0.090
0.159 0.197 0.090
0.158 0.199 0.090
0.158 0.202 0.090
0.157 0.204 0.090
0.125 -0.158 0.071
0.123 -0.154 0.070
0.129 -0.159 0.073
0.129 -0.156 0.072
0.125 -0.149 0.070
0.126 -0.148 0.070
0.130 -0.151 0.072
0.131 -0.150 0.072
0.125 -0.141 0.068
0.125 -0.138 0.068
0.125 -0.136 0.067
0.122 -0.132 0.066
0.120 -0.127 0.064
0.118 -0.124 0.063
0.115 -0.118 0.061
0.111 -0.113 0.059
0.109 -0.109 0.057
0.109 -0.107 0.057
0.110 -0.107 0.057
0.112 -0.106 0.058
0.115 -0.108 0.059
0.123 -0.114 0.063
0.185 -0.165 0.094
0.186 -0.163 0.094
0.189 -0.163 0.095
0.192 -0.162 0.096
0.192 -0.160 0.096
0.193 -0.158 0.096
0.192 -0.155 0.095
0.192 -0.152 0.095
0.194 -0.151 0.095
0.194 -0.148 0.095
0.192 -0.145 0.094
0.192 -0.142 0.093
0.191 -0.139 0.093
0.191 -0.137 0.092
0.191 -0.134 0.092
0.191 -0.132 0.092
0.191 -0.130 0.091
0.193 -0.128 0.092
0.194 -0.127 0.092
0.194 -0.124 0.092
0.194 -0.122 0.091
0.193 -0.119 0.091
0.193 -0.117 0.091
0.195 -0.116 0.091
0.194 -0.113 0.091
0.194 -0.111 0.090
0.194 -0.109 0.090
0.195 -0.107 0.090
0.196 -0.105 0.091
0.196 -0.103 0.091
0.197 -0.102 0.091
0.197 -0.099 0.090
0.196 -0.097 0.090
0.199 -0.096 0.091
0.198 -0.094 0.090
0.198 -0.091 0.090
0.199 -0.090 0.091
0.201 -0.089 0.091
0.199 -0.086 0.090
0.199 -0.084 0.090
0.199 -0.082 0.090
0.199 -0.079 0.090
0.200 -0.078 0.090
0.202 -0.077 0.091
0.201 -0.074 0.090
0.200 -0.072 0.089
0.200 -0.070 0.089
0.202 -0.068 0.090
0.204 -0.067 0.091
0.204 -0.065 0.091
0.205 -0.063 0.091
0.205 -0.061 0.091
0.205 -0.059 0.091
0.205 -0.057 0.091
0.205 -0.055 0.091
0.204 -0.053 0.090
0.206 -0.051 0.091
0.209 -0.050 0.092
0.209 -0.048 0.092
0.208 -0.046 0.092
0.210 -0.044 0.092
0.214 -0.043 0.094
0.213 -0.041 0.094
0.209 -0.038 0.092
0.207 -0.036 0.091
0.204 -0.033 0.089
0.205 -0.032 0.090
0.205 -0.030 0.090
0.220 -0.030 0.096
0.244 -0.031 0.107
0.243 -0.028 0.106
0.236 -0.025 0.103
0.173 -0.014 0.075
0.172 -0.012 0.075
0.174 -0.011 0.076
0.175 -0.009 0.076
0.175 -0.007 0.076
0.177 -0.006 0.077
0.175 -0.004 0.076
0.167 -0.002 0.073
0.165 -0.001 0.072
0.174 0.001 0.076
0.173 0.002 0.076
0.177 0.004 0.077
0.178 0.006 0.078
0.176 0.007 0.077
0.169 0.009 0.074
0.163 0.010 0.071
0.169 0.012 0.074
0.173 0.014 0.076
0.173 0.015 0.076
0.170 0.017 0.074
0.168 0.018 0.073
0.162 0.019 0.071
0.157 0.020 0.069
0.155 0.021 0.068
0.153 0.022 0.067
0.147 0.024 0.064
0.150 0.026 0.066
0.154 0.028 0.068
0.188 0.036 0.083
0.200 0.041 0.088
0.205 0.044 0.091
0.209 0.047 0.092
0.213 0.049 0.094
0.208 0.050 0.092
0.203 0.051 0.090
0.206 0.054 0.092
0.203 0.055 0.090
0.193 0.054 0.086
0.190 0.055 0.084
0.191 0.057 0.085
0.193 0.060 0.086
0.194 0.062 0.087
0.194 0.064 0.087
0.192 0.066 0.086
0.193 0.068 0.087
0.191 0.069 0.086
0.193 0.072 0.087
0.192 0.073 0.087
0.190 0.075 0.086
0.190 0.077 0.086
0.190 0.079 0.086
0.189 0.080 0.086
0.187 0.082 0.085
0.187 0.083 0.085
0.186 0.085 0.085
0.186 0.087 0.085
0.193 0.092 0.089
0.190 0.093 0.088
0.187 0.094 0.086
0.182 0.093 0.084
0.155 0.083 0.072
0.154 0.084 0.072
0.159 0.089 0.074
0.161 0.092 0.075
0.171 0.099 0.080
0.176 0.104 0.083
0.182 0.110 0.086
0.182 0.112 0.087
0.182 0.114 0.087
0.183 0.118 0.088
0.182 0.119 0.087
0.181 0.121 0.087
0.181 0.123 0.087
0.178 0.123 0.086
0.177 0.125 0.086
0.179 0.129 0.088
0.184 0.137 0.091
0.175 0.133 0.087
0.170 0.131 0.084
0.168 0.133 0.084
0.170 0.136 0.085
0.174 0.142 0.088
0.173 0.143 0.087
0.170 0.144 0.087
0.174 0.150 0.089
0.175 0.153 0.090
0.169 0.151 0.087
0.167 0.151 0.087
0.166 0.153 0.086
0.166 0.156 0.087
0.167 0.159 0.088
0.165 0.161 0.088
0.164 0.163 0.088
0.164 0.165 0.088
0.163 0.167 0.088
0.163 0.170 0.088
0.163 0.172 0.089
0.161 0.173 0.088
0.160 0.176 0.089
0.162 0.181 0.090
0.160 0.181 0.089
0.160 0.184 0.090
0.160 0.186 0.090
0.159 0.189 0.090
0.159 0.192 0.091
0.158 0.194 0.091
0.156 0.194 0.090
0.155 0.195 0.090
0.155 0.198 0.090
0.154 0.200 0.090
0.130 -0.167 0.076
0.127 -0.161 0.074
0.128 -0.160 0.074
0.130 -0.160 0.075
0.129 -0.157 0.074
0.125 -0.150 0.071
0.123 -0.146 0.070
0.126 -0.146 0.071
0.128 -0.147 0.072
0.127 -0.144 0.071
0.126 -0.140 0.070
0.126 -0.138 0.070
0.124 -0.134 0.068
0.122 -0.129 0.067
0.119 -0.125 0.065
0.117 -0.121 0.064
0.111 -0.113 0.060
0.109 -0.109 0.058
0.109 -0.107 0.058
0.110 -0.106 0.058
0.112 -0.107 0.059
0.115 -0.108 0.061
0.122 -0.113 0.064
0.179 -0.163 0.094
0.182 -0.163 0.095
0.185 -0.162 0.096
0.186 -0.161 0.096
0.188 -0.159 0.096
0.187 -0.156 0.096
0.188 -0.155 0.096
0.189 -0.152 0.096
0.190 -0.151 0.096
0.189 -0.147 0.095
0.190 -0.145 0.095
0.190 -0.143 0.095
0.189 -0.141 0.094
0.190 -0.138 0.094
0.189 -0.135 0.093
0.188 -0.132 0.093
0.188 -0.130 0.092
0.188 -0.128 0.092
0.189 -0.126 0.092
0.190 -0.125 0.092
0.191 -0.123 0.093
0.190 -0.120 0.092
0.189 -0.117 0.091
0.189 -0.115 0.091
0.190 -0.113 0.091
0.190 -0.111 0.091
0.191 -0.109 0.091
0.192 -0.108 0.091
0.193 -0.106 0.091
0.193 -0.104 0.091
0.194 -0.102 0.091
0.194 -0.100 0.091
0.194 -0.098 0.091
0.194 -0.096 0.091
0.193 -0.093 0.090
0.195 -0.092 0.091
0.195 -0.090 0.091
0.194 -0.088 0.090
0.194 -0.086 0.090
0.195 -0.084 0.090
0.197 -0.083 0.091
0.197 -0.081 0.091
0.197 -0.079 0.091
0.197 -0.077 0.091
0.197 -0.075 0.091
0.196 -0.072 0.090
0.196 -0.070 0.090
0.197 -0.069 0.090
0.199 -0.067 0.091
0.200 -0.066 0.091
0.201 -0.064 0.091
0.200 -0.062 0.091
0.201 -0.060 0.091
0.202 -0.058 0.091
0.202 -0.056 0.091
0.200 -0.054 0.091
0.201 -0.052 0.091
0.202 -0.050 0.091
0.203 -0.049 0.092
0.205 -0.047 0.092
0.214 -0.047 0.096
0.207 -0.044 0.093
0.207 -0.042 0.093
0.204 -0.039 0.092
0.201 -0.037 0.090
0.196 -0.034 0.088
0.197 -0.032 0.088
0.200 -0.031 0.090
0.204 -0.030 0.091
0.230 -0.031 0.103
0.241 -0.030 0.108
0.241 -0.028 0.108
0.228 -0.024 0.102
0.175 -0.015 0.078
0.170 -0.013 0.076
0.165 -0.012 0.074
0.166 -0.010 0.074
0.174 -0.009 0.078
0.173 -0.007 0.077
0.178 -0.006 0.079
0.178 -0.004 0.079
0.169 -0.002 0.076
0.168 -0.001 0.075
0.172 0.001 0.077
0.178 0.003 0.079
0.177 0.004 0.079
0.174 0.006 0.078
0.175 0.007 0.078
0.173 0.009 0.077
0.168 0.010 0.075
0.171 0.014 0.077
0.170 0.015 0.076
0.167 0.016 0.074
0.165 0.018 0.074
0.162 0.019 0.073
0.158 0.020 0.071
0.155 0.021 0.070
0.153 0.022 0.068
0.152 0.024 0.068
0.148 0.026 0.067
0.153 0.028 0.069
0.161 0.031 0.072
0.196 0.040 0.089
0.201 0.043 0.091
0.203 0.045 0.092
0.206 0.048 0.093
0.212 0.051 0.096
0.200 0.051 0.091
0.195 0.051 0.089
0.195 0.053 0.088
0.191 0.054 0.087
0.187 0.055 0.085
0.185 0.056 0.085
0.186 0.058 0.085
0.189 0.061 0.087
0.188 0.062 0.086
0.188 0.064 0.086
0.188 0.066 0.087
0.184 0.067 0.085
0.182 0.068 0.084
0.182 0.070 0.084
0.183 0.072 0.085
0.182 0.073 0.084
0.190 0.079 0.088
0.188 0.080 0.088
0.185 0.081 0.087
0.183 0.082 0.086
0.182 0.083 0.085
0.184 0.086 0.086
0.192 0.092 0.091
0.189 0.093 0.089
0.175 0.088 0.083
0.162 0.083 0.077
0.153 0.080 0.073
0.153 0.082 0.073
0.158 0.086 0.075
0.163 0.091 0.078
0.173 0.099 0.083
0.175 0.102 0.084
0.179 0.106 0.086
0.179 0.109 0.087
0.180 0.111 0.087
0.179 0.113 0.088
0.180 0.116 0.088
0.180 0.118 0.088
0.179 0.120 0.088
0.177 0.121 0.088
0.174 0.121 0.087
0.175 0.124 0.087
0.177 0.128 0.089
0.177 0.133 0.090
0.173 0.132 0.088
0.169 0.131 0.086
0.167 0.132 0.085
0.170 0.137 0.087
0.169 0.138 0.087
0.163 0.136 0.085
0.160 0.136 0.083
0.171 0.147 0.089
0.174 0.153 0.091
0.171 0.153 0.091
0.168 0.153 0.089
0.165 0.152 0.088
0.163 0.153 0.088
0.164 0.157 0.089
0.163 0.159 0.088
0.161 0.160 0.088
0.161 0.163 0.089
0.161 0.165 0.089
0.161 0.168 0.090
0.160 0.169 0.089
0.159 0.171 0.089
0.159 0.174 0.090
0.158 0.177 0.090
0.158 0.179 0.090
0.157 0.181 0.091
0.157 0.184 0.091
0.156 0.186 0.091
0.156 0.189 0.092
0.156 0.192 0.092
0.154 0.192 0.091
0.152 0.193 0.090
0.151 0.194 0.090
0.131 -0.168 0.078
0.128 -0.162 0.076
0.126 -0.158 0.075
0.127 -0.157 0.075
0.127 -0.155 0.075
0.124 -0.149 0.072
0.123 -0.145 0.071
0.124 -0.145 0.072
0.126 -0.145 0.072
0.127 -0.144 0.072
0.127 -0.142 0.072
0.126 -0.139 0.072
0.124 -0.135 0.070
0.121 -0.129 0.068
0.120 -0.126 0.067
0.118 -0.122 0.066
0.114 -0.116 0.063
0.111 -0.111 0.061
0.109 -0.107 0.059
0.110 -0.107 0.060
0.113 -0.108 0.061
0.115 -0.108 0.062
0.180 -0.164 0.096
0.182 -0.163 0.097
0.184 -0.162 0.097
0.185 -0.160 0.098
0.185 -0.158 0.097
0.186 -0.156 0.097
0.186 -0.153 0.097
0.186 -0.151 0.097
0.187 -0.149 0.097
0.187 -0.147 0.096
0.187 -0.144 0.096
0.187 -0.141 0.095
0.187 -0.139 0.095
0.185 -0.135 0.094
0.185 -0.133 0.094
0.185 -0.131 0.093
0.185 -0.128 0.093
0.186 -0.126 0.093
0.186 -0.124 0.093
0.187 -0.123 0.093
0.187 -0.120 0.093
0.187 -0.118 0.093
0.186 -0.115 0.092
0.186 -0.113 0.092
0.187 -0.111 0.091
0.187 -0.109 0.091
0.189 -0.108 0.092
0.189 -0.106 0.092
0.189 -0.104 0.092
0.190 -0.102 0.092
0.191 -0.101 0.092
0.192 -0.099 0.093
0.192 -0.097 0.092
0.191 -0.095 0.092
0.192 -0.093 0.092
0.191 -0.091 0.091
0.192 -0.089 0.092
0.191 -0.086 0.091
0.191 -0.084 0.091
0.192 -0.083 0.091
0.192 -0.081 0.091
0.194 -0.080 0.091
0.194 -0.078 0.091
0.195 -0.076 0.092
0.195 -0.074 0.091
0.195 -0.072 0.091
0.194 -0.070 0.091
0.195 -0.068 0.091
0.195 -0.066 0.091
0.196 -0.065 0.092
0.197 -0.063 0.092
0.196 -0.061 0.091
0.196 -0.059 0.091
0.197 -0.057 0.091
0.197 -0.055 0.091
0.197 -0.053 0.091
0.198 -0.051 0.091
0.200 -0.050 0.092
0.201 -0.048 0.093
0.217 -0.050 0.100
0.191 -0.042 0.088
0.189 -0.040 0.087
0.197 -0.040 0.091
0.196 -0.038 0.090
0.193 -0.035 0.088
0.194 -0.034 0.089
0.195 -0.032 0.089
0.197 -0.031 0.090
0.204 -0.030 0.093
0.222 -0.030 0.102
0.234 -0.030 0.107
0.233 -0.027 0.107
0.172 -0.017 0.078
0.170 -0.015 0.078
0.167 -0.013 0.076
0.166 -0.012 0.076
0.166 -0.010 0.076
0.167 -0.009 0.076
0.164 -0.007 0.075
0.163 -0.005 0.075
0.172 -0.004 0.078
0.170 -0.002 0.078
0.165 -0.001 0.076
0.167 0.001 0.076
0.169 0.002 0.077
0.172 0.004 0.078
0.164 0.005 0.075
0.170 0.007 0.078
0.171 0.009 0.078
0.169 0.010 0.077
0.165 0.012 0.075
0.161 0.013 0.073
0.163 0.015 0.074
0.164 0.016 0.075
0.164 0.018 0.075
0.161 0.019 0.074
0.158 0.020 0.072
0.148 0.020 0.068
0.152 0.022 0.070
0.151 0.024 0.069
0.150 0.025 0.069
0.147 0.027 0.068
0.154 0.030 0.071
0.180 0.037 0.083
0.193 0.041 0.089
0.197 0.044 0.091
0.200 0.047 0.093
0.200 0.049 0.093
0.190 0.048 0.088
0.186 0.049 0.086
0.187 0.051 0.087
0.188 0.053 0.088
0.184 0.054 0.086
0.181 0.055 0.085
0.186 0.058 0.087
0.187 0.061 0.088
0.186 0.062 0.087
0.184 0.063 0.087
0.184 0.065 0.087
0.182 0.066 0.086
0.180 0.067 0.085
0.179 0.069 0.085
0.178 0.070 0.084
0.177 0.072 0.084
0.173 0.072 0.082
0.169 0.072 0.081
0.171 0.075 0.081
0.171 0.077 0.082
0.174 0.080 0.084
0.183 0.086 0.088
0.187 0.090 0.090
0.179 0.088 0.086
0.165 0.083 0.080
0.150 0.077 0.073
0.152 0.080 0.074
0.158 0.085 0.077
0.167 0.092 0.082
0.171 0.096 0.084
0.173 0.099 0.085
0.174 0.102 0.086
0.176 0.105 0.087
0.176 0.107 0.088
0.176 0.109 0.088
0.176 0.112 0.088
0.176 0.113 0.088
0.177 0.116 0.089
0.176 0.118 0.089
0.174 0.119 0.088
0.172 0.119 0.087
0.173 0.122 0.088
0.175 0.126 0.090
0.181 0.133 0.093
0.180 0.135 0.093
0.174 0.133 0.090
0.164 0.128 0.086
0.164 0.130 0.086
0.169 0.136 0.089
0.168 0.138 0.089
0.160 0.134 0.085
0.161 0.137 0.086
0.161 0.140 0.086
0.163 0.143 0.088
0.166 0.149 0.090
0.168 0.153 0.091
0.171 0.158 0.093
0.165 0.155 0.091
0.160 0.154 0.089
0.160 0.156 0.089
0.159 0.158 0.089
0.158 0.160 0.089
0.159 0.164 0.090
0.158 0.166 0.090
0.158 0.168 0.090
0.157 0.170 0.090
0.157 0.173 0.091
0.155 0.173 0.090
0.154 0.176 0.090
0.155 0.179 0.091
0.155 0.182 0.092
0.154 0.184 0.092
0.153 0.186 0.092
0.153 0.188 0.092
0.151 0.189 0.092
0.150 0.190 0.091
0.149 0.192 0.091
0.127 -0.163 0.077
0.126 -0.160 0.076
0.125 -0.157 0.076
0.125 -0.155 0.075
0.127 -0.155 0.076
0.127 -0.153 0.076
0.125 -0.149 0.074
0.126 -0.148 0.075
0.127 -0.146 0.075
0.127 -0.144 0.074
0.127 -0.142 0.074
0.127 -0.140 0.073
0.124 -0.135 0.072
0.121 -0.130 0.070
0.120 -0.127 0.069
0.119 -0.124 0.068
0.118 -0.121 0.067
0.115 -0.115 0.065
0.109 -0.108 0.061
0.112 -0.109 0.062
0.113 -0.109 0.063
0.116 -0.110 0.064
0.180 -0.164 0.098
0.181 -0.163 0.099
0.182 -0.161 0.099
0.183 -0.159 0.099
0.183 -0.156 0.098
0.184 -0.154 0.098
0.186 -0.153 0.099
0.183 -0.149 0.097
0.184 -0.147 0.097
0.186 -0.146 0.098
0.184 -0.142 0.096
0.184 -0.140 0.096
0.183 -0.136 0.095
0.183 -0.134 0.095
0.183 -0.132 0.095
0.183 -0.130 0.094
0.183 -0.127 0.094
0.183 -0.125 0.094
0.184 -0.123 0.094
0.184 -0.121 0.094
0.184 -0.119 0.093
0.184 -0.116 0.093
0.184 -0.114 0.093
0.184 -0.112 0.093
0.185 -0.110 0.093
0.185 -0.108 0.092
0.185 -0.106 0.092
0.186 -0.105 0.093
0.186 -0.103 0.092
0.187 -0.101 0.092
0.188 -0.100 0.093
0.189 -0.098 0.093
0.187 -0.095 0.092
0.188 -0.094 0.092
0.189 -0.092 0.092
0.190 -0.090 0.093
0.189 -0.088 0.092
0.188 -0.085 0.092
0.189 -0.084 0.092
0.189 -0.082 0.091
0.190 -0.080 0.092
0.190 -0.078 0.092
0.190 -0.076 0.092
0.192 -0.075 0.092
0.193 -0.073 0.093
0.193 -0.072 0.093
0.193 -0.070 0.092
0.192 -0.067 0.092
0.191 -0.065 0.091
0.191 -0.063 0.091
0.192 -0.061 0.091
0.192 -0.060 0.092
0.193 -0.058 0.091
0.193 -0.056 0.092
0.193 -0.054 0.091
0.193 -0.052 0.091
0.194 -0.051 0.092
0.203 -0.051 0.096
0.205 -0.050 0.097
0.186 -0.043 0.088
0.184 -0.041 0.087
0.189 -0.040 0.089
0.192 -0.039 0.090
0.192 -0.037 0.090
0.194 -0.036 0.091
0.205 -0.036 0.096
0.203 -0.033 0.095
0.200 -0.031 0.094
0.202 -0.029 0.095
0.212 -0.029 0.099
0.225 -0.029 0.105
0.224 -0.026 0.105
0.188 -0.020 0.088
0.177 -0.017 0.083
0.168 -0.015 0.079
0.169 -0.013 0.079
0.169 -0.012 0.079
0.167 -0.010 0.078
0.162 -0.008 0.076
0.158 -0.007 0.074
0.156 -0.005 0.073
0.161 -0.004 0.075
0.169 -0.002 0.079
0.168 -0.001 0.078
0.165 0.001 0.077
0.163 0.002 0.076
0.163 0.004 0.076
0.167 0.006 0.078
0.163 0.007 0.076
0.166 0.009 0.077
0.169 0.010 0.079
0.165 0.012 0.077
0.158 0.013 0.074
0.157 0.014 0.074
0.163 0.016 0.076
0.165 0.018 0.077
0.161 0.019 0.075
0.157 0.020 0.074
0.154 0.021 0.072
0.150 0.022 0.071
0.147 0.023 0.069
0.153 0.026 0.072
0.149 0.026 0.070
0.145 0.027 0.068
0.147 0.029 0.069
0.182 0.039 0.086
0.194 0.044 0.092
0.194 0.045 0.092
0.189 0.046 0.090
0.185 0.047 0.088
0.182 0.048 0.086
0.181 0.049 0.086
0.173 0.049 0.082
0.174 0.051 0.083
0.175 0.053 0.083
0.176 0.055 0.084
0.174 0.056 0.083
0.172 0.057 0.083
0.174 0.060 0.084
0.177 0.063 0.085
0.178 0.065 0.086
0.177 0.066 0.085
0.175 0.068 0.085
0.174 0.069 0.084
0.173 0.070 0.084
0.172 0.072 0.084
0.168 0.072 0.082
0.171 0.075 0.083
0.171 0.077 0.084
0.175 0.080 0.086
0.179 0.084 0.088
0.160 0.077 0.079
0.153 0.076 0.076
0.149 0.075 0.074
0.148 0.076 0.073
0.156 0.082 0.078
0.163 0.088 0.082
0.171 0.094 0.086
0.172 0.097 0.087
0.172 0.099 0.087
0.172 0.101 0.087
0.173 0.104 0.088
0.173 0.106 0.088
0.173 0.108 0.088
0.173 0.109 0.088
0.172 0.111 0.088
0.172 0.113 0.089
0.171 0.115 0.088
0.171 0.117 0.088
0.169 0.118 0.088
0.167 0.119 0.087
0.169 0.122 0.088
0.170 0.126 0.090
0.179 0.135 0.095
0.164 0.125 0.087
0.163 0.127 0.087
0.165 0.131 0.088
0.165 0.134 0.089
0.164 0.135 0.089
0.163 0.137 0.089
0.160 0.136 0.087
0.157 0.136 0.086
0.157 0.138 0.086
0.158 0.142 0.088
0.161 0.147 0.090
0.167 0.156 0.094
0.168 0.160 0.095
0.165 0.159 0.093
0.160 0.156 0.091
0.157 0.157 0.090
0.156 0.158 0.090
0.156 0.161 0.090
0.156 0.164 0.091
0.156 0.166 0.091
0.155 0.169 0.091
0.153 0.169 0.091
0.153 0.172 0.091
0.151 0.173 0.091
0.151 0.176 0.091
0.152 0.179 0.092
0.152 0.181 0.092
0.149 0.182 0.092
0.149 0.184 0.092
0.149 0.186 0.092
0.148 0.188 0.092
0.125 -0.159 0.078
0.124 -0.156 0.077
0.124 -0.154 0.076
0.125 -0.153 0.077
0.127 -0.153 0.078
0.128 -0.152 0.078
0.128 -0.150 0.077
0.128 -0.148 0.077
0.128 -0.146 0.077
0.127 -0.142 0.075
0.127 -0.140 0.075
0.125 -0.136 0.074
0.123 -0.132 0.072
0.122 -0.129 0.072
0.122 -0.127 0.071
0.120 -0.123 0.069
0.120 -0.121 0.069
0.116 -0.115 0.067
0.112 -0.109 0.064
0.113 -0.108 0.064
0.163 -0.152 0.092
0.177 -0.162 0.099
0.178 -0.160 0.099
0.180 -0.159 0.100
0.178 -0.155 0.098
0.179 -0.154 0.099
0.181 -0.153 0.099
0.181 -0.150 0.099
0.181 -0.147 0.098
0.180 -0.144 0.098
0.180 -0.142 0.097
0.181 -0.140 0.097
0.180 -0.137 0.096
0.180 -0.134 0.096
0.181 -0.133 0.096
0.181 -0.131 0.096
0.180 -0.128 0.095
0.179 -0.125 0.094
0.181 -0.124 0.095
0.182 -0.122 0.095
0.182 -0.120 0.095
0.181 -0.117 0.094
0.182 -0.115 0.094
0.182 -0.113 0.094
0.182 -0.111 0.093
0.182 -0.109 0.093
0.182 -0.107 0.093
0.183 -0.105 0.093
0.183 -0.104 0.093
0.184 -0.102 0.093
0.184 -0.100 0.093
0.185 -0.098 0.094
0.187 -0.097 0.094
0.184 -0.094 0.093
0.184 -0.092 0.092
0.185 -0.090 0.093
0.186 -0.089 0.093
0.185 -0.086 0.092
0.186 -0.085 0.093
0.187 -0.083 0.093
0.188 -0.081 0.093
0.187 -0.079 0.092
0.187 -0.077 0.092
0.187 -0.075 0.092
0.188 -0.074 0.093
0.189 -0.072 0.093
0.190 -0.071 0.093
0.191 -0.069 0.093
0.190 -0.067 0.093
0.187 -0.064 0.091
0.188 -0.062 0.091
0.189 -0.061 0.092
0.190 -0.059 0.092
0.190 -0.057 0.092
0.189 -0.055 0.092
0.189 -0.053 0.092
0.190 -0.052 0.092
0.191 -0.050 0.092
0.201 -0.051 0.097
0.183 -0.044 0.088
0.176 -0.041 0.085
0.186 -0.041 0.090
0.189 -0.040 0.091
0.190 -0.039 0.092
0.191 -0.037 0.092
0.191 -0.035 0.091
0.198 -0.034 0.095
0.216 -0.036 0.103
0.210 -0.033 0.100
0.202 -0.029 0.097
0.201 -0.027 0.096
0.214 -0.027 0.102
0.220 -0.026 0.105
0.176 -0.017 0.084
0.171 -0.015 0.082
0.171 -0.014 0.082
0.168 -0.012 0.080
0.166 -0.010 0.079
0.163 -0.008 0.078
0.164 -0.007 0.078
0.166 -0.005 0.079
0.153 -0.004 0.073
0.170 -0.002 0.081
0.172 -0.001 0.082
0.166 0.001 0.079
0.162 0.002 0.077
0.161 0.004 0.077
0.162 0.005 0.077
0.164 0.007 0.078
0.167 0.009 0.080
0.170 0.011 0.081
0.165 0.012 0.079
0.157 0.013 0.075
0.159 0.014 0.076
0.166 0.017 0.079
0.166 0.018 0.079
0.161 0.019 0.077
0.156 0.020 0.075
0.153 0.021 0.073
0.148 0.022 0.071
0.149 0.023 0.072
0.152 0.025 0.073
0.155 0.027 0.074
0.148 0.028 0.071
0.150 0.029 0.072
0.151 0.031 0.073
0.187 0.040 0.090
0.189 0.043 0.091
0.189 0.044 0.091
0.186 0.045 0.090
0.182 0.046 0.088
0.181 0.048 0.088
0.179 0.049 0.087
0.177 0.050 0.086
0.177 0.052 0.086
0.178 0.054 0.087
0.176 0.055 0.086
0.173 0.056 0.085
0.172 0.058 0.084
0.172 0.059 0.085
0.173 0.061 0.085
0.175 0.064 0.086
0.173 0.065 0.086
0.172 0.067 0.085
0.171 0.068 0.085
0.171 0.070 0.085
0.170 0.071 0.085
0.172 0.074 0.086
0.166 0.073 0.083
0.173 0.078 0.087
0.173 0.080 0.087
0.161 0.076 0.081
0.148 0.072 0.075
0.150 0.074 0.076
0.151 0.076 0.077
0.163 0.084 0.083
0.167 0.088 0.085
0.169 0.091 0.086
0.171 0.094 0.087
0.171 0.096 0.088
0.170 0.098 0.087
0.169 0.099 0.087
0.170 0.102 0.088
0.169 0.103 0.088
0.170 0.106 0.089
0.169 0.108 0.088
0.169 0.109 0.089
0.168 0.111 0.088
0.167 0.113 0.088
0.166 0.114 0.088
0.165 0.116 0.088
0.165 0.117 0.088
0.165 0.120 0.089
0.165 0.122 0.089
0.171 0.129 0.093
0.164 0.126 0.089
0.162 0.127 0.089
0.160 0.128 0.088
0.159 0.129 0.088
0.160 0.132 0.088
0.160 0.135 0.089
0.160 0.137 0.089
0.159 0.139 0.089
0.155 0.138 0.088
0.155 0.140 0.088
0.158 0.145 0.090
0.158 0.148 0.091
0.161 0.153 0.093
0.163 0.158 0.095
0.164 0.161 0.096
0.163 0.163 0.095
0.156 0.159 0.092
0.154 0.159 0.091
0.153 0.161 0.091
0.152 0.163 0.091
0.151 0.164 0.091
0.151 0.167 0.092
0.150 0.169 0.092
0.150 0.172 0.092
0.149 0.173 0.092
0.149 0.176 0.092
0.147 0.177 0.092
0.147 0.179 0.092
0.146 0.181 0.092
0.147 0.184 0.093
0.147 0.187 0.093
0.126 -0.161 0.080
0.128 -0.161 0.081
0.125 -0.155 0.079
0.125 -0.153 0.078
0.127 -0.153 0.079
0.128 -0.152 0.079
0.129 -0.151 0.080
0.129 -0.149 0.079
0.129 -0.147 0.079
0.129 -0.145 0.079
0.127 -0.141 0.077
0.126 -0.138 0.076
0.125 -0.135 0.075
0.125 -0.132 0.075
0.125 -0.131 0.074
0.125 -0.128 0.074
0.125 -0.126 0.073
0.121 -0.121 0.071
0.117 -0.115 0.068
0.173 -0.161 0.099
0.173 -0.159 0.099
0.174 -0.157 0.099
0.174 -0.155 0.099
0.174 -0.152 0.098
0.176 -0.151 0.099
0.177 -0.150 0.099
0.178 -0.148 0.099
0.178 -0.145 0.099
0.178 -0.143 0.098
0.178 -0.141 0.098
0.178 -0.138 0.098
0.178 -0.135 0.097
0.178 -0.133 0.097
0.178 -0.131 0.097
0.178 -0.129 0.096
0.178 -0.126 0.096
0.177 -0.124 0.095
0.178 -0.122 0.095
0.180 -0.121 0.096
0.179 -0.118 0.095
0.179 -0.116 0.095
0.179 -0.114 0.095
0.179 -0.112 0.094
0.179 -0.110 0.094
0.178 -0.107 0.093
0.178 -0.105 0.093
0.180 -0.104 0.094
0.181 -0.103 0.094
0.182 -0.101 0.094
0.182 -0.099 0.094
0.181 -0.096 0.093
0.182 -0.095 0.094
0.182 -0.093 0.093
0.181 -0.090 0.093
0.181 -0.088 0.093
0.182 -0.087 0.093
0.183 -0.085 0.093
0.183 -0.083 0.093
0.185 -0.082 0.094
0.185 -0.080 0.094
0.185 -0.078 0.093
0.185 -0.076 0.093
0.185 -0.075 0.093
0.186 -0.073 0.093
0.185 -0.071 0.093
0.183 -0.068 0.092
0.186 -0.067 0.093
0.183 -0.064 0.092
0.181 -0.062 0.090
0.184 -0.061 0.092
0.186 -0.060 0.093
0.188 -0.058 0.093
0.187 -0.056 0.093
0.186 -0.054 0.092
0.184 -0.052 0.091
0.186 -0.050 0.092
0.198 -0.052 0.098
0.184 -0.047 0.091
0.174 -0.042 0.086
0.184 -0.043 0.091
0.186 -0.041 0.091
0.187 -0.040 0.092
0.188 -0.038 0.092
0.188 -0.036 0.092
0.187 -0.034 0.092
0.193 -0.034 0.094
0.218 -0.036 0.107
0.217 -0.034 0.106
0.193 -0.028 0.094
0.179 -0.024 0.087
0.183 -0.023 0.089
0.212 -0.025 0.104
0.202 -0.022 0.099
0.179 -0.018 0.087
0.171 -0.015 0.084
0.172 -0.014 0.084
0.169 -0.012 0.083
0.166 -0.010 0.081
0.165 -0.008 0.080
0.172 -0.007 0.084
0.168 -0.005 0.082
0.166 -0.004 0.081
0.161 -0.002 0.078
0.171 -0.001 0.084
0.171 0.001 0.083
0.164 0.002 0.080
0.161 0.004 0.078
0.160 0.005 0.078
0.161 0.007 0.079
0.164 0.009 0.080
0.167 0.010 0.082
0.160 0.011 0.078
0.156 0.013 0.076
0.159 0.014 0.077
0.164 0.016 0.080
0.163 0.018 0.080
0.158 0.019 0.077
0.154 0.020 0.076
0.150 0.021 0.073
0.149 0.022 0.073
0.148 0.023 0.073
0.152 0.025 0.075
0.153 0.027 0.075
0.154 0.029 0.076
0.148 0.029 0.073
0.150 0.031 0.074
0.159 0.034 0.078
0.182 0.041 0.090
0.184 0.043 0.091
0.177 0.043 0.088
0.177 0.045 0.088
0.178 0.047 0.088
0.176 0.048 0.087
0.176 0.050 0.087
0.175 0.052 0.087
0.174 0.053 0.087
0.173 0.054 0.086
0.172 0.056 0.086
0.172 0.058 0.086
0.172 0.059 0.086
0.172 0.061 0.086
0.172 0.063 0.087
0.173 0.065 0.087
0.172 0.067 0.087
0.170 0.068 0.086
0.176 0.072 0.089
0.171 0.072 0.087
0.171 0.073 0.087
0.170 0.075 0.087
0.163 0.074 0.083
0.163 0.076 0.084
0.149 0.071 0.077
0.147 0.071 0.076
0.150 0.074 0.077
0.162 0.082 0.084
0.165 0.085 0.085
0.166 0.088 0.087
0.167 0.090 0.087
0.168 0.093 0.088
0.169 0.095 0.089
0.167 0.096 0.088
0.166 0.098 0.088
0.167 0.100 0.088
0.168 0.103 0.089
0.165 0.103 0.088
0.166 0.106 0.089
0.165 0.107 0.088
0.165 0.109 0.089
0.164 0.111 0.089
0.163 0.112 0.088
0.162 0.114 0.088
0.161 0.115 0.088
0.162 0.118 0.089
0.161 0.119 0.089
0.161 0.122 0.089
0.164 0.127 0.091
0.160 0.126 0.089
0.156 0.125 0.088
0.155 0.126 0.087
0.155 0.128 0.088
0.156 0.132 0.089
0.159 0.136 0.091
0.159 0.139 0.091
0.156 0.139 0.090
0.155 0.140 0.090
0.154 0.142 0.090
0.153 0.144 0.090
0.151 0.144 0.089
0.154 0.150 0.091
0.159 0.157 0.095
0.158 0.159 0.095
0.157 0.160 0.095
0.153 0.159 0.093
0.151 0.159 0.092
0.148 0.159 0.091
0.148 0.162 0.092
0.149 0.165 0.092
0.148 0.167 0.092
0.148 0.169 0.093
0.147 0.171 0.093
0.145 0.172 0.092
0.144 0.173 0.092
0.143 0.175 0.092
0.145 0.180 0.093
0.145 0.183 0.094
0.128 -0.161 0.082
0.129 -0.160 0.083
0.128 -0.157 0.082
0.128 -0.155 0.082
0.129 -0.154 0.082
0.129 -0.151 0.081
0.129 -0.149 0.081
0.128 -0.147 0.080
0.128 -0.145 0.080
0.127 -0.141 0.079
0.126 -0.138 0.078
0.126 -0.136 0.077
0.127 -0.134 0.077
0.127 -0.133 0.077
0.128 -0.132 0.078
0.129 -0.131 0.078
0.127 -0.127 0.076
0.167 -0.161 0.099
0.170 -0.161 0.100
0.171 -0.160 0.101
0.172 -0.158 0.100
0.172 -0.156 0.100
0.173 -0.154 0.100
0.173 -0.151 0.100
0.173 -0.149 0.100
0.175 -0.148 0.100
0.175 -0.146 0.100
0.175 -0.144 0.100
0.176 -0.142 0.100
0.176 -0.139 0.099
0.176 -0.137 0.099
0.176 -0.134 0.098
0.175 -0.132 0.098
0.174 -0.128 0.096
0.174 -0.126 0.096
0.175 -0.125 0.097
0.175 -0.122 0.096
0.175 -0.120 0.096
0.176 -0.119 0.096
0.177 -0.117 0.096
0.176 -0.114 0.095
0.176 -0.112 0.095
0.176 -0.110 0.095
0.177 -0.108 0.095
0.177 -0.107 0.095
0.176 -0.104 0.094
0.178 -0.103 0.095
0.179 -0.102 0.095
0.179 -0.100 0.095
0.179 -0.097 0.094
0.178 -0.095 0.094
0.179 -0.093 0.094
0.179 -0.092 0.094
0.179 -0.089 0.093
0.177 -0.087 0.093
0.179 -0.086 0.093
0.181 -0.084 0.094
0.179 -0.082 0.093
0.181 -0.081 0.094
0.182 -0.079 0.094
0.182 -0.077 0.094
0.182 -0.076 0.094
0.183 -0.074 0.094
0.182 -0.072 0.094
0.181 -0.069 0.093
0.180 -0.067 0.092
0.182 -0.066 0.093
0.182 -0.064 0.093
0.181 -0.062 0.092
0.182 -0.060 0.093
0.183 -0.059 0.093
0.184 -0.057 0.093
0.185 -0.056 0.094
0.181 -0.053 0.092
0.181 -0.051 0.092
0.187 -0.051 0.094
0.187 -0.049 0.094
0.176 -0.044 0.088
0.182 -0.044 0.091
0.183 -0.043 0.092
0.184 -0.041 0.093
0.184 -0.039 0.092
0.185 -0.038 0.093
0.185 -0.036 0.093
0.184 -0.034 0.092
0.183 -0.032 0.092
0.210 -0.035 0.105
0.213 -0.033 0.106
0.175 -0.024 0.088
0.181 -0.023 0.090
0.203 -0.024 0.101
0.205 -0.022 0.102
0.169 -0.015 0.084
0.170 -0.014 0.085
0.172 -0.012 0.086
0.168 -0.010 0.084
0.168 -0.009 0.084
0.166 -0.007 0.083
0.168 -0.005 0.084
0.162 -0.004 0.081
0.163 -0.002 0.081
0.166 -0.001 0.083
0.162 0.001 0.081
0.159 0.002 0.079
0.160 0.004 0.080
0.158 0.005 0.079
0.157 0.007 0.078
0.159 0.008 0.079
0.155 0.010 0.078
0.155 0.011 0.077
0.155 0.013 0.077
0.155 0.014 0.077
0.157 0.016 0.079
0.157 0.017 0.079
0.157 0.019 0.078
0.153 0.020 0.077
0.154 0.021 0.077
0.152 0.022 0.076
0.149 0.023 0.075
0.151 0.025 0.076
0.151 0.027 0.076
0.150 0.028 0.075
0.148 0.029 0.074
0.148 0.031 0.075
0.154 0.033 0.078
0.176 0.040 0.089
0.176 0.041 0.089
0.170 0.042 0.086
0.172 0.044 0.087
0.164 0.044 0.083
0.172 0.047 0.087
0.173 0.050 0.088
0.174 0.051 0.088
0.173 0.053 0.088
0.172 0.054 0.088
0.172 0.056 0.088
0.171 0.057 0.087
0.170 0.059 0.087
0.170 0.061 0.087
0.171 0.063 0.088
0.172 0.065 0.088
0.172 0.067 0.089
0.174 0.069 0.090
0.170 0.070 0.088
0.169 0.071 0.088
0.168 0.072 0.087
0.166 0.073 0.086
0.152 0.069 0.080
0.147 0.068 0.077
0.148 0.070 0.078
0.153 0.074 0.080
0.161 0.080 0.085
0.162 0.083 0.086
0.163 0.085 0.086
0.165 0.087 0.088
0.165 0.090 0.088
0.165 0.091 0.088
0.164 0.093 0.088
0.164 0.095 0.088
0.164 0.097 0.088
0.164 0.099 0.089
0.163 0.100 0.089
0.162 0.102 0.088
0.161 0.103 0.088
0.162 0.105 0.089
0.163 0.108 0.090
0.162 0.110 0.090
0.161 0.111 0.089
0.159 0.112 0.088
0.158 0.114 0.088
0.158 0.116 0.089
0.158 0.118 0.089
0.158 0.120 0.089
0.160 0.124 0.091
0.159 0.125 0.091
0.155 0.124 0.089
0.153 0.124 0.088
0.152 0.127 0.088
0.154 0.131 0.090
0.155 0.133 0.090
0.157 0.137 0.092
0.154 0.138 0.091
0.153 0.139 0.091
0.153 0.141 0.091
0.145 0.136 0.087
0.143 0.137 0.086
0.150 0.146 0.091
0.147 0.145 0.089
0.145 0.146 0.089
0.146 0.150 0.090
0.147 0.153 0.091
0.148 0.157 0.092
0.147 0.159 0.092
0.145 0.160 0.092
0.146 0.163 0.093
0.146 0.165 0.093
0.144 0.166 0.092
0.144 0.168 0.093
0.144 0.171 0.093
0.143 0.173 0.093
0.144 0.176 0.094
0.144 0.179 0.095
0.144 0.182 0.095
0.124 -0.156 0.081
0.127 -0.158 0.083
0.131 -0.161 0.085
0.130 -0.158 0.085
0.129 -0.155 0.084
0.130 -0.154 0.084
0.129 -0.150 0.083
0.127 -0.146 0.081
0.125 -0.142 0.080
0.125 -0.140 0.079
0.125 -0.138 0.079
0.127 -0.138 0.080
0.129 -0.137 0.080
0.130 -0.136 0.081
0.131 -0.135 0.081
0.132 -0.135 0.081
0.164 -0.161 0.100
0.166 -0.161 0.101
0.168 -0.160 0.102
0.169 -0.158 0.102
0.170 -0.157 0.101
0.171 -0.155 0.102
0.172 -0.154 0.102
0.172 -0.151 0.102
0.172 -0.148 0.101
0.172 -0.146 0.101
0.172 -0.144 0.100
0.174 -0.143 0.101
0.174 -0.141 0.101
0.174 -0.138 0.100
0.173 -0.135 0.099
0.172 -0.132 0.099
0.172 -0.129 0.098
0.172 -0.127 0.098
0.173 -0.126 0.098
0.173 -0.123 0.097
0.172 -0.120 0.096
0.173 -0.119 0.097
0.174 -0.118 0.097
0.174 -0.115 0.096
0.173 -0.112 0.096
0.172 -0.110 0.095
0.174 -0.109 0.096
0.174 -0.107 0.095
0.174 -0.105 0.095
0.176 -0.104 0.096
0.175 -0.102 0.096
0.176 -0.100 0.096
0.177 -0.098 0.096
0.176 -0.096 0.095
0.175 -0.094 0.094
0.175 -0.092 0.094
0.176 -0.090 0.094
0.175 -0.088 0.093
0.175 -0.086 0.093
0.175 -0.084 0.093
0.175 -0.082 0.093
0.176 -0.081 0.093
0.177 -0.079 0.094
0.177 -0.077 0.094
0.178 -0.076 0.094
0.179 -0.074 0.094
0.179 -0.072 0.094
0.179 -0.070 0.094
0.178 -0.068 0.093
0.178 -0.066 0.093
0.179 -0.065 0.093
0.180 -0.064 0.094
0.181 -0.062 0.094
0.179 -0.060 0.093
0.178 -0.058 0.092
0.180 -0.056 0.093
0.181 -0.055 0.094
0.179 -0.052 0.093
0.180 -0.051 0.093
0.189 -0.052 0.098
0.181 -0.048 0.093
0.181 -0.046 0.093
0.179 -0.043 0.092
0.182 -0.042 0.093
0.181 -0.041 0.093
0.181 -0.039 0.093
0.182 -0.037 0.093
0.183 -0.036 0.094
0.182 -0.034 0.093
0.181 -0.032 0.092
0.201 -0.033 0.103
0.204 -0.032 0.104
0.197 -0.029 0.101
0.180 -0.025 0.092
0.184 -0.023 0.094
0.196 -0.023 0.100
0.205 -0.022 0.104
0.176 -0.017 0.090
0.168 -0.015 0.086
0.174 -0.014 0.088
0.171 -0.012 0.087
0.170 -0.010 0.087
0.169 -0.009 0.086
0.166 -0.007 0.085
0.159 -0.005 0.081
0.165 -0.004 0.084
0.167 -0.002 0.085
0.161 -0.001 0.082
0.154 0.001 0.078
0.153 0.002 0.078
0.154 0.004 0.078
0.156 0.005 0.079
0.155 0.007 0.079
0.155 0.008 0.079
0.154 0.010 0.078
0.152 0.011 0.077
0.153 0.012 0.078
0.151 0.014 0.077
0.149 0.015 0.076
0.152 0.017 0.078
0.155 0.018 0.079
0.159 0.021 0.081
0.157 0.022 0.080
0.156 0.023 0.080
0.153 0.024 0.079
0.150 0.025 0.077
0.152 0.027 0.078
0.148 0.028 0.076
0.147 0.029 0.075
0.150 0.031 0.077
0.156 0.034 0.080
0.169 0.038 0.087
0.171 0.040 0.088
0.166 0.041 0.086
0.164 0.042 0.085
0.164 0.044 0.085
0.163 0.045 0.085
0.163 0.047 0.085
0.164 0.048 0.085
0.166 0.051 0.086
0.171 0.054 0.089
0.171 0.056 0.089
0.169 0.057 0.089
0.167 0.058 0.088
0.168 0.060 0.088
0.170 0.062 0.089
0.170 0.064 0.090
0.171 0.066 0.090
0.172 0.069 0.091
0.169 0.069 0.089
0.165 0.069 0.088
0.160 0.069 0.085
0.153 0.068 0.082
0.147 0.067 0.078
0.146 0.068 0.078
0.154 0.073 0.083
0.159 0.077 0.086
0.161 0.080 0.087
0.161 0.082 0.087
0.162 0.084 0.088
0.163 0.087 0.088
0.163 0.089 0.089
0.162 0.090 0.088
0.161 0.092 0.088
0.161 0.093 0.089
0.161 0.095 0.089
0.161 0.097 0.089
0.161 0.099 0.089
0.159 0.100 0.088
0.158 0.102 0.088
0.158 0.103 0.089
0.159 0.106 0.089
0.160 0.109 0.090
0.157 0.109 0.089
0.156 0.110 0.089
0.156 0.112 0.089
0.156 0.115 0.090
0.156 0.116 0.090
0.156 0.119 0.090
0.154 0.119 0.089
0.160 0.127 0.094
0.153 0.123 0.090
0.152 0.124 0.089
0.154 0.128 0.091
0.152 0.129 0.090
0.150 0.129 0.089
0.150 0.132 0.090
0.151 0.135 0.091
0.151 0.137 0.091
0.148 0.137 0.090
0.149 0.141 0.092
0.140 0.135 0.086
0.141 0.137 0.087
0.140 0.139 0.087
0.133 0.135 0.083
0.141 0.145 0.089
0.145 0.151 0.092
0.156 0.166 0.099
0.152 0.165 0.098
0.145 0.159 0.093
0.140 0.157 0.091
0.144 0.164 0.094
0.148 0.171 0.097
0.148 0.173 0.097
0.146 0.173 0.096
0.143 0.173 0.095
0.142 0.175 0.095
0.142 0.178 0.096
0.126 -0.158 0.084
0.128 -0.158 0.085
0.129 -0.157 0.085
0.128 -0.154 0.085
0.129 -0.152 0.085
0.130 -0.152 0.086
0.127 -0.146 0.083
0.127 -0.144 0.082
0.124 -0.139 0.080
0.126 -0.139 0.081
0.129 -0.139 0.082
0.132 -0.141 0.084
0.135 -0.142 0.086
0.140 -0.145 0.089
0.159 -0.162 0.100
0.163 -0.164 0.102
0.164 -0.162 0.102
0.164 -0.160 0.102
0.166 -0.159 0.102
0.166 -0.156 0.102
0.166 -0.154 0.102
0.169 -0.154 0.103
0.170 -0.153 0.103
0.170 -0.150 0.103
0.170 -0.147 0.102
0.168 -0.143 0.101
0.169 -0.142 0.101
0.170 -0.140 0.101
0.170 -0.137 0.100
0.170 -0.135 0.100
0.170 -0.133 0.099
0.170 -0.130 0.099
0.170 -0.128 0.099
0.171 -0.127 0.099
0.171 -0.125 0.099
0.171 -0.122 0.098
0.170 -0.120 0.097
0.171 -0.118 0.098
0.171 -0.116 0.098
0.169 -0.112 0.096
0.170 -0.111 0.096
0.170 -0.109 0.096
0.170 -0.107 0.096
0.171 -0.105 0.096
0.171 -0.104 0.096
0.171 -0.102 0.096
0.172 -0.100 0.096
0.173 -0.098 0.096
0.172 -0.096 0.095
0.172 -0.094 0.095
0.172 -0.092 0.095
0.173 -0.091 0.095
0.173 -0.089 0.095
0.173 -0.087 0.094
0.173 -0.085 0.094
0.173 -0.083 0.094
0.173 -0.081 0.094
0.174 -0.080 0.094
0.174 -0.078 0.094
0.175 -0.076 0.094
0.174 -0.074 0.094
0.174 -0.073 0.094
0.175 -0.071 0.094
0.176 -0.069 0.094
0.176 -0.068 0.094
0.176 -0.066 0.094
0.176 -0.064 0.094
0.179 -0.063 0.095
0.178 -0.061 0.094
0.175 -0.058 0.093
0.175 -0.057 0.093
0.177 -0.056 0.094
0.178 -0.054 0.094
0.177 -0.052 0.093
0.182 -0.052 0.096
0.185 -0.051 0.098
0.181 -0.048 0.095
0.175 -0.045 0.092
0.179 -0.044 0.094
0.178 -0.042 0.093
0.179 -0.040 0.094
0.179 -0.038 0.094
0.178 -0.037 0.093
0.180 -0.035 0.094
0.180 -0.033 0.094
0.179 -0.032 0.094
0.201 -0.033 0.105
0.204 -0.032 0.106
0.197 -0.029 0.103
0.176 -0.024 0.092
0.178 -0.023 0.093
0.191 -0.023 0.100
0.200 -0.022 0.104
0.178 -0.018 0.092
0.172 -0.015 0.090
0.172 -0.014 0.089
0.173 -0.012 0.090
0.175 -0.011 0.091
0.174 -0.009 0.090
0.161 -0.007 0.084
0.157 -0.005 0.082
0.168 -0.004 0.087
0.166 -0.002 0.086
0.160 -0.001 0.083
0.153 0.001 0.080
0.150 0.002 0.078
0.155 0.004 0.081
0.155 0.005 0.080
0.156 0.007 0.081
0.159 0.008 0.083
0.157 0.010 0.082
0.155 0.011 0.081
0.153 0.012 0.080
0.148 0.014 0.077
0.148 0.015 0.077
0.148 0.016 0.077
0.153 0.018 0.080
0.157 0.020 0.082
0.157 0.022 0.082
0.157 0.023 0.082
0.154 0.024 0.081
0.152 0.026 0.080
0.151 0.027 0.079
0.150 0.028 0.079
0.148 0.029 0.078
0.152 0.031 0.080
0.159 0.034 0.083
0.163 0.037 0.086
0.166 0.039 0.087
0.167 0.041 0.088
0.164 0.042 0.087
0.164 0.044 0.087
0.163 0.045 0.086
0.162 0.047 0.086
0.162 0.048 0.086
0.161 0.049 0.085
0.159 0.051 0.085
0.159 0.052 0.085
0.164 0.055 0.087
0.165 0.057 0.088
0.166 0.060 0.089
0.168 0.062 0.090
0.167 0.064 0.090
0.166 0.065 0.089
0.165 0.066 0.089
0.165 0.068 0.089
0.158 0.067 0.085
0.151 0.065 0.082
0.146 0.065 0.079
0.147 0.067 0.080
0.152 0.071 0.083
0.157 0.075 0.086
0.159 0.078 0.087
0.159 0.080 0.088
0.159 0.081 0.088
0.160 0.084 0.089
0.159 0.085 0.088
0.159 0.087 0.089
0.159 0.089 0.089
0.158 0.090 0.089
0.158 0.092 0.089
0.159 0.095 0.090
0.158 0.096 0.089
0.157 0.097 0.089
0.157 0.099 0.089
0.156 0.101 0.089
0.157 0.103 0.090
0.156 0.104 0.090
0.156 0.106 0.090
0.155 0.108 0.090
0.154 0.109 0.089
0.153 0.110 0.089
0.154 0.113 0.090
0.153 0.114 0.090
0.151 0.116 0.089
0.152 0.118 0.090
0.150 0.119 0.089
0.160 0.129 0.096
0.154 0.127 0.093
0.155 0.130 0.094
0.152 0.129 0.092
0.146 0.127 0.089
0.145 0.128 0.089
0.148 0.133 0.091
0.151 0.138 0.093
0.148 0.138 0.092
0.143 0.135 0.089
0.146 0.141 0.092
0.137 0.134 0.087
0.135 0.134 0.086
0.140 0.142 0.089
0.141 0.146 0.091
0.142 0.149 0.092
0.148 0.158 0.097
0.149 0.161 0.097
0.146 0.161 0.096
0.143 0.160 0.095
0.147 0.167 0.098
0.147 0.171 0.099
0.151 0.178 0.102
0.149 0.178 0.101
0.139 0.169 0.095
0.139 0.171 0.095
0.137 0.171 0.094
0.124 -0.155 0.084
0.127 -0.156 0.086
0.126 -0.153 0.085
0.125 -0.151 0.085
0.127 -0.151 0.086
0.128 -0.150 0.086
0.129 -0.149 0.086
0.128 -0.145 0.085
0.128 -0.144 0.085
0.127 -0.140 0.084
0.129 -0.140 0.085
0.138 -0.148 0.090
0.154 -0.163 0.100
0.157 -0.163 0.101
0.160 -0.163 0.103
0.161 -0.162 0.103
0.163 -0.161 0.103
0.163 -0.159 0.103
0.164 -0.157 0.103
0.165 -0.156 0.103
0.166 -0.154 0.103
0.166 -0.151 0.103
0.166 -0.149 0.103
0.167 -0.147 0.103
0.166 -0.144 0.102
0.166 -0.142 0.101
0.167 -0.140 0.101
0.168 -0.139 0.102
0.168 -0.136 0.101
0.168 -0.134 0.101
0.168 -0.132 0.100
0.167 -0.129 0.100
0.168 -0.127 0.100
0.167 -0.124 0.099
0.167 -0.122 0.099
0.168 -0.121 0.099
0.168 -0.119 0.098
0.168 -0.116 0.098
0.166 -0.113 0.096
0.166 -0.111 0.096
0.167 -0.110 0.097
0.168 -0.108 0.097
0.168 -0.106 0.097
0.168 -0.104 0.096
0.168 -0.102 0.096
0.168 -0.100 0.096
0.169 -0.099 0.096
0.169 -0.097 0.096
0.169 -0.095 0.095
0.169 -0.093 0.095
0.170 -0.092 0.096
0.171 -0.090 0.096
0.171 -0.088 0.095
0.170 -0.085 0.095
0.170 -0.084 0.095
0.170 -0.082 0.095
0.171 -0.080 0.095
0.171 -0.079 0.094
0.172 -0.077 0.095
0.172 -0.075 0.095
0.172 -0.074 0.095
0.172 -0.072 0.095
0.173 -0.070 0.095
0.174 -0.069 0.095
0.174 -0.067 0.095
0.173 -0.065 0.094
0.173 -0.063 0.094
0.173 -0.061 0.094
0.173 -0.059 0.094
0.172 -0.058 0.093
0.173 -0.056 0.094
0.175 -0.055 0.094
0.175 -0.053 0.094
0.175 -0.051 0.094
0.180 -0.051 0.097
0.181 -0.050 0.097
0.178 -0.047 0.096
0.173 -0.044 0.093
0.175 -0.043 0.094
0.177 -0.041 0.095
0.176 -0.040 0.094
0.176 -0.038 0.094
0.176 -0.036 0.094
0.176 -0.034 0.094
0.177 -0.033 0.094
0.175 -0.031 0.093
0.180 -0.030 0.096
0.206 -0.032 0.110
0.202 -0.030 0.108
0.173 -0.024 0.092
0.171 -0.022 0.091
0.173 -0.021 0.092
0.181 -0.018 0.096
0.173 -0.016 0.092
0.169 -0.014 0.090
0.172 -0.012 0.091
0.177 -0.011 0.094
0.170 -0.009 0.090
0.165 -0.007 0.087
0.165 -0.005 0.088
0.163 -0.004 0.086
0.162 -0.002 0.086
0.160 -0.001 0.085
0.158 0.001 0.084
0.156 0.002 0.083
0.156 0.004 0.083
0.154 0.005 0.082
0.152 0.007 0.080
0.155 0.008 0.082
0.156 0.010 0.083
0.156 0.011 0.083
0.156 0.013 0.083
0.153 0.014 0.082
0.148 0.015 0.079
0.150 0.017 0.080
0.153 0.018 0.081
0.156 0.020 0.083
0.157 0.022 0.084
0.151 0.023 0.080
0.154 0.024 0.082
0.152 0.026 0.081
0.150 0.027 0.080
0.149 0.028 0.080
0.149 0.030 0.080
0.151 0.031 0.081
0.156 0.034 0.084
0.162 0.037 0.087
0.165 0.039 0.089
0.164 0.041 0.088
0.165 0.042 0.089
0.165 0.044 0.089
0.164 0.046 0.089
0.163 0.047 0.088
0.163 0.048 0.088
0.160 0.049 0.087
0.159 0.050 0.086
0.156 0.051 0.085
0.155 0.053 0.085
0.155 0.054 0.084
0.155 0.056 0.085
0.165 0.061 0.091
0.165 0.063 0.090
0.164 0.064 0.090
0.162 0.065 0.089
0.157 0.065 0.087
0.147 0.062 0.082
0.144 0.063 0.080
0.142 0.063 0.079
0.150 0.069 0.084
0.154 0.072 0.086
0.157 0.075 0.088
0.158 0.077 0.088
0.157 0.079 0.089
0.157 0.081 0.089
0.157 0.082 0.089
0.157 0.084 0.089
0.157 0.086 0.089
0.157 0.088 0.089
0.156 0.089 0.089
0.156 0.091 0.089
0.155 0.092 0.089
0.155 0.094 0.090
0.155 0.096 0.090
0.155 0.098 0.090
0.154 0.099 0.090
0.154 0.101 0.090
0.155 0.104 0.091
0.154 0.105 0.091
0.153 0.107 0.090
0.152 0.108 0.090
0.151 0.110 0.090
0.151 0.112 0.091
0.150 0.113 0.090
0.150 0.115 0.091
0.148 0.116 0.090
0.148 0.117 0.090
0.150 0.122 0.092
0.155 0.128 0.095
0.154 0.129 0.095
0.152 0.130 0.094
0.146 0.127 0.091
0.144 0.127 0.090
0.146 0.132 0.092
0.149 0.136 0.094
0.145 0.135 0.092
0.141 0.134 0.091
0.138 0.134 0.089
0.135 0.133 0.088
0.135 0.135 0.088
0.138 0.141 0.090
0.142 0.147 0.093
0.141 0.149 0.094
0.142 0.153 0.095
0.144 0.157 0.097
0.145 0.160 0.097
0.143 0.161 0.097
0.144 0.165 0.098
0.145 0.169 0.099
0.149 0.175 0.102
0.153 0.184 0.106
0.152 0.185 0.105
0.125 -0.155 0.087
0.127 -0.155 0.088
0.127 -0.153 0.087
0.126 -0.150 0.086
0.127 -0.149 0.087
0.129 -0.149 0.088
0.129 -0.147 0.087
0.128 -0.144 0.087
0.153 -0.167 0.102
0.154 -0.165 0.102
0.156 -0.165 0.103
0.158 -0.164 0.104
0.158 -0.162 0.104
0.159 -0.161 0.104
0.160 -0.159 0.104
0.161 -0.157 0.104
0.162 -0.156 0.104
0.163 -0.155 0.105
0.164 -0.153 0.105
0.164 -0.150 0.104
0.164 -0.148 0.103
0.164 -0.145 0.103
0.164 -0.143 0.103
0.164 -0.141 0.102
0.165 -0.139 0.102
0.165 -0.137 0.102
0.167 -0.136 0.103
0.166 -0.133 0.102
0.165 -0.130 0.101
0.165 -0.128 0.101
0.165 -0.125 0.100
0.166 -0.124 0.100
0.165 -0.121 0.099
0.165 -0.119 0.099
0.165 -0.117 0.099
0.165 -0.115 0.098
0.164 -0.112 0.097
0.164 -0.110 0.097
0.165 -0.109 0.097
0.166 -0.107 0.097
0.166 -0.105 0.097
0.166 -0.103 0.097
0.166 -0.101 0.097
0.167 -0.099 0.097
0.167 -0.097 0.097
0.167 -0.096 0.096
0.167 -0.094 0.096
0.167 -0.092 0.096
0.168 -0.090 0.096
0.169 -0.089 0.096
0.167 -0.086 0.096
0.167 -0.085 0.095
0.168 -0.083 0.095
0.169 -0.081 0.096
0.168 -0.079 0.095
0.169 -0.078 0.095
0.169 -0.076 0.095
0.168 -0.074 0.094
0.169 -0.073 0.095
0.170 -0.071 0.095
0.170 -0.069 0.095
0.170 -0.067 0.095
0.169 -0.065 0.094
0.170 -0.064 0.095
0.170 -0.062 0.095
0.170 -0.061 0.094
0.171 -0.059 0.095
0.171 -0.057 0.094
0.172 -0.056 0.095
0.172 -0.054 0.095
0.172 -0.052 0.095
0.175 -0.052 0.096
0.178 -0.051 0.098
0.177 -0.049 0.097
0.173 -0.046 0.095
0.170 -0.043 0.093
0.172 -0.042 0.094
0.172 -0.040 0.094
0.172 -0.039 0.094
0.173 -0.037 0.094
0.173 -0.036 0.094
0.174 -0.034 0.095
0.173 -0.032 0.094
0.172 -0.030 0.094
0.175 -0.029 0.095
0.203 -0.032 0.110
0.200 -0.030 0.109
0.161 -0.022 0.088
0.165 -0.021 0.090
0.171 -0.020 0.092
0.173 -0.019 0.094
0.190 -0.019 0.103
0.177 -0.016 0.096
0.167 -0.013 0.091
0.160 -0.011 0.087
0.163 -0.010 0.088
0.167 -0.009 0.090
0.174 -0.007 0.094
0.171 -0.006 0.093
0.166 -0.004 0.090
0.160 -0.002 0.086
0.157 -0.001 0.085
0.157 0.001 0.085
0.159 0.002 0.086
0.155 0.004 0.084
0.152 0.005 0.082
0.151 0.007 0.082
0.152 0.008 0.082
0.152 0.010 0.082
0.153 0.011 0.083
0.154 0.013 0.083
0.152 0.014 0.082
0.149 0.015 0.081
0.149 0.017 0.081
0.152 0.018 0.082
0.154 0.020 0.084
0.154 0.022 0.084
0.155 0.023 0.084
0.153 0.024 0.084
0.152 0.026 0.083
0.149 0.027 0.081
0.147 0.028 0.080
0.147 0.029 0.080
0.148 0.031 0.081
0.154 0.034 0.084
0.162 0.037 0.089
0.164 0.039 0.090
0.164 0.041 0.090
0.164 0.042 0.090
0.164 0.044 0.090
0.163 0.045 0.090
0.163 0.047 0.090
0.162 0.048 0.089
0.161 0.050 0.089
0.161 0.051 0.089
0.156 0.051 0.086
0.155 0.053 0.086
0.156 0.054 0.087
0.161 0.058 0.090
0.158 0.059 0.089
0.163 0.062 0.091
0.165 0.065 0.093
0.162 0.065 0.091
0.152 0.063 0.086
0.145 0.062 0.082
0.139 0.060 0.078
0.148 0.066 0.084
0.152 0.069 0.086
0.153 0.072 0.087
0.156 0.075 0.089
0.156 0.077 0.089
0.156 0.078 0.089
0.155 0.080 0.089
0.155 0.082 0.090
0.155 0.083 0.090
0.155 0.085 0.090
0.153 0.086 0.089
0.155 0.089 0.090
0.154 0.090 0.090
0.153 0.092 0.090
0.153 0.093 0.090
0.153 0.095 0.090
0.153 0.097 0.091
0.152 0.099 0.091
0.152 0.100 0.091
0.151 0.102 0.090
0.149 0.103 0.090
0.150 0.105 0.091
0.149 0.106 0.090
0.149 0.108 0.090
0.148 0.109 0.090
0.147 0.111 0.090
0.148 0.114 0.091
0.147 0.115 0.091
0.146 0.116 0.091
0.145 0.118 0.091
0.145 0.120 0.091
0.153 0.129 0.097
0.149 0.128 0.094
0.145 0.126 0.092
0.144 0.128 0.092
0.144 0.130 0.093
0.142 0.131 0.092
0.143 0.134 0.093
0.144 0.137 0.094
0.139 0.135 0.092
0.136 0.135 0.090
0.135 0.136 0.090
0.135 0.138 0.091
0.140 0.146 0.094
0.140 0.148 0.095
0.141 0.152 0.096
0.140 0.153 0.096
0.142 0.158 0.098
0.137 0.155 0.095
0.138 0.158 0.096
0.137 0.159 0.095
0.142 0.168 0.100
0.149 0.179 0.105
0.148 0.181 0.105
0.141 0.175 0.101
0.127 -0.156 0.090
0.125 -0.152 0.088
0.124 -0.148 0.087
0.126 -0.148 0.088
0.129 -0.150 0.090
0.134 -0.153 0.093
0.144 -0.163 0.099
0.152 -0.169 0.104
0.154 -0.168 0.105
0.155 -0.166 0.105
0.156 -0.165 0.105
0.156 -0.163 0.105
0.156 -0.161 0.105
0.158 -0.160 0.105
0.159 -0.159 0.106
0.160 -0.157 0.105
0.159 -0.154 0.105
0.161 -0.153 0.105
0.162 -0.152 0.106
0.162 -0.149 0.105
0.162 -0.146 0.104
0.162 -0.144 0.104
0.163 -0.142 0.104
0.163 -0.140 0.104
0.163 -0.138 0.103
0.164 -0.136 0.103
0.164 -0.134 0.103
0.164 -0.132 0.103
0.163 -0.129 0.102
0.163 -0.127 0.102
0.163 -0.124 0.101
0.162 -0.121 0.100
0.162 -0.119 0.100
0.162 -0.117 0.099
0.162 -0.115 0.099
0.162 -0.113 0.099
0.163 -0.111 0.099
