VERSION .7
FIELDS x y z
SIZE 4 4 4
TYPE F F F
COUNT 1 1 1
WIDTH     2586
HEIGHT 1
VIEWPOINT 0 0 0 1 0 0 0
POINTS     2586
DATA ascii
0.261 -0.025 0.078
0.268 -0.023 0.080
0.271 -0.021 0.081
0.271 -0.019 0.081
0.269 -0.016 0.080
0.270 -0.014 0.081
0.271 -0.011 0.081
0.271 -0.009 0.081
0.272 -0.006 0.081
0.271 -0.004 0.081
0.271 -0.001 0.081
0.270 0.001 0.081
0.271 0.004 0.081
0.272 0.006 0.081
0.278 0.009 0.083
0.284 0.012 0.085
0.274 0.014 0.082
0.261 0.016 0.078
0.249 0.017 0.074
0.249 0.019 0.075
0.261 0.023 0.078
0.262 0.025 0.078
0.260 0.027 0.078
0.262 0.030 0.078
0.265 0.033 0.079
0.270 0.036 0.081
0.275 0.039 0.082
0.275 0.042 0.083
0.276 0.045 0.083
0.277 0.047 0.083
0.280 0.050 0.084
0.278 0.053 0.084
0.277 0.055 0.083
0.266 0.055 0.080
0.253 0.055 0.077
0.248 0.056 0.075
0.220 0.052 0.067
0.206 0.051 0.062
0.213 0.054 0.065
0.227 0.060 0.069
0.239 0.066 0.073
0.251 0.072 0.077
0.261 0.077 0.079
0.270 0.082 0.083
0.278 0.087 0.085
0.279 0.090 0.085
0.272 0.091 0.083
0.255 0.087 0.078
0.249 0.088 0.076
0.246 0.089 0.076
0.245 0.092 0.076
0.244 0.094 0.076
0.243 0.096 0.075
0.246 0.100 0.076
0.245 0.102 0.076
0.245 0.104 0.076
0.247 0.107 0.077
0.247 0.110 0.077
0.245 0.112 0.077
0.245 0.114 0.077
0.245 0.117 0.077
0.245 0.120 0.077
0.248 0.124 0.078
0.246 0.126 0.078
0.246 0.128 0.078
0.247 0.131 0.079
0.244 0.133 0.078
0.244 0.135 0.078
0.243 0.137 0.078
0.242 0.140 0.078
0.242 0.143 0.078
0.244 0.147 0.079
0.244 0.149 0.079
0.243 0.152 0.079
0.242 0.154 0.079
0.240 0.155 0.079
0.244 0.161 0.080
0.247 0.166 0.081
0.245 0.168 0.081
0.242 0.169 0.080
0.242 0.172 0.081
0.244 0.176 0.082
0.244 0.179 0.082
0.246 0.184 0.083
0.247 0.188 0.084
0.245 0.190 0.083
0.241 0.191 0.082
0.235 0.189 0.081
0.231 0.189 0.080
0.207 0.175 0.072
0.204 0.176 0.071
0.199 0.174 0.070
0.200 0.178 0.071
0.198 0.180 0.070
0.200 0.185 0.071
0.199 0.186 0.071
0.193 0.184 0.070
0.191 0.185 0.069
0.191 0.188 0.070
0.190 0.191 0.070
0.196 0.200 0.072
0.199 0.207 0.074
0.197 0.208 0.074
0.195 0.210 0.073
0.200 0.218 0.076
0.201 0.223 0.077
0.199 0.224 0.076
0.198 0.227 0.076
0.198 0.231 0.077
0.195 0.231 0.076
0.194 0.233 0.076
0.191 0.234 0.075
0.196 0.243 0.078
0.193 0.244 0.077
0.188 0.242 0.076
0.185 0.241 0.075
0.187 0.247 0.076
0.173 0.232 0.071
0.102 -0.138 0.042
0.101 -0.136 0.042
0.102 -0.135 0.042
0.103 -0.134 0.042
0.104 -0.134 0.042
0.104 -0.132 0.042
0.105 -0.131 0.042
0.105 -0.129 0.042
0.105 -0.128 0.042
0.105 -0.126 0.042
0.105 -0.124 0.041
0.104 -0.121 0.041
0.110 -0.126 0.043
0.111 -0.126 0.043
0.106 -0.118 0.041
0.102 -0.112 0.039
0.099 -0.107 0.038
0.099 -0.105 0.038
0.102 -0.107 0.038
0.115 -0.118 0.043
0.109 -0.111 0.041
0.110 -0.110 0.041
0.111 -0.109 0.041
0.244 -0.233 0.089
0.249 -0.234 0.091
0.249 -0.230 0.090
0.247 -0.225 0.089
0.248 -0.222 0.089
0.249 -0.220 0.089
0.250 -0.217 0.089
0.250 -0.213 0.089
0.252 -0.211 0.089
0.252 -0.208 0.089
0.248 -0.201 0.087
0.244 -0.195 0.085
0.235 -0.184 0.082
0.228 -0.176 0.079
0.196 -0.149 0.068
0.194 -0.145 0.067
0.197 -0.145 0.068
0.200 -0.144 0.068
0.201 -0.142 0.068
0.202 -0.141 0.069
0.200 -0.137 0.068
0.194 -0.130 0.065
0.188 -0.124 0.063
0.179 -0.116 0.060
0.177 -0.113 0.059
0.192 -0.120 0.064
0.202 -0.124 0.067
0.202 -0.122 0.067
0.201 -0.119 0.066
0.200 -0.116 0.066
0.205 -0.117 0.067
0.208 -0.116 0.068
0.208 -0.114 0.068
0.204 -0.109 0.066
0.200 -0.105 0.065
0.204 -0.105 0.066
0.202 -0.102 0.066
0.203 -0.100 0.066
0.203 -0.098 0.066
0.204 -0.097 0.066
0.207 -0.096 0.066
0.207 -0.093 0.066
0.207 -0.091 0.066
0.207 -0.089 0.066
0.200 -0.084 0.064
0.207 -0.085 0.066
0.204 -0.082 0.065
0.206 -0.081 0.066
0.207 -0.079 0.066
0.206 -0.076 0.065
0.210 -0.076 0.066
0.215 -0.075 0.068
0.216 -0.074 0.068
0.214 -0.071 0.067
0.215 -0.069 0.068
0.229 -0.072 0.072
0.231 -0.070 0.072
0.233 -0.068 0.073
0.243 -0.069 0.076
0.256 -0.070 0.080
0.268 -0.071 0.084
0.268 -0.068 0.083
0.265 -0.065 0.083
0.265 -0.062 0.082
0.264 -0.060 0.082
0.264 -0.057 0.082
0.265 -0.055 0.082
0.265 -0.053 0.082
0.263 -0.050 0.081
0.262 -0.047 0.081
0.259 -0.044 0.080
0.248 -0.040 0.077
0.241 -0.037 0.074
0.221 -0.031 0.068
0.214 -0.028 0.066
0.214 -0.027 0.066
0.215 -0.025 0.066
0.215 -0.023 0.066
0.219 -0.021 0.068
0.219 -0.019 0.068
0.268 -0.018 0.083
0.266 -0.016 0.082
0.265 -0.013 0.082
0.265 -0.011 0.082
0.260 -0.008 0.080
0.263 -0.006 0.081
0.267 -0.004 0.082
0.269 -0.001 0.083
0.269 0.001 0.083
0.267 0.004 0.082
0.278 0.006 0.086
0.281 0.009 0.087
0.276 0.011 0.085
0.270 0.014 0.083
0.253 0.015 0.078
0.247 0.017 0.076
0.250 0.020 0.077
0.260 0.023 0.080
0.263 0.025 0.081
0.264 0.028 0.082
0.265 0.030 0.082
0.267 0.033 0.083
0.270 0.036 0.084
0.274 0.039 0.085
0.274 0.042 0.085
0.272 0.044 0.084
0.270 0.046 0.084
0.268 0.048 0.083
0.275 0.052 0.086
0.272 0.054 0.085
0.253 0.053 0.079
0.248 0.054 0.077
0.238 0.054 0.074
0.203 0.048 0.064
0.199 0.049 0.062
0.202 0.052 0.063
0.217 0.058 0.068
0.244 0.067 0.077
0.257 0.073 0.081
0.263 0.078 0.083
0.268 0.082 0.085
0.272 0.085 0.086
0.272 0.088 0.086
0.258 0.086 0.082
0.247 0.085 0.078
0.243 0.086 0.077
0.243 0.088 0.077
0.243 0.091 0.077
0.243 0.093 0.077
0.242 0.095 0.077
0.243 0.098 0.078
0.243 0.101 0.078
0.243 0.103 0.078
0.244 0.106 0.078
0.243 0.108 0.078
0.242 0.111 0.078
0.242 0.113 0.078
0.241 0.115 0.078
0.240 0.117 0.078
0.240 0.120 0.078
0.240 0.122 0.078
0.241 0.126 0.079
0.241 0.128 0.079
0.241 0.131 0.080
0.241 0.134 0.080
0.242 0.137 0.080
0.241 0.139 0.080
0.242 0.143 0.081
0.244 0.146 0.081
0.243 0.149 0.081
0.240 0.150 0.081
0.239 0.152 0.081
0.240 0.156 0.081
0.242 0.160 0.082
0.243 0.164 0.083
0.241 0.165 0.082
0.238 0.166 0.082
0.239 0.170 0.082
0.240 0.174 0.083
0.244 0.180 0.085
0.244 0.183 0.085
0.245 0.187 0.086
0.242 0.188 0.085
0.226 0.178 0.080
0.224 0.180 0.079
0.196 0.163 0.070
0.199 0.168 0.071
0.198 0.171 0.071
0.199 0.175 0.072
0.195 0.174 0.071
0.195 0.177 0.071
0.191 0.176 0.070
0.192 0.180 0.071
0.196 0.188 0.073
0.192 0.186 0.072
0.189 0.186 0.071
0.191 0.192 0.072
0.198 0.203 0.075
0.200 0.208 0.077
0.197 0.208 0.076
0.194 0.209 0.075
0.197 0.215 0.077
0.198 0.220 0.078
0.196 0.222 0.078
0.192 0.221 0.076
0.191 0.223 0.076
0.193 0.229 0.078
0.197 0.238 0.080
0.200 0.245 0.082
0.198 0.246 0.081
0.192 0.242 0.079
0.190 0.244 0.079
0.192 0.250 0.080
0.188 0.249 0.079
0.189 0.254 0.080
0.104 -0.142 0.044
0.101 -0.136 0.043
0.102 -0.135 0.043
0.104 -0.135 0.044
0.105 -0.135 0.044
0.105 -0.133 0.044
0.105 -0.131 0.043
0.105 -0.130 0.043
0.105 -0.128 0.043
0.105 -0.126 0.043
0.105 -0.124 0.042
0.115 -0.134 0.046
0.116 -0.133 0.046
0.107 -0.121 0.043
0.105 -0.117 0.042
0.105 -0.116 0.042
0.099 -0.107 0.039
0.099 -0.106 0.039
0.100 -0.105 0.039
0.114 -0.118 0.044
0.113 -0.115 0.043
0.109 -0.109 0.042
0.107 -0.106 0.041
0.118 -0.114 0.045
0.241 -0.226 0.090
0.241 -0.223 0.090
0.241 -0.220 0.090
0.244 -0.218 0.090
0.245 -0.216 0.090
0.246 -0.213 0.090
0.247 -0.211 0.090
0.248 -0.209 0.090
0.248 -0.205 0.090
0.246 -0.200 0.089
0.240 -0.192 0.086
0.240 -0.188 0.086
0.213 -0.164 0.076
0.201 -0.153 0.071
0.195 -0.146 0.069
0.196 -0.144 0.069
0.200 -0.144 0.070
0.201 -0.143 0.071
0.202 -0.141 0.071
0.200 -0.137 0.070
0.188 -0.127 0.065
0.187 -0.124 0.065
0.179 -0.117 0.062
0.186 -0.119 0.064
0.205 -0.129 0.070
0.202 -0.124 0.069
0.201 -0.121 0.069
0.199 -0.118 0.068
0.202 -0.118 0.069
0.206 -0.117 0.070
0.211 -0.118 0.071
0.209 -0.115 0.071
0.206 -0.111 0.069
0.203 -0.107 0.068
0.198 -0.102 0.066
0.201 -0.102 0.067
0.201 -0.099 0.067
0.202 -0.098 0.067
0.203 -0.096 0.068
0.204 -0.094 0.068
0.206 -0.093 0.068
0.205 -0.091 0.068
0.205 -0.089 0.068
0.206 -0.087 0.068
0.204 -0.084 0.067
0.206 -0.083 0.067
0.206 -0.080 0.067
0.210 -0.080 0.069
0.211 -0.078 0.069
0.209 -0.075 0.068
0.215 -0.076 0.070
0.213 -0.073 0.069
0.213 -0.071 0.069
0.231 -0.074 0.075
0.230 -0.072 0.074
0.232 -0.070 0.075
0.237 -0.070 0.077
0.242 -0.069 0.078
0.256 -0.070 0.082
0.262 -0.069 0.084
0.264 -0.067 0.085
0.264 -0.065 0.085
0.265 -0.063 0.085
0.264 -0.060 0.085
0.263 -0.057 0.084
0.263 -0.055 0.084
0.262 -0.052 0.084
0.260 -0.049 0.083
0.260 -0.047 0.083
0.259 -0.044 0.083
0.252 -0.041 0.080
0.254 -0.039 0.081
0.254 -0.036 0.081
0.257 -0.034 0.082
0.257 -0.032 0.082
0.249 -0.029 0.079
0.218 -0.023 0.069
0.218 -0.021 0.069
0.218 -0.019 0.069
0.219 -0.017 0.070
0.222 -0.015 0.070
0.261 -0.013 0.083
0.260 -0.011 0.082
0.257 -0.008 0.082
0.256 -0.006 0.081
0.263 -0.004 0.084
0.266 -0.001 0.084
0.268 0.001 0.085
0.278 0.004 0.088
0.278 0.006 0.088
0.269 0.009 0.086
0.262 0.011 0.083
0.251 0.013 0.080
0.247 0.015 0.079
0.246 0.017 0.078
0.253 0.020 0.081
0.257 0.022 0.082
0.258 0.025 0.082
0.259 0.027 0.083
0.264 0.030 0.084
0.265 0.033 0.085
0.268 0.036 0.086
0.273 0.039 0.087
0.268 0.041 0.086
0.268 0.043 0.086
0.265 0.045 0.085
0.263 0.047 0.084
0.264 0.050 0.085
0.263 0.052 0.085
0.245 0.051 0.079
0.232 0.051 0.075
0.225 0.051 0.073
0.216 0.051 0.070
0.204 0.050 0.066
0.208 0.053 0.067
0.251 0.069 0.081
0.259 0.074 0.084
0.266 0.078 0.086
0.268 0.082 0.087
0.264 0.083 0.086
0.254 0.083 0.083
0.247 0.083 0.081
0.245 0.084 0.080
0.241 0.086 0.079
0.242 0.088 0.079
0.243 0.091 0.080
0.240 0.092 0.079
0.242 0.096 0.080
0.242 0.098 0.080
0.240 0.100 0.080
0.240 0.102 0.080
0.240 0.105 0.080
0.238 0.106 0.079
0.239 0.109 0.080
0.238 0.112 0.080
0.237 0.114 0.079
0.236 0.116 0.079
0.235 0.118 0.079
0.234 0.120 0.079
0.234 0.122 0.079
0.236 0.126 0.080
0.236 0.128 0.080
0.240 0.133 0.082
0.239 0.136 0.082
0.238 0.138 0.082
0.238 0.140 0.082
0.240 0.145 0.083
0.239 0.147 0.083
0.237 0.148 0.082
0.236 0.150 0.082
0.237 0.154 0.083
0.239 0.158 0.084
0.241 0.163 0.085
0.239 0.164 0.084
0.235 0.165 0.083
0.237 0.169 0.084
0.242 0.175 0.086
0.247 0.182 0.088
0.241 0.181 0.087
0.233 0.179 0.084
0.221 0.172 0.080
0.213 0.169 0.078
0.203 0.164 0.074
0.194 0.159 0.071
0.190 0.159 0.070
0.186 0.158 0.069
0.190 0.164 0.071
0.195 0.172 0.073
0.199 0.178 0.075
0.187 0.170 0.071
0.188 0.174 0.071
0.194 0.183 0.074
0.195 0.187 0.075
0.194 0.189 0.075
0.191 0.190 0.074
0.194 0.195 0.076
0.196 0.200 0.077
0.193 0.202 0.076
0.194 0.205 0.077
0.193 0.208 0.077
0.193 0.211 0.078
0.193 0.215 0.078
0.193 0.219 0.079
0.190 0.218 0.078
0.188 0.220 0.078
0.191 0.227 0.079
0.195 0.236 0.082
0.196 0.241 0.083
0.193 0.241 0.082
0.192 0.244 0.082
0.190 0.245 0.081
0.190 0.249 0.082
0.188 0.250 0.082
0.182 0.245 0.079
0.102 -0.137 0.045
0.104 -0.137 0.045
0.104 -0.136 0.045
0.105 -0.136 0.045
0.105 -0.133 0.045
0.105 -0.132 0.045
0.105 -0.130 0.045
0.106 -0.129 0.045
0.107 -0.129 0.045
0.120 -0.143 0.050
0.116 -0.135 0.048
0.113 -0.130 0.047
0.106 -0.120 0.044
0.104 -0.116 0.042
0.098 -0.108 0.040
0.099 -0.108 0.040
0.100 -0.107 0.040
0.100 -0.105 0.040
0.114 -0.118 0.045
0.110 -0.112 0.043
0.106 -0.106 0.042
0.104 -0.103 0.041
0.114 -0.111 0.045
0.231 -0.218 0.090
0.234 -0.217 0.090
0.237 -0.216 0.091
0.238 -0.213 0.091
0.239 -0.211 0.091
0.242 -0.210 0.092
0.244 -0.209 0.092
0.245 -0.206 0.092
0.243 -0.201 0.091
0.241 -0.196 0.090
0.237 -0.190 0.088
0.230 -0.181 0.085
0.214 -0.166 0.079
0.204 -0.155 0.075
0.197 -0.147 0.072
0.196 -0.144 0.071
0.202 -0.146 0.073
0.201 -0.143 0.073
0.200 -0.140 0.072
0.200 -0.137 0.072
0.187 -0.126 0.067
0.186 -0.123 0.066
0.187 -0.122 0.067
0.203 -0.130 0.072
0.205 -0.129 0.073
0.206 -0.127 0.073
0.200 -0.121 0.070
0.200 -0.119 0.070
0.202 -0.118 0.071
0.206 -0.118 0.072
0.207 -0.116 0.072
0.211 -0.116 0.073
0.204 -0.110 0.071
0.202 -0.107 0.070
0.200 -0.103 0.069
0.199 -0.101 0.069
0.201 -0.100 0.069
0.203 -0.098 0.070
0.204 -0.097 0.070
0.205 -0.095 0.070
0.203 -0.092 0.069
0.202 -0.089 0.069
0.203 -0.088 0.069
0.205 -0.086 0.069
0.206 -0.085 0.070
0.207 -0.083 0.070
0.209 -0.082 0.070
0.210 -0.080 0.071
0.209 -0.078 0.070
0.209 -0.075 0.070
0.211 -0.074 0.071
0.212 -0.073 0.071
0.217 -0.072 0.072
0.222 -0.072 0.074
0.227 -0.071 0.076
0.230 -0.070 0.077
0.237 -0.070 0.079
0.245 -0.069 0.081
0.251 -0.069 0.084
0.257 -0.068 0.085
0.260 -0.066 0.086
0.261 -0.064 0.086
0.259 -0.061 0.086
0.261 -0.059 0.086
0.260 -0.057 0.086
0.257 -0.053 0.085
0.257 -0.051 0.085
0.256 -0.049 0.084
0.257 -0.046 0.084
0.256 -0.044 0.084
0.254 -0.041 0.084
0.253 -0.038 0.083
0.254 -0.036 0.084
0.254 -0.034 0.083
0.253 -0.031 0.083
0.255 -0.029 0.084
0.254 -0.027 0.083
0.250 -0.024 0.082
0.227 -0.020 0.074
0.222 -0.017 0.073
0.219 -0.015 0.072
0.220 -0.013 0.072
0.220 -0.011 0.072
0.255 -0.011 0.084
0.256 -0.008 0.084
0.254 -0.006 0.083
0.256 -0.004 0.084
0.268 -0.001 0.088
0.280 0.001 0.092
0.269 0.004 0.088
0.261 0.006 0.085
0.254 0.008 0.083
0.248 0.010 0.081
0.245 0.012 0.080
0.244 0.015 0.080
0.246 0.017 0.081
0.248 0.019 0.081
0.256 0.022 0.084
0.254 0.025 0.083
0.257 0.027 0.084
0.262 0.030 0.086
0.264 0.033 0.087
0.265 0.036 0.087
0.264 0.038 0.087
0.265 0.040 0.087
0.264 0.043 0.087
0.264 0.045 0.087
0.261 0.047 0.086
0.256 0.049 0.085
0.225 0.047 0.075
0.217 0.047 0.072
0.220 0.050 0.073
0.215 0.051 0.071
0.218 0.054 0.072
0.226 0.058 0.075
0.243 0.065 0.081
0.250 0.069 0.083
0.265 0.076 0.088
0.266 0.079 0.089
0.265 0.081 0.089
0.258 0.081 0.087
0.242 0.079 0.081
0.238 0.080 0.080
0.237 0.082 0.080
0.238 0.085 0.080
0.240 0.088 0.081
0.235 0.088 0.080
0.238 0.092 0.081
0.238 0.094 0.081
0.238 0.097 0.081
0.236 0.098 0.080
0.234 0.100 0.080
0.236 0.103 0.081
0.235 0.105 0.081
0.233 0.107 0.080
0.233 0.109 0.080
0.232 0.111 0.080
0.233 0.114 0.080
0.231 0.116 0.080
0.228 0.117 0.079
0.228 0.119 0.079
0.228 0.122 0.080
0.229 0.125 0.080
0.234 0.130 0.082
0.235 0.134 0.083
0.234 0.136 0.083
0.235 0.139 0.083
0.234 0.141 0.083
0.235 0.144 0.084
0.233 0.146 0.083
0.233 0.149 0.083
0.233 0.152 0.084
0.235 0.156 0.085
0.239 0.162 0.087
0.238 0.164 0.086
0.235 0.165 0.086
0.235 0.168 0.086
0.244 0.177 0.090
0.245 0.181 0.090
0.229 0.173 0.085
0.217 0.167 0.081
0.212 0.165 0.079
0.206 0.163 0.077
0.195 0.158 0.073
0.190 0.156 0.072
0.187 0.157 0.071
0.189 0.161 0.072
0.194 0.168 0.074
0.191 0.169 0.074
0.194 0.174 0.075
0.192 0.175 0.075
0.188 0.174 0.074
0.190 0.179 0.075
0.196 0.188 0.078
0.192 0.188 0.077
0.191 0.189 0.076
0.192 0.194 0.077
0.191 0.196 0.077
0.189 0.198 0.077
0.189 0.201 0.078
0.193 0.208 0.079
0.192 0.211 0.080
0.190 0.212 0.079
0.191 0.217 0.080
0.190 0.219 0.080
0.188 0.220 0.080
0.187 0.223 0.080
0.190 0.231 0.082
0.191 0.235 0.083
0.190 0.237 0.083
0.188 0.239 0.083
0.187 0.241 0.083
0.182 0.239 0.081
0.183 0.243 0.082
0.180 0.242 0.081
0.103 -0.138 0.046
0.104 -0.138 0.046
0.104 -0.137 0.046
0.105 -0.135 0.046
0.106 -0.135 0.047
0.104 -0.131 0.046
0.105 -0.131 0.046
0.113 -0.138 0.049
0.118 -0.142 0.051
0.113 -0.134 0.049
0.108 -0.126 0.046
0.103 -0.119 0.044
0.104 -0.118 0.044
0.097 -0.108 0.041
0.098 -0.108 0.041
0.099 -0.107 0.041
0.100 -0.107 0.041
0.101 -0.107 0.042
0.108 -0.112 0.045
0.112 -0.115 0.046
0.104 -0.105 0.042
0.105 -0.104 0.043
0.109 -0.106 0.044
0.118 -0.113 0.047
0.228 -0.212 0.091
0.230 -0.211 0.091
0.232 -0.209 0.091
0.235 -0.208 0.092
0.235 -0.205 0.092
0.238 -0.204 0.093
0.237 -0.200 0.092
0.237 -0.197 0.091
0.235 -0.192 0.090
0.234 -0.188 0.089
0.226 -0.178 0.086
0.216 -0.168 0.082
0.203 -0.155 0.077
0.198 -0.149 0.075
0.201 -0.148 0.075
0.201 -0.146 0.075
0.199 -0.142 0.074
0.197 -0.138 0.073
0.190 -0.131 0.070
0.186 -0.126 0.069
0.188 -0.125 0.069
0.202 -0.132 0.074
0.202 -0.130 0.074
0.202 -0.127 0.073
0.202 -0.125 0.074
0.202 -0.123 0.073
0.200 -0.119 0.072
0.201 -0.117 0.073
0.203 -0.116 0.073
0.205 -0.115 0.073
0.204 -0.112 0.073
0.205 -0.110 0.073
0.204 -0.107 0.073
0.200 -0.103 0.071
0.199 -0.101 0.070
0.202 -0.100 0.071
0.205 -0.099 0.072
0.204 -0.097 0.072
0.202 -0.094 0.071
0.201 -0.091 0.071
0.200 -0.089 0.070
0.202 -0.087 0.071
0.205 -0.087 0.072
0.206 -0.085 0.072
0.204 -0.082 0.071
0.208 -0.082 0.072
0.208 -0.079 0.072
0.206 -0.077 0.071
0.205 -0.074 0.071
0.207 -0.073 0.071
0.210 -0.072 0.072
0.215 -0.072 0.074
0.220 -0.071 0.076
0.224 -0.070 0.077
0.229 -0.070 0.079
0.238 -0.070 0.082
0.243 -0.069 0.083
0.246 -0.068 0.084
0.252 -0.067 0.086
0.255 -0.065 0.087
0.255 -0.063 0.087
0.255 -0.060 0.087
0.253 -0.058 0.086
0.251 -0.055 0.085
0.251 -0.052 0.085
0.252 -0.050 0.085
0.252 -0.048 0.085
0.250 -0.045 0.085
0.248 -0.042 0.084
0.251 -0.041 0.085
0.251 -0.038 0.085
0.250 -0.036 0.085
0.250 -0.033 0.085
0.251 -0.031 0.085
0.251 -0.029 0.085
0.251 -0.027 0.085
0.249 -0.024 0.084
0.250 -0.022 0.084
0.251 -0.020 0.085
0.225 -0.015 0.076
0.220 -0.013 0.074
0.219 -0.011 0.074
0.219 -0.009 0.074
0.231 -0.007 0.078
0.254 -0.006 0.086
0.254 -0.003 0.086
0.271 -0.001 0.091
0.272 0.001 0.092
0.263 0.004 0.088
0.246 0.006 0.083
0.245 0.008 0.082
0.245 0.010 0.083
0.243 0.012 0.082
0.240 0.014 0.081
0.239 0.017 0.081
0.240 0.019 0.081
0.238 0.021 0.080
0.258 0.025 0.087
0.261 0.028 0.088
0.261 0.030 0.088
0.261 0.033 0.088
0.259 0.035 0.088
0.256 0.037 0.087
0.258 0.039 0.087
0.259 0.042 0.088
0.258 0.044 0.088
0.259 0.047 0.088
0.256 0.049 0.087
0.213 0.045 0.073
0.212 0.047 0.072
0.212 0.048 0.072
0.217 0.052 0.074
0.219 0.054 0.075
0.239 0.062 0.082
0.242 0.065 0.083
0.252 0.070 0.086
0.262 0.075 0.090
0.263 0.078 0.091
0.261 0.080 0.090
0.251 0.079 0.087
0.236 0.077 0.082
0.231 0.078 0.080
0.231 0.080 0.080
0.233 0.083 0.081
0.232 0.085 0.081
0.230 0.087 0.080
0.234 0.090 0.082
0.235 0.093 0.082
0.233 0.095 0.081
0.230 0.096 0.081
0.229 0.098 0.080
0.229 0.100 0.081
0.229 0.103 0.081
0.229 0.105 0.081
0.229 0.107 0.081
0.228 0.110 0.081
0.227 0.111 0.081
0.225 0.113 0.080
0.224 0.115 0.080
0.224 0.117 0.080
0.224 0.120 0.081
0.224 0.122 0.081
0.228 0.127 0.082
0.228 0.130 0.083
0.230 0.133 0.083
0.230 0.136 0.084
0.231 0.140 0.084
0.230 0.142 0.084
0.228 0.143 0.084
0.228 0.146 0.084
0.230 0.150 0.085
0.233 0.155 0.086
0.236 0.160 0.088
0.235 0.162 0.088
0.234 0.165 0.088
0.239 0.171 0.090
0.247 0.180 0.094
0.235 0.174 0.089
0.223 0.168 0.085
0.214 0.164 0.082
0.205 0.160 0.079
0.191 0.152 0.074
0.190 0.154 0.074
0.189 0.156 0.074
0.189 0.159 0.074
0.191 0.163 0.075
0.193 0.167 0.076
0.197 0.174 0.078
0.194 0.175 0.078
0.192 0.176 0.077
0.188 0.175 0.076
0.189 0.179 0.077
0.192 0.185 0.078
0.193 0.189 0.079
0.189 0.189 0.078
0.189 0.192 0.079
0.190 0.196 0.079
0.188 0.197 0.079
0.186 0.198 0.079
0.188 0.203 0.080
0.189 0.208 0.081
0.188 0.211 0.081
0.186 0.212 0.081
0.187 0.217 0.082
0.185 0.218 0.081
0.184 0.220 0.081
0.184 0.223 0.082
0.185 0.228 0.082
0.185 0.232 0.083
0.182 0.232 0.082
0.181 0.234 0.082
0.179 0.235 0.082
0.178 0.236 0.082
0.186 0.251 0.086
0.103 -0.138 0.047
0.103 -0.137 0.047
0.103 -0.135 0.047
0.104 -0.135 0.047
0.105 -0.134 0.047
0.107 -0.135 0.049
0.114 -0.141 0.051
0.114 -0.140 0.051
0.108 -0.130 0.048
0.102 -0.121 0.045
0.101 -0.119 0.045
0.101 -0.117 0.044
0.096 -0.109 0.042
0.097 -0.109 0.042
0.098 -0.108 0.042
0.098 -0.107 0.042
0.100 -0.107 0.043
0.107 -0.113 0.046
0.104 -0.109 0.044
0.103 -0.106 0.044
0.098 -0.098 0.041
0.105 -0.104 0.044
0.108 -0.106 0.045
0.112 -0.108 0.046
0.219 -0.204 0.090
0.223 -0.204 0.091
0.226 -0.204 0.092
0.226 -0.201 0.091
0.231 -0.201 0.093
0.232 -0.199 0.093
0.233 -0.196 0.093
0.232 -0.193 0.092
0.232 -0.189 0.091
0.227 -0.183 0.089
0.221 -0.175 0.087
0.214 -0.167 0.084
0.204 -0.156 0.079
0.201 -0.151 0.078
0.200 -0.148 0.077
0.200 -0.145 0.077
0.197 -0.140 0.075
0.191 -0.134 0.073
0.186 -0.128 0.071
0.189 -0.128 0.072
0.200 -0.133 0.076
0.201 -0.131 0.076
0.201 -0.129 0.076
0.201 -0.126 0.075
0.201 -0.124 0.075
0.201 -0.122 0.075
0.201 -0.119 0.075
0.200 -0.117 0.074
0.202 -0.115 0.075
0.202 -0.114 0.075
0.204 -0.112 0.075
0.204 -0.110 0.075
0.204 -0.108 0.075
0.202 -0.105 0.074
0.200 -0.101 0.073
0.203 -0.101 0.074
0.205 -0.100 0.074
0.199 -0.094 0.072
0.202 -0.094 0.073
0.201 -0.091 0.073
0.200 -0.089 0.072
0.203 -0.088 0.073
0.205 -0.087 0.074
0.206 -0.085 0.074
0.204 -0.082 0.073
0.201 -0.079 0.072
0.209 -0.080 0.074
0.207 -0.077 0.074
0.203 -0.074 0.072
0.204 -0.072 0.073
0.207 -0.071 0.074
0.213 -0.071 0.076
0.220 -0.071 0.078
0.228 -0.072 0.081
0.232 -0.071 0.082
0.235 -0.069 0.083
0.238 -0.068 0.084
0.241 -0.066 0.085
0.246 -0.065 0.086
0.252 -0.064 0.088
0.252 -0.062 0.088
0.248 -0.059 0.087
0.246 -0.056 0.086
0.246 -0.054 0.086
0.246 -0.051 0.086
0.246 -0.049 0.086
0.245 -0.046 0.085
0.243 -0.044 0.085
0.241 -0.041 0.084
0.244 -0.039 0.085
0.248 -0.038 0.086
0.246 -0.035 0.086
0.246 -0.033 0.086
0.246 -0.031 0.086
0.246 -0.028 0.085
0.245 -0.026 0.085
0.241 -0.023 0.084
0.247 -0.022 0.086
0.244 -0.019 0.085
0.245 -0.017 0.085
0.245 -0.015 0.085
0.219 -0.011 0.076
0.218 -0.009 0.076
0.217 -0.007 0.075
0.233 -0.005 0.081
0.258 -0.004 0.089
0.260 -0.001 0.090
0.266 0.001 0.092
0.240 0.003 0.083
0.237 0.005 0.082
0.238 0.008 0.083
0.241 0.010 0.083
0.240 0.012 0.083
0.230 0.014 0.080
0.226 0.016 0.078
0.228 0.018 0.079
0.238 0.021 0.083
0.253 0.025 0.088
0.258 0.027 0.090
0.262 0.030 0.091
0.260 0.033 0.091
0.256 0.034 0.089
0.246 0.035 0.086
0.248 0.038 0.087
0.250 0.041 0.087
0.248 0.043 0.087
0.248 0.045 0.087
0.252 0.048 0.088
0.205 0.041 0.072
0.205 0.043 0.072
0.209 0.046 0.073
0.213 0.049 0.075
0.213 0.051 0.075
0.229 0.057 0.080
0.239 0.062 0.084
0.243 0.065 0.086
0.246 0.068 0.087
0.256 0.073 0.090
0.259 0.077 0.092
0.252 0.077 0.089
0.242 0.076 0.086
0.231 0.075 0.082
0.226 0.076 0.081
0.227 0.079 0.081
0.226 0.081 0.081
0.226 0.083 0.081
0.226 0.085 0.081
0.224 0.087 0.081
0.230 0.091 0.083
0.229 0.093 0.082
0.226 0.094 0.082
0.224 0.096 0.081
0.225 0.098 0.081
0.225 0.101 0.082
0.224 0.103 0.082
0.224 0.105 0.082
0.223 0.107 0.082
0.222 0.109 0.081
0.221 0.111 0.081
0.221 0.114 0.081
0.221 0.116 0.082
0.221 0.118 0.082
0.220 0.121 0.082
0.221 0.124 0.082
0.224 0.128 0.084
0.225 0.131 0.084
0.227 0.135 0.085
0.227 0.137 0.086
0.226 0.139 0.085
0.225 0.141 0.085
0.224 0.144 0.085
0.226 0.148 0.086
0.229 0.153 0.088
0.232 0.157 0.089
0.232 0.160 0.089
0.234 0.165 0.090
0.240 0.172 0.093
0.239 0.175 0.093
0.231 0.171 0.090
0.220 0.166 0.086
0.212 0.163 0.084
0.188 0.147 0.074
0.182 0.145 0.072
0.186 0.151 0.074
0.191 0.157 0.076
0.191 0.161 0.077
0.190 0.162 0.077
0.191 0.166 0.078
0.195 0.173 0.080
0.196 0.176 0.080
0.192 0.176 0.079
0.189 0.176 0.079
0.189 0.179 0.079
0.190 0.183 0.080
0.190 0.186 0.080
0.188 0.187 0.080
0.188 0.191 0.080
0.189 0.195 0.081
0.188 0.197 0.081
0.185 0.198 0.081
0.184 0.199 0.080
0.184 0.203 0.081
0.184 0.206 0.081
0.186 0.212 0.083
0.183 0.212 0.082
0.182 0.215 0.082
0.181 0.217 0.082
0.181 0.221 0.083
0.182 0.225 0.084
0.181 0.227 0.084
0.179 0.229 0.083
0.177 0.229 0.083
0.177 0.232 0.083
0.177 0.235 0.083
0.102 -0.136 0.048
0.103 -0.135 0.048
0.107 -0.138 0.050
0.108 -0.138 0.050
0.108 -0.137 0.050
0.108 -0.134 0.050
0.101 -0.124 0.047
0.100 -0.121 0.046
0.101 -0.121 0.046
0.097 -0.114 0.044
0.096 -0.111 0.043
0.097 -0.111 0.044
0.098 -0.111 0.044
0.109 -0.121 0.049
0.107 -0.117 0.047
0.101 -0.109 0.045
0.104 -0.110 0.045
0.103 -0.108 0.045
0.100 -0.102 0.043
0.102 -0.103 0.044
0.103 -0.102 0.044
0.107 -0.105 0.046
0.110 -0.105 0.046
0.115 -0.109 0.049
0.214 -0.197 0.090
0.219 -0.198 0.091
0.221 -0.197 0.092
0.223 -0.195 0.092
0.221 -0.190 0.091
0.225 -0.190 0.092
0.226 -0.188 0.092
0.226 -0.185 0.092
0.224 -0.180 0.091
0.220 -0.174 0.089
0.212 -0.165 0.085
0.206 -0.158 0.082
0.200 -0.150 0.079
0.197 -0.146 0.078
0.195 -0.142 0.077
0.193 -0.138 0.076
0.191 -0.134 0.075
0.199 -0.137 0.078
0.200 -0.136 0.078
0.200 -0.133 0.078
0.201 -0.131 0.078
0.200 -0.129 0.077
0.200 -0.126 0.077
0.200 -0.124 0.077
0.201 -0.122 0.077
0.200 -0.119 0.077
0.200 -0.117 0.076
0.201 -0.115 0.076
0.201 -0.113 0.076
0.199 -0.110 0.075
0.203 -0.110 0.077
0.203 -0.108 0.077
0.195 -0.101 0.073
0.205 -0.104 0.077
0.201 -0.100 0.075
0.202 -0.098 0.075
0.203 -0.097 0.076
0.202 -0.094 0.075
0.202 -0.092 0.075
0.202 -0.090 0.075
0.204 -0.089 0.076
0.205 -0.087 0.076
0.204 -0.085 0.075
0.205 -0.083 0.075
0.206 -0.081 0.076
0.209 -0.080 0.077
0.210 -0.078 0.077
0.204 -0.074 0.075
0.203 -0.072 0.074
0.207 -0.071 0.075
0.214 -0.071 0.078
0.220 -0.071 0.080
0.232 -0.073 0.084
0.231 -0.070 0.084
0.233 -0.069 0.084
0.234 -0.067 0.085
0.236 -0.065 0.085
0.243 -0.065 0.088
0.246 -0.063 0.089
0.243 -0.060 0.088
0.242 -0.057 0.087
0.242 -0.055 0.087
0.242 -0.053 0.087
0.241 -0.050 0.087
0.239 -0.048 0.086
0.239 -0.045 0.086
0.239 -0.043 0.086
0.239 -0.041 0.086
0.239 -0.039 0.086
0.240 -0.037 0.086
0.243 -0.035 0.087
0.239 -0.032 0.085
0.239 -0.030 0.086
0.242 -0.028 0.087
0.242 -0.026 0.086
0.239 -0.023 0.085
0.239 -0.021 0.085
0.241 -0.019 0.086
0.242 -0.017 0.086
0.240 -0.014 0.086
0.242 -0.012 0.086
0.232 -0.007 0.083
0.240 -0.005 0.085
0.239 -0.003 0.085
0.254 -0.001 0.091
0.228 0.001 0.081
0.222 0.003 0.079
0.227 0.005 0.081
0.232 0.008 0.083
0.228 0.009 0.081
0.226 0.011 0.081
0.223 0.013 0.080
0.218 0.015 0.078
0.223 0.018 0.080
0.240 0.021 0.086
0.243 0.024 0.087
0.248 0.026 0.089
0.254 0.029 0.091
0.255 0.032 0.091
0.246 0.033 0.088
0.250 0.036 0.090
0.247 0.038 0.089
0.241 0.039 0.086
0.233 0.040 0.084
0.213 0.039 0.076
0.201 0.038 0.072
0.194 0.039 0.070
0.195 0.041 0.070
0.207 0.045 0.075
0.212 0.049 0.077
0.219 0.052 0.079
0.223 0.055 0.081
0.241 0.062 0.087
0.245 0.065 0.089
0.246 0.068 0.090
0.250 0.072 0.091
0.244 0.073 0.089
0.240 0.074 0.088
0.232 0.074 0.085
0.227 0.074 0.083
0.222 0.075 0.081
0.221 0.077 0.081
0.220 0.078 0.081
0.222 0.081 0.082
0.222 0.084 0.082
0.222 0.086 0.082
0.225 0.089 0.083
0.225 0.092 0.083
0.220 0.092 0.082
0.219 0.094 0.082
0.220 0.097 0.082
0.219 0.098 0.082
0.220 0.101 0.082
0.220 0.104 0.082
0.215 0.104 0.081
0.215 0.106 0.081
0.217 0.109 0.082
0.218 0.112 0.083
0.218 0.115 0.083
0.217 0.117 0.083
0.217 0.119 0.083
0.220 0.123 0.084
0.218 0.125 0.084
0.218 0.127 0.084
0.224 0.133 0.087
0.221 0.134 0.086
0.222 0.137 0.086
0.221 0.139 0.086
0.222 0.142 0.087
0.225 0.147 0.088
0.226 0.150 0.089
0.225 0.153 0.089
0.226 0.157 0.090
0.230 0.162 0.091
0.234 0.168 0.093
0.233 0.170 0.093
0.226 0.168 0.091
0.218 0.165 0.088
0.179 0.141 0.073
0.178 0.142 0.073
0.181 0.147 0.074
0.193 0.160 0.080
0.191 0.161 0.079
0.187 0.160 0.078
0.190 0.165 0.079
0.192 0.171 0.081
0.191 0.172 0.081
0.189 0.173 0.080
0.187 0.175 0.080
0.186 0.177 0.080
0.187 0.181 0.081
0.185 0.182 0.080
0.187 0.187 0.082
0.186 0.190 0.082
0.186 0.193 0.082
0.185 0.195 0.082
0.183 0.195 0.082
0.181 0.197 0.081
0.180 0.199 0.082
0.181 0.204 0.083
0.181 0.208 0.083
0.181 0.210 0.083
0.178 0.211 0.083
0.179 0.214 0.083
0.179 0.219 0.084
0.178 0.221 0.084
0.178 0.224 0.085
0.174 0.223 0.083
0.174 0.226 0.084
0.174 0.229 0.084
0.174 0.232 0.084
0.110 -0.146 0.053
0.111 -0.146 0.054
0.108 -0.141 0.052
0.107 -0.137 0.051
0.106 -0.133 0.050
0.105 -0.131 0.050
0.100 -0.122 0.047
0.098 -0.118 0.046
0.094 -0.112 0.044
0.094 -0.111 0.044
0.096 -0.112 0.045
0.105 -0.120 0.048
0.108 -0.122 0.050
0.100 -0.111 0.045
0.099 -0.108 0.045
0.100 -0.108 0.045
0.102 -0.108 0.046
0.099 -0.103 0.044
0.101 -0.104 0.045
0.101 -0.103 0.045
0.102 -0.102 0.045
0.105 -0.102 0.046
0.108 -0.104 0.047
0.112 -0.107 0.049
0.208 -0.191 0.089
0.212 -0.192 0.091
0.218 -0.194 0.093
0.219 -0.192 0.093
0.217 -0.187 0.092
0.217 -0.184 0.091
0.221 -0.185 0.093
0.222 -0.183 0.093
0.222 -0.180 0.092
0.209 -0.166 0.086
0.209 -0.163 0.086
0.207 -0.159 0.085
0.197 -0.148 0.081
0.194 -0.144 0.079
0.193 -0.141 0.078
0.193 -0.138 0.078
0.195 -0.137 0.079
0.196 -0.136 0.079
0.199 -0.135 0.080
0.202 -0.135 0.081
0.200 -0.131 0.080
0.199 -0.128 0.079
0.201 -0.127 0.079
0.202 -0.125 0.080
0.199 -0.121 0.078
0.202 -0.120 0.079
0.203 -0.119 0.079
0.199 -0.115 0.078
0.202 -0.114 0.079
0.203 -0.112 0.079
0.201 -0.109 0.078
0.203 -0.108 0.079
0.203 -0.106 0.079
0.200 -0.102 0.077
0.202 -0.101 0.078
0.203 -0.099 0.078
0.202 -0.096 0.077
0.202 -0.094 0.077
0.203 -0.092 0.077
0.203 -0.090 0.077
0.203 -0.088 0.077
0.205 -0.087 0.078
0.204 -0.085 0.077
0.203 -0.082 0.077
0.202 -0.080 0.076
0.208 -0.080 0.078
0.208 -0.078 0.078
0.203 -0.074 0.076
0.205 -0.072 0.077
0.208 -0.072 0.078
0.211 -0.070 0.079
0.223 -0.072 0.083
0.223 -0.070 0.083
0.228 -0.070 0.085
0.229 -0.068 0.085
0.230 -0.066 0.086
0.230 -0.064 0.086
0.234 -0.062 0.087
0.238 -0.061 0.088
0.239 -0.059 0.089
0.239 -0.057 0.089
0.238 -0.054 0.088
0.236 -0.052 0.087
0.235 -0.049 0.087
0.236 -0.047 0.087
0.235 -0.045 0.087
0.236 -0.043 0.087
0.236 -0.040 0.087
0.236 -0.038 0.087
0.237 -0.036 0.087
0.237 -0.034 0.087
0.235 -0.032 0.086
0.236 -0.029 0.086
0.239 -0.028 0.088
0.238 -0.025 0.087
0.235 -0.023 0.086
0.235 -0.021 0.086
0.236 -0.019 0.087
0.238 -0.016 0.087
0.243 -0.015 0.089
0.255 -0.013 0.093
0.255 -0.011 0.093
0.240 -0.008 0.088
0.228 -0.005 0.084
0.227 -0.003 0.083
0.229 -0.001 0.084
0.214 0.001 0.078
0.214 0.003 0.078
0.221 0.005 0.081
0.225 0.007 0.082
0.224 0.009 0.082
0.221 0.011 0.081
0.217 0.013 0.080
0.217 0.015 0.079
0.229 0.018 0.084
0.240 0.021 0.088
0.243 0.024 0.089
0.241 0.026 0.088
0.248 0.029 0.091
0.245 0.031 0.090
0.247 0.033 0.091
0.244 0.035 0.090
0.241 0.037 0.089
0.233 0.038 0.086
0.212 0.036 0.078
0.204 0.037 0.075
0.186 0.036 0.069
0.182 0.037 0.067
0.187 0.039 0.069
0.201 0.044 0.075
0.217 0.050 0.080
0.229 0.055 0.085
0.242 0.060 0.090
0.245 0.063 0.091
0.245 0.066 0.091
0.243 0.068 0.091
0.236 0.068 0.088
0.232 0.069 0.087
0.225 0.069 0.084
0.223 0.071 0.084
0.222 0.073 0.083
0.217 0.073 0.082
0.206 0.072 0.078
0.204 0.073 0.077
0.204 0.075 0.077
0.215 0.081 0.081
0.220 0.086 0.084
0.221 0.088 0.084
0.217 0.089 0.083
0.215 0.090 0.082
0.216 0.093 0.082
0.214 0.094 0.082
0.212 0.096 0.081
0.209 0.096 0.080
0.210 0.099 0.081
0.211 0.102 0.082
0.211 0.104 0.082
0.210 0.106 0.081
0.211 0.109 0.082
0.214 0.113 0.084
0.215 0.116 0.084
0.215 0.118 0.084
0.211 0.118 0.083
0.207 0.118 0.082
0.204 0.119 0.081
0.210 0.125 0.083
0.203 0.123 0.081
0.207 0.128 0.083
0.208 0.131 0.083
0.204 0.132 0.082
0.207 0.136 0.083
0.210 0.141 0.085
0.215 0.147 0.087
0.214 0.148 0.087
0.223 0.158 0.091
0.229 0.165 0.094
0.218 0.159 0.090
0.208 0.155 0.086
0.212 0.161 0.088
0.198 0.153 0.083
0.181 0.143 0.076
0.176 0.141 0.074
0.178 0.145 0.075
0.189 0.157 0.080
0.186 0.157 0.079
0.186 0.159 0.080
0.186 0.163 0.080
0.188 0.168 0.082
0.184 0.166 0.080
0.184 0.169 0.080
0.184 0.172 0.081
0.183 0.175 0.081
0.183 0.178 0.081
0.183 0.180 0.082
0.181 0.182 0.082
0.182 0.186 0.082
0.183 0.189 0.083
0.182 0.192 0.083
0.180 0.193 0.083
0.178 0.194 0.082
0.178 0.198 0.083
0.178 0.201 0.083
0.178 0.204 0.084
0.177 0.206 0.084
0.175 0.208 0.084
0.173 0.208 0.083
0.172 0.210 0.083
0.175 0.217 0.085
0.173 0.219 0.085
0.172 0.221 0.085
0.170 0.221 0.084
0.170 0.224 0.085
0.169 0.227 0.085
0.105 -0.140 0.052
0.107 -0.141 0.053
0.104 -0.135 0.051
0.102 -0.131 0.050
0.100 -0.126 0.049
0.095 -0.118 0.046
0.095 -0.118 0.046
0.094 -0.114 0.045
0.103 -0.124 0.050
0.105 -0.124 0.050
0.106 -0.123 0.050
0.103 -0.118 0.049
0.101 -0.114 0.047
0.099 -0.110 0.046
0.098 -0.107 0.046
0.100 -0.108 0.046
0.108 -0.114 0.050
0.101 -0.105 0.046
0.101 -0.104 0.046
0.101 -0.103 0.046
0.103 -0.103 0.047
0.104 -0.102 0.047
0.107 -0.104 0.048
0.111 -0.106 0.049
0.118 -0.110 0.052
0.211 -0.191 0.093
0.213 -0.190 0.093
0.208 -0.183 0.091
0.210 -0.182 0.091
0.205 -0.175 0.089
0.201 -0.168 0.086
0.199 -0.164 0.085
0.200 -0.162 0.085
0.197 -0.157 0.084
0.198 -0.155 0.084
0.195 -0.150 0.083
0.196 -0.148 0.082
0.194 -0.144 0.081
0.194 -0.142 0.081
0.195 -0.140 0.081
0.197 -0.139 0.082
0.200 -0.138 0.083
0.200 -0.136 0.083
0.201 -0.134 0.083
0.204 -0.134 0.084
0.206 -0.133 0.084
0.200 -0.127 0.082
0.202 -0.126 0.082
0.202 -0.123 0.082
0.201 -0.120 0.081
0.203 -0.119 0.082
0.204 -0.117 0.082
0.204 -0.115 0.082
0.205 -0.113 0.082
0.205 -0.111 0.082
0.204 -0.108 0.081
0.205 -0.106 0.081
0.200 -0.102 0.079
0.200 -0.100 0.079
0.199 -0.097 0.079
0.201 -0.096 0.079
0.202 -0.094 0.079
0.196 -0.090 0.077
0.204 -0.091 0.080
0.201 -0.088 0.079
0.201 -0.085 0.078
0.204 -0.085 0.080
0.203 -0.082 0.079
0.204 -0.080 0.079
0.199 -0.077 0.077
0.201 -0.075 0.078
0.202 -0.074 0.078
0.206 -0.073 0.079
0.207 -0.071 0.080
0.210 -0.070 0.081
0.219 -0.071 0.084
0.221 -0.070 0.085
0.221 -0.068 0.085
0.222 -0.066 0.085
0.224 -0.064 0.085
0.227 -0.063 0.087
0.230 -0.061 0.088
0.232 -0.060 0.088
0.235 -0.058 0.090
0.236 -0.056 0.090
0.234 -0.053 0.089
0.233 -0.051 0.088
0.232 -0.049 0.088
0.232 -0.046 0.088
0.234 -0.044 0.088
0.233 -0.042 0.088
0.231 -0.040 0.087
0.232 -0.038 0.087
0.235 -0.036 0.089
0.233 -0.033 0.088
0.231 -0.031 0.087
0.232 -0.029 0.088
0.233 -0.027 0.088
0.230 -0.025 0.087
0.228 -0.022 0.086
0.229 -0.020 0.086
0.233 -0.018 0.088
0.260 -0.018 0.098
0.249 -0.015 0.094
0.257 -0.013 0.097
0.245 -0.010 0.092
0.230 -0.007 0.086
0.222 -0.005 0.083
0.225 -0.003 0.085
0.217 -0.001 0.081
0.206 0.001 0.077
0.212 0.003 0.080
0.219 0.005 0.082
0.220 0.007 0.083
0.219 0.009 0.082
0.216 0.011 0.081
0.215 0.013 0.081
0.222 0.015 0.084
0.228 0.018 0.086
0.238 0.021 0.090
0.238 0.023 0.090
0.241 0.026 0.091
0.241 0.028 0.091
0.239 0.030 0.090
0.235 0.032 0.089
0.224 0.032 0.085
0.218 0.034 0.083
0.205 0.033 0.078
0.203 0.035 0.077
0.181 0.033 0.069
0.177 0.034 0.067
0.178 0.036 0.068
0.184 0.039 0.070
0.198 0.044 0.075
0.226 0.052 0.086
0.238 0.057 0.091
0.248 0.062 0.095
0.251 0.065 0.096
0.241 0.065 0.092
0.236 0.066 0.090
0.232 0.067 0.089
0.222 0.066 0.085
0.216 0.066 0.083
0.215 0.068 0.083
0.217 0.071 0.084
0.215 0.073 0.083
0.207 0.072 0.080
0.201 0.072 0.078
0.200 0.074 0.078
0.200 0.076 0.078
0.207 0.081 0.081
0.212 0.085 0.083
0.207 0.085 0.081
0.207 0.087 0.081
0.209 0.090 0.082
0.209 0.092 0.082
0.204 0.092 0.080
0.201 0.093 0.079
0.196 0.093 0.078
0.190 0.092 0.076
0.188 0.093 0.075
0.189 0.096 0.075
0.184 0.095 0.073
0.176 0.093 0.070
0.173 0.094 0.070
0.175 0.096 0.071
0.175 0.098 0.071
0.175 0.101 0.071
0.187 0.112 0.076
0.194 0.118 0.079
0.200 0.124 0.082
0.198 0.125 0.082
0.199 0.128 0.082
0.200 0.132 0.083
0.205 0.137 0.085
0.204 0.140 0.085
0.205 0.143 0.086
0.215 0.152 0.090
0.220 0.159 0.093
0.205 0.151 0.087
0.205 0.153 0.087
0.207 0.158 0.088
0.203 0.157 0.087
0.184 0.145 0.079
0.179 0.144 0.077
0.180 0.147 0.078
0.179 0.149 0.078
0.183 0.155 0.080
0.182 0.157 0.080
0.183 0.160 0.081
0.182 0.162 0.081
0.181 0.165 0.081
0.181 0.167 0.081
0.181 0.170 0.082
0.181 0.173 0.082
0.181 0.176 0.083
0.180 0.178 0.083
0.179 0.180 0.083
0.179 0.183 0.083
0.178 0.185 0.083
0.178 0.188 0.084
0.178 0.191 0.084
0.176 0.192 0.084
0.176 0.195 0.084
0.175 0.198 0.084
0.174 0.200 0.084
0.174 0.203 0.085
0.173 0.205 0.085
0.170 0.206 0.084
0.169 0.208 0.084
0.169 0.211 0.085
0.171 0.216 0.086
0.170 0.218 0.086
0.168 0.219 0.085
0.166 0.219 0.085
0.101 -0.133 0.051
0.100 -0.130 0.051
0.098 -0.126 0.050
0.097 -0.123 0.049
0.096 -0.121 0.048
0.100 -0.123 0.050
0.103 -0.125 0.051
0.104 -0.125 0.051
0.104 -0.123 0.051
0.103 -0.120 0.050
0.099 -0.114 0.048
0.102 -0.116 0.050
0.109 -0.122 0.053
0.113 -0.124 0.054
0.112 -0.121 0.053
0.112 -0.119 0.053
0.110 -0.115 0.052
0.101 -0.104 0.047
0.101 -0.103 0.047
0.103 -0.103 0.048
0.105 -0.103 0.048
0.108 -0.105 0.050
0.111 -0.106 0.051
0.118 -0.111 0.054
0.193 -0.175 0.087
0.195 -0.175 0.088
0.196 -0.172 0.088
0.196 -0.170 0.087
0.197 -0.168 0.087
0.197 -0.165 0.087
0.197 -0.162 0.087
0.197 -0.160 0.086
0.198 -0.158 0.087
0.198 -0.155 0.086
0.199 -0.153 0.086
0.201 -0.152 0.087
0.201 -0.149 0.086
0.197 -0.144 0.084
0.197 -0.142 0.084
0.201 -0.142 0.085
0.201 -0.140 0.085
0.200 -0.136 0.085
0.201 -0.135 0.085
0.202 -0.133 0.085
0.200 -0.129 0.084
0.200 -0.127 0.083
0.201 -0.125 0.084
0.201 -0.123 0.084
0.202 -0.121 0.084
0.203 -0.120 0.084
0.205 -0.118 0.085
0.205 -0.116 0.084
0.207 -0.114 0.085
0.208 -0.113 0.085
0.207 -0.110 0.084
0.206 -0.107 0.084
0.203 -0.104 0.083
0.195 -0.098 0.079
0.200 -0.098 0.081
0.203 -0.097 0.082
0.204 -0.096 0.082
0.206 -0.094 0.083
0.205 -0.092 0.082
0.206 -0.090 0.082
0.202 -0.086 0.081
0.204 -0.085 0.082
0.206 -0.083 0.082
0.207 -0.082 0.082
0.206 -0.079 0.082
0.201 -0.075 0.080
0.201 -0.074 0.080
0.202 -0.072 0.080
0.205 -0.071 0.081
0.212 -0.071 0.084
0.217 -0.071 0.086
0.219 -0.069 0.086
0.218 -0.067 0.086
0.218 -0.064 0.085
0.218 -0.063 0.086
0.224 -0.062 0.088
0.225 -0.060 0.088
0.227 -0.058 0.089
0.227 -0.056 0.089
0.228 -0.054 0.089
0.231 -0.053 0.090
0.230 -0.050 0.090
0.227 -0.048 0.088
0.229 -0.046 0.089
0.228 -0.044 0.089
0.229 -0.042 0.089
0.226 -0.039 0.088
0.224 -0.036 0.087
0.226 -0.035 0.088
0.227 -0.033 0.088
0.228 -0.031 0.088
0.228 -0.029 0.088
0.229 -0.026 0.088
0.228 -0.024 0.088
0.226 -0.022 0.087
0.229 -0.020 0.088
0.246 -0.019 0.095
0.247 -0.017 0.095
0.253 -0.015 0.098
0.235 -0.012 0.091
0.230 -0.010 0.089
0.225 -0.007 0.087
0.222 -0.005 0.086
0.221 -0.003 0.085
0.217 -0.001 0.084
0.210 0.001 0.081
0.213 0.003 0.082
0.211 0.005 0.081
0.215 0.007 0.083
0.211 0.009 0.081
0.211 0.011 0.081
0.220 0.013 0.085
0.222 0.015 0.086
0.223 0.018 0.086
0.227 0.020 0.088
0.231 0.023 0.090
0.235 0.025 0.091
0.237 0.028 0.092
0.234 0.029 0.091
0.219 0.030 0.085
0.213 0.031 0.083
0.205 0.032 0.080
0.194 0.032 0.075
0.180 0.031 0.070
0.170 0.031 0.066
0.175 0.034 0.068
0.179 0.036 0.070
0.185 0.039 0.072
0.205 0.045 0.080
0.220 0.051 0.086
0.232 0.056 0.091
0.237 0.059 0.093
0.242 0.063 0.095
0.238 0.064 0.094
0.236 0.066 0.093
0.234 0.068 0.092
0.213 0.064 0.084
0.208 0.064 0.082
0.205 0.065 0.081
0.211 0.069 0.083
0.208 0.071 0.083
0.208 0.073 0.083
0.200 0.072 0.080
0.195 0.072 0.078
0.194 0.074 0.078
0.198 0.077 0.079
0.201 0.080 0.081
0.197 0.081 0.079
0.198 0.083 0.079
0.196 0.084 0.079
0.184 0.081 0.074
0.183 0.083 0.074
0.189 0.088 0.077
0.188 0.089 0.077
0.187 0.091 0.076
0.186 0.092 0.076
0.185 0.094 0.076
0.184 0.095 0.075
0.183 0.097 0.075
0.184 0.099 0.076
0.184 0.102 0.076
0.181 0.102 0.075
0.186 0.107 0.077
0.201 0.118 0.084
0.200 0.120 0.084
0.195 0.119 0.082
0.193 0.120 0.081
0.199 0.126 0.084
0.199 0.129 0.084
0.198 0.130 0.084
0.201 0.135 0.086
0.201 0.137 0.086
0.202 0.140 0.087
0.213 0.151 0.092
0.210 0.152 0.091
0.198 0.146 0.086
0.196 0.147 0.085
0.204 0.155 0.089
0.200 0.155 0.088
0.191 0.151 0.085
0.184 0.148 0.082
0.179 0.147 0.080
0.180 0.150 0.081
0.181 0.154 0.081
0.180 0.155 0.081
0.179 0.158 0.082
0.179 0.160 0.082
0.179 0.163 0.082
0.179 0.166 0.083
0.179 0.169 0.083
0.179 0.171 0.083
0.178 0.173 0.083
0.177 0.176 0.084
0.177 0.178 0.084
0.176 0.181 0.084
0.175 0.183 0.084
0.174 0.185 0.084
0.175 0.189 0.085
0.174 0.191 0.085
0.171 0.191 0.084
0.171 0.194 0.085
0.170 0.196 0.085
0.171 0.200 0.086
0.170 0.203 0.086
0.169 0.204 0.086
0.168 0.206 0.086
0.168 0.209 0.086
0.168 0.212 0.086
0.166 0.213 0.086
0.166 0.216 0.086
0.163 0.216 0.086
0.099 -0.131 0.052
0.097 -0.127 0.051
0.097 -0.125 0.050
0.097 -0.124 0.050
0.099 -0.124 0.051
0.101 -0.125 0.052
0.102 -0.125 0.052
0.104 -0.125 0.053
0.104 -0.123 0.052
0.102 -0.119 0.051
0.111 -0.128 0.055
0.117 -0.133 0.058
0.115 -0.128 0.057
0.115 -0.127 0.057
0.116 -0.126 0.057
0.114 -0.121 0.055
0.112 -0.118 0.054
0.105 -0.108 0.050
0.103 -0.105 0.050
0.105 -0.106 0.050
0.105 -0.104 0.050
0.107 -0.104 0.051
0.111 -0.106 0.052
0.117 -0.110 0.055
0.181 -0.165 0.084
0.193 -0.173 0.089
0.195 -0.172 0.089
0.195 -0.170 0.089
0.196 -0.168 0.090
0.198 -0.166 0.090
0.200 -0.165 0.090
0.202 -0.164 0.091
0.203 -0.162 0.091
0.202 -0.159 0.090
0.205 -0.158 0.091
0.202 -0.153 0.089
0.200 -0.149 0.088
0.199 -0.146 0.087
0.198 -0.142 0.087
0.198 -0.141 0.087
0.199 -0.139 0.087
0.201 -0.137 0.087
0.198 -0.133 0.086
0.199 -0.131 0.086
0.200 -0.129 0.086
0.200 -0.127 0.086
0.201 -0.125 0.086
0.201 -0.123 0.086
0.201 -0.121 0.085
0.202 -0.119 0.086
0.204 -0.118 0.086
0.205 -0.116 0.086
0.203 -0.113 0.086
0.204 -0.111 0.085
0.207 -0.110 0.086
0.205 -0.107 0.086
0.203 -0.104 0.085
0.202 -0.101 0.084
0.201 -0.099 0.084
0.203 -0.097 0.084
0.205 -0.096 0.085
0.209 -0.096 0.086
0.209 -0.093 0.086
0.206 -0.090 0.085
0.207 -0.088 0.085
0.205 -0.086 0.084
0.206 -0.084 0.084
0.208 -0.082 0.085
0.206 -0.080 0.084
0.204 -0.077 0.083
0.200 -0.073 0.081
0.199 -0.071 0.081
0.207 -0.072 0.084
0.213 -0.072 0.086
0.214 -0.070 0.086
0.214 -0.068 0.086
0.216 -0.066 0.087
0.215 -0.064 0.087
0.215 -0.062 0.087
0.217 -0.060 0.087
0.219 -0.058 0.088
0.222 -0.057 0.089
0.224 -0.055 0.089
0.222 -0.053 0.089
0.224 -0.051 0.089
0.223 -0.049 0.089
0.224 -0.047 0.089
0.222 -0.045 0.089
0.223 -0.043 0.089
0.222 -0.040 0.088
0.221 -0.038 0.088
0.222 -0.036 0.088
0.220 -0.034 0.087
0.221 -0.032 0.088
0.224 -0.030 0.089
0.223 -0.028 0.089
0.222 -0.026 0.088
0.225 -0.024 0.089
0.229 -0.022 0.091
0.242 -0.021 0.096
0.242 -0.019 0.096
0.238 -0.017 0.094
0.221 -0.011 0.087
0.219 -0.009 0.087
0.219 -0.007 0.087
0.218 -0.005 0.086
0.214 -0.003 0.085
0.214 -0.001 0.085
0.210 0.001 0.083
0.200 0.003 0.079
0.203 0.005 0.080
0.198 0.006 0.078
0.201 0.008 0.079
0.209 0.011 0.083
0.222 0.013 0.088
0.213 0.015 0.084
0.211 0.017 0.084
0.217 0.019 0.086
0.218 0.021 0.087
0.231 0.027 0.092
0.219 0.028 0.087
0.202 0.027 0.080
0.196 0.028 0.078
0.192 0.030 0.076
0.182 0.030 0.073
0.174 0.030 0.069
0.172 0.032 0.069
0.175 0.034 0.070
0.179 0.036 0.072
0.188 0.040 0.075
0.199 0.044 0.080
0.220 0.051 0.088
0.225 0.054 0.090
0.226 0.057 0.091
0.226 0.059 0.091
0.226 0.061 0.091
0.227 0.064 0.092
0.211 0.061 0.085
0.205 0.061 0.083
0.203 0.063 0.082
0.200 0.064 0.081
0.197 0.065 0.080
0.201 0.068 0.082
0.200 0.070 0.081
0.195 0.070 0.080
0.193 0.071 0.079
0.192 0.073 0.079
0.195 0.076 0.080
0.198 0.079 0.081
0.198 0.081 0.082
0.196 0.083 0.081
0.194 0.084 0.080
0.188 0.083 0.078
0.193 0.088 0.080
0.193 0.089 0.080
0.191 0.091 0.080
0.189 0.092 0.079
0.185 0.092 0.078
0.187 0.095 0.079
0.190 0.099 0.080
0.190 0.101 0.080
0.187 0.101 0.079
0.187 0.103 0.079
0.185 0.104 0.079
0.186 0.107 0.079
0.199 0.117 0.085
0.201 0.121 0.086
0.188 0.115 0.081
0.177 0.111 0.077
0.172 0.109 0.074
0.194 0.126 0.084
0.196 0.130 0.086
0.197 0.132 0.086
0.197 0.135 0.086
0.196 0.137 0.086
0.211 0.150 0.093
0.211 0.153 0.094
0.195 0.144 0.087
0.184 0.138 0.082
0.188 0.144 0.085
0.195 0.152 0.088
0.192 0.152 0.087
0.186 0.150 0.085
0.180 0.148 0.082
0.179 0.149 0.082
0.178 0.151 0.082
0.178 0.154 0.083
0.177 0.156 0.083
0.177 0.159 0.083
0.177 0.161 0.083
0.176 0.164 0.084
0.176 0.166 0.084
0.175 0.169 0.084
0.175 0.171 0.084
0.174 0.173 0.084
0.174 0.176 0.085
0.173 0.178 0.085
0.172 0.180 0.085
0.172 0.183 0.085
0.172 0.186 0.086
0.171 0.188 0.086
0.169 0.189 0.086
0.168 0.191 0.085
0.168 0.194 0.086
0.167 0.197 0.086
0.167 0.199 0.086
0.167 0.203 0.087
0.166 0.205 0.087
0.165 0.207 0.087
0.164 0.209 0.087
0.162 0.209 0.086
0.160 0.210 0.086
0.098 -0.128 0.052
0.100 -0.128 0.053
0.101 -0.128 0.053
0.104 -0.130 0.055
0.102 -0.126 0.053
0.102 -0.125 0.053
0.102 -0.123 0.053
0.111 -0.132 0.057
0.114 -0.134 0.059
0.120 -0.139 0.062
0.121 -0.138 0.062
0.119 -0.133 0.060
0.118 -0.130 0.060
0.118 -0.128 0.059
0.115 -0.124 0.058
0.113 -0.119 0.056
0.109 -0.113 0.054
0.104 -0.106 0.051
0.104 -0.104 0.051
0.106 -0.105 0.052
0.108 -0.105 0.052
0.110 -0.106 0.053
0.115 -0.109 0.055
0.124 -0.115 0.059
0.195 -0.175 0.092
0.196 -0.173 0.092
0.196 -0.171 0.092
0.197 -0.168 0.092
0.198 -0.166 0.092
0.199 -0.165 0.092
0.200 -0.163 0.092
0.200 -0.160 0.092
0.198 -0.156 0.091
0.198 -0.153 0.090
0.198 -0.150 0.090
0.198 -0.148 0.090
0.198 -0.145 0.089
0.197 -0.142 0.089
0.197 -0.140 0.088
0.198 -0.138 0.089
0.200 -0.137 0.089
0.197 -0.133 0.088
0.198 -0.131 0.088
0.200 -0.129 0.088
0.200 -0.128 0.088
0.199 -0.124 0.087
0.198 -0.121 0.087
0.198 -0.119 0.086
0.200 -0.118 0.087
0.200 -0.116 0.087
0.200 -0.113 0.086
0.198 -0.110 0.086
0.198 -0.108 0.085
0.199 -0.106 0.086
0.200 -0.105 0.086
0.201 -0.103 0.086
0.202 -0.101 0.086
0.201 -0.099 0.086
0.202 -0.097 0.086
0.203 -0.095 0.086
0.207 -0.095 0.088
0.209 -0.093 0.088
0.206 -0.090 0.087
0.205 -0.088 0.086
0.203 -0.085 0.085
0.204 -0.083 0.085
0.205 -0.081 0.086
0.204 -0.079 0.085
0.203 -0.076 0.085
0.201 -0.074 0.084
0.203 -0.072 0.084
0.211 -0.073 0.088
0.210 -0.071 0.087
0.211 -0.069 0.087
0.211 -0.067 0.087
0.213 -0.065 0.088
0.214 -0.064 0.088
0.212 -0.061 0.088
0.214 -0.059 0.088
0.215 -0.058 0.088
0.217 -0.056 0.089
0.218 -0.054 0.090
0.219 -0.052 0.090
0.218 -0.050 0.089
0.218 -0.048 0.089
0.217 -0.046 0.089
0.217 -0.044 0.089
0.216 -0.041 0.088
0.218 -0.040 0.089
0.219 -0.038 0.089
0.217 -0.035 0.089
0.218 -0.033 0.089
0.218 -0.031 0.089
0.217 -0.029 0.088
0.218 -0.027 0.089
0.221 -0.026 0.090
0.231 -0.025 0.094
0.235 -0.023 0.095
0.229 -0.020 0.093
0.226 -0.018 0.092
0.203 -0.005 0.082
0.204 -0.003 0.083
0.200 -0.001 0.081
0.200 0.001 0.081
0.191 0.003 0.078
0.181 0.004 0.073
0.178 0.006 0.072
0.183 0.008 0.074
0.195 0.010 0.079
0.198 0.014 0.080
0.194 0.015 0.079
0.183 0.016 0.074
0.181 0.021 0.074
0.181 0.023 0.074
0.181 0.026 0.074
0.166 0.027 0.068
0.170 0.030 0.070
0.172 0.032 0.070
0.173 0.033 0.071
0.173 0.035 0.071
0.185 0.039 0.076
0.209 0.046 0.086
0.219 0.051 0.090
0.220 0.053 0.091
0.219 0.055 0.090
0.217 0.056 0.089
0.213 0.058 0.088
0.205 0.057 0.085
0.201 0.058 0.083
0.200 0.060 0.083
0.201 0.062 0.083
0.198 0.063 0.082
0.197 0.065 0.082
0.196 0.067 0.082
0.197 0.069 0.082
0.195 0.070 0.081
0.193 0.072 0.081
0.193 0.073 0.081
0.196 0.077 0.083
0.197 0.079 0.083
0.197 0.081 0.083
0.196 0.083 0.083
0.196 0.085 0.083
0.197 0.087 0.084
0.195 0.089 0.083
0.195 0.091 0.083
0.192 0.091 0.082
0.188 0.092 0.081
0.189 0.094 0.081
0.187 0.095 0.081
0.187 0.097 0.081
0.182 0.097 0.079
0.183 0.099 0.079
0.183 0.101 0.080
0.180 0.102 0.079
0.169 0.098 0.074
0.166 0.098 0.073
0.169 0.102 0.074
0.169 0.104 0.075
0.166 0.104 0.074
0.174 0.111 0.077
0.189 0.123 0.084
0.192 0.127 0.086
0.193 0.130 0.087
0.191 0.131 0.086
0.189 0.132 0.085
0.213 0.152 0.097
0.211 0.153 0.096
0.200 0.148 0.091
0.180 0.135 0.083
0.176 0.135 0.081
0.188 0.147 0.087
0.187 0.148 0.087
0.182 0.147 0.085
0.180 0.149 0.085
0.177 0.149 0.084
0.176 0.150 0.083
0.175 0.152 0.084
0.175 0.154 0.084
0.175 0.157 0.084
0.174 0.159 0.084
0.174 0.162 0.085
0.174 0.164 0.085
0.173 0.166 0.085
0.172 0.169 0.085
0.172 0.172 0.086
0.170 0.172 0.085
0.169 0.174 0.085
0.169 0.177 0.085
0.169 0.180 0.086
0.170 0.184 0.087
0.169 0.186 0.087
0.167 0.188 0.087
0.167 0.190 0.087
0.166 0.193 0.087
0.166 0.195 0.087
0.164 0.197 0.087
0.162 0.197 0.086
0.162 0.200 0.087
0.163 0.204 0.088
0.161 0.205 0.088
0.160 0.206 0.087
0.158 0.207 0.087
0.101 -0.132 0.055
0.104 -0.135 0.057
0.103 -0.132 0.056
0.101 -0.127 0.055
0.104 -0.129 0.056
0.104 -0.127 0.055
0.121 -0.147 0.065
0.115 -0.137 0.061
0.121 -0.142 0.064
0.123 -0.142 0.065
0.122 -0.139 0.064
0.121 -0.135 0.063
0.119 -0.132 0.062
0.119 -0.129 0.061
0.117 -0.125 0.060
0.114 -0.120 0.058
0.111 -0.116 0.056
0.108 -0.110 0.054
0.104 -0.105 0.052
0.105 -0.104 0.053
0.108 -0.105 0.054
0.111 -0.107 0.055
0.113 -0.107 0.056
0.119 -0.111 0.058
0.131 -0.120 0.064
0.192 -0.170 0.093
0.194 -0.169 0.094
0.196 -0.168 0.094
0.195 -0.164 0.093
0.196 -0.163 0.093
0.197 -0.161 0.093
0.197 -0.158 0.093
0.196 -0.155 0.092
0.196 -0.152 0.092
0.196 -0.149 0.091
0.196 -0.147 0.091
0.196 -0.144 0.090
0.195 -0.141 0.090
0.195 -0.139 0.090
0.197 -0.138 0.090
0.197 -0.135 0.090
0.197 -0.133 0.090
0.197 -0.131 0.090
0.198 -0.129 0.089
0.198 -0.126 0.089
0.198 -0.124 0.089
0.197 -0.121 0.088
0.197 -0.119 0.088
0.198 -0.117 0.088
0.199 -0.116 0.089
0.199 -0.113 0.088
0.199 -0.111 0.088
0.199 -0.108 0.088
0.199 -0.106 0.087
0.199 -0.104 0.087
0.199 -0.102 0.087
0.200 -0.100 0.087
0.201 -0.099 0.088
0.202 -0.097 0.088
0.201 -0.095 0.087
0.201 -0.092 0.087
0.201 -0.090 0.087
0.200 -0.088 0.086
0.200 -0.086 0.086
0.201 -0.084 0.087
0.202 -0.082 0.087
0.203 -0.081 0.087
0.202 -0.078 0.087
0.201 -0.076 0.086
0.203 -0.074 0.087
0.204 -0.073 0.087
0.205 -0.071 0.087
0.207 -0.070 0.088
0.208 -0.068 0.088
0.208 -0.066 0.088
0.211 -0.065 0.089
0.210 -0.062 0.089
0.209 -0.060 0.088
0.210 -0.059 0.089
0.211 -0.057 0.089
0.213 -0.055 0.090
0.214 -0.053 0.090
0.214 -0.051 0.090
0.216 -0.050 0.091
0.214 -0.047 0.090
0.214 -0.045 0.090
0.212 -0.043 0.089
0.212 -0.041 0.089
0.212 -0.039 0.088
0.213 -0.037 0.089
0.215 -0.035 0.090
0.215 -0.033 0.090
0.215 -0.031 0.089
0.212 -0.029 0.088
0.216 -0.027 0.090
0.228 -0.026 0.095
0.230 -0.025 0.096
0.225 -0.022 0.094
0.218 -0.019 0.091
0.196 -0.015 0.082
0.185 -0.013 0.077
