VERSION .7
FIELDS x y z
SIZE 4 4 4
TYPE F F F
COUNT 1 1 1
WIDTH     2586
HEIGHT 1
VIEWPOINT 0 0 0 1 0 0 0
POINTS     2586
DATA ascii
0.172 -0.082 0.040
0.172 -0.081 0.040
0.175 -0.080 0.041
0.176 -0.079 0.041
0.177 -0.077 0.041
0.178 -0.076 0.041
0.179 -0.075 0.041
0.180 -0.073 0.042
0.181 -0.072 0.042
0.195 -0.075 0.045
0.208 -0.079 0.048
0.213 -0.078 0.049
0.219 -0.078 0.050
0.218 -0.076 0.050
0.225 -0.076 0.051
0.230 -0.076 0.053
0.234 -0.075 0.053
0.235 -0.073 0.053
0.241 -0.072 0.055
0.244 -0.071 0.055
0.253 -0.071 0.057
0.342 -0.090 0.077
0.342 -0.086 0.077
0.342 -0.083 0.077
0.341 -0.080 0.077
0.341 -0.076 0.077
0.336 -0.072 0.076
0.325 -0.067 0.073
0.328 -0.065 0.074
0.321 -0.060 0.072
0.312 -0.056 0.070
0.297 -0.050 0.067
0.271 -0.043 0.061
0.273 -0.041 0.061
0.275 -0.039 0.062
0.278 -0.037 0.062
0.283 -0.035 0.063
0.286 -0.033 0.064
0.287 -0.030 0.064
0.288 -0.028 0.065
0.289 -0.025 0.065
0.286 -0.022 0.064
0.283 -0.019 0.063
0.282 -0.017 0.063
0.284 -0.014 0.063
0.285 -0.012 0.064
0.283 -0.009 0.063
0.281 -0.006 0.063
0.284 -0.004 0.063
0.288 -0.001 0.064
0.286 0.001 0.064
0.287 0.004 0.064
0.285 0.006 0.064
0.287 0.009 0.064
0.284 0.012 0.063
0.287 0.014 0.064
0.288 0.017 0.065
0.287 0.020 0.064
0.283 0.022 0.063
0.284 0.024 0.064
0.288 0.027 0.065
0.295 0.031 0.066
0.288 0.033 0.065
0.292 0.036 0.066
0.284 0.037 0.064
0.282 0.040 0.063
0.274 0.041 0.062
0.282 0.045 0.063
0.281 0.048 0.063
0.283 0.050 0.064
0.277 0.052 0.063
0.275 0.054 0.062
0.280 0.058 0.063
0.280 0.060 0.063
0.282 0.064 0.064
0.276 0.065 0.063
0.276 0.070 0.063
0.286 0.075 0.065
0.283 0.077 0.064
0.283 0.080 0.065
0.286 0.083 0.065
0.283 0.085 0.065
0.293 0.091 0.067
0.294 0.094 0.067
0.292 0.096 0.067
0.291 0.099 0.067
0.293 0.103 0.067
0.299 0.108 0.069
0.301 0.111 0.069
0.300 0.114 0.069
0.299 0.117 0.069
0.295 0.118 0.068
0.286 0.118 0.067
0.300 0.129 0.070
0.311 0.137 0.073
0.314 0.142 0.074
0.314 0.145 0.074
0.313 0.148 0.074
0.307 0.148 0.072
0.303 0.150 0.072
0.305 0.154 0.072
0.306 0.158 0.073
0.302 0.159 0.072
0.306 0.164 0.073
0.309 0.170 0.074
0.306 0.171 0.073
0.303 0.173 0.073
0.300 0.175 0.072
0.298 0.177 0.072
0.294 0.178 0.071
0.291 0.179 0.071
0.287 0.180 0.070
0.283 0.181 0.069
0.279 0.182 0.069
0.276 0.183 0.068
0.272 0.184 0.067
0.268 0.185 0.067
0.265 0.186 0.066
0.262 0.187 0.065
0.261 0.189 0.065
0.261 0.193 0.066
0.260 0.196 0.066
0.259 0.199 0.066
0.259 0.202 0.066
0.259 0.205 0.066
0.257 0.207 0.066
0.257 0.211 0.066
0.255 0.213 0.066
0.253 0.215 0.066
0.252 0.217 0.066
0.252 0.221 0.066
0.253 0.226 0.067
0.255 0.232 0.068
0.252 0.233 0.067
0.245 0.231 0.066
0.236 0.226 0.064
0.231 0.225 0.063
0.234 0.231 0.064
0.234 0.235 0.064
0.221 0.229 0.061
0.215 0.227 0.060
0.207 0.222 0.058
0.200 0.219 0.057
0.198 0.219 0.056
0.196 0.221 0.056
0.194 0.222 0.056
0.192 0.225 0.056
0.193 0.229 0.057
0.200 0.242 0.059
0.210 0.257 0.062
0.224 0.279 0.067
0.230 0.290 0.069
0.250 0.332 0.077
0.099 -0.136 0.031
0.099 -0.135 0.031
0.100 -0.135 0.031
0.100 -0.132 0.031
0.100 -0.131 0.031
0.101 -0.130 0.031
0.100 -0.127 0.030
0.101 -0.127 0.031
0.101 -0.125 0.031
0.101 -0.123 0.030
0.102 -0.122 0.030
0.101 -0.120 0.030
0.101 -0.118 0.030
0.100 -0.115 0.029
0.100 -0.114 0.029
0.117 -0.131 0.034
0.116 -0.127 0.034
0.121 -0.131 0.035
0.274 -0.284 0.078
0.273 -0.278 0.077
0.271 -0.271 0.076
0.278 -0.274 0.078
0.282 -0.274 0.079
0.281 -0.269 0.078
0.282 -0.266 0.078
0.283 -0.262 0.078
0.285 -0.259 0.078
0.286 -0.256 0.078
0.286 -0.253 0.077
0.284 -0.247 0.077
0.284 -0.243 0.076
0.285 -0.240 0.076
0.283 -0.235 0.075
0.282 -0.230 0.075
0.275 -0.220 0.073
0.204 -0.156 0.053
0.203 -0.152 0.053
0.201 -0.148 0.052
0.205 -0.149 0.053
0.206 -0.147 0.053
0.201 -0.141 0.051
0.203 -0.140 0.052
0.205 -0.138 0.052
0.205 -0.136 0.052
0.204 -0.133 0.052
0.200 -0.129 0.051
0.202 -0.127 0.051
0.205 -0.127 0.051
0.206 -0.125 0.052
0.206 -0.123 0.051
0.208 -0.121 0.052
0.207 -0.119 0.052
0.210 -0.118 0.052
0.202 -0.112 0.050
0.170 -0.092 0.042
0.170 -0.090 0.042
0.169 -0.088 0.042
0.170 -0.087 0.042
0.172 -0.082 0.042
0.173 -0.081 0.042
0.174 -0.080 0.042
0.175 -0.078 0.042
0.176 -0.077 0.043
0.177 -0.076 0.043
0.177 -0.074 0.043
0.180 -0.073 0.043
0.180 -0.071 0.043
0.181 -0.070 0.043
0.182 -0.069 0.043
0.185 -0.068 0.044
0.188 -0.067 0.045
0.214 -0.074 0.051
0.225 -0.076 0.054
0.230 -0.076 0.055
0.230 -0.074 0.055
0.232 -0.072 0.055
0.234 -0.070 0.056
0.245 -0.071 0.058
0.254 -0.071 0.060
0.333 -0.087 0.079
0.336 -0.085 0.079
0.335 -0.081 0.079
0.333 -0.078 0.078
0.330 -0.074 0.078
0.323 -0.069 0.076
0.325 -0.067 0.076
0.324 -0.064 0.076
0.321 -0.060 0.075
0.308 -0.055 0.072
0.278 -0.047 0.065
0.270 -0.043 0.063
0.274 -0.041 0.064
0.276 -0.039 0.064
0.278 -0.037 0.065
0.282 -0.035 0.066
0.286 -0.033 0.067
0.288 -0.030 0.067
0.290 -0.028 0.068
0.289 -0.025 0.067
0.284 -0.022 0.066
0.283 -0.019 0.066
0.280 -0.017 0.065
0.281 -0.014 0.065
0.281 -0.012 0.065
0.282 -0.009 0.066
0.282 -0.006 0.066
0.285 -0.004 0.066
0.286 -0.001 0.067
0.288 0.001 0.067
0.288 0.004 0.067
0.287 0.006 0.067
0.277 0.009 0.065
0.283 0.012 0.066
0.288 0.014 0.067
0.289 0.017 0.067
0.283 0.019 0.066
0.279 0.022 0.065
0.280 0.024 0.065
0.280 0.027 0.065
0.284 0.030 0.066
0.291 0.033 0.068
0.284 0.035 0.066
0.286 0.038 0.067
0.283 0.040 0.066
0.281 0.042 0.066
0.285 0.046 0.067
0.289 0.049 0.068
0.285 0.051 0.067
0.280 0.053 0.066
0.278 0.055 0.065
0.284 0.059 0.067
0.287 0.062 0.068
0.287 0.065 0.068
0.287 0.067 0.068
0.285 0.070 0.067
0.289 0.073 0.068
0.284 0.075 0.067
0.280 0.076 0.066
0.267 0.076 0.063
0.268 0.078 0.064
0.294 0.089 0.070
0.293 0.091 0.070
0.295 0.095 0.070
0.292 0.097 0.070
0.291 0.099 0.070
0.293 0.103 0.070
0.296 0.107 0.071
0.298 0.111 0.072
0.300 0.114 0.072
0.301 0.118 0.073
0.300 0.120 0.073
0.296 0.122 0.072
0.291 0.122 0.070
0.270 0.119 0.066
0.306 0.141 0.075
0.306 0.145 0.075
0.304 0.147 0.075
0.301 0.149 0.074
0.299 0.151 0.074
0.296 0.153 0.073
0.296 0.156 0.073
0.298 0.160 0.074
0.301 0.165 0.075
0.301 0.169 0.075
0.299 0.171 0.075
0.297 0.173 0.075
0.295 0.175 0.074
0.292 0.177 0.074
0.287 0.177 0.073
0.284 0.178 0.072
0.279 0.179 0.071
0.277 0.181 0.071
0.274 0.182 0.070
0.270 0.183 0.070
0.267 0.185 0.069
0.264 0.185 0.068
0.261 0.187 0.068
0.260 0.189 0.068
0.260 0.192 0.068
0.259 0.196 0.068
0.259 0.199 0.068
0.260 0.203 0.069
0.258 0.205 0.069
0.257 0.208 0.069
0.256 0.210 0.069
0.254 0.212 0.069
0.252 0.215 0.069
0.252 0.218 0.069
0.250 0.220 0.068
0.246 0.220 0.068
0.249 0.227 0.069
0.239 0.221 0.066
0.236 0.222 0.066
0.230 0.220 0.065
0.227 0.221 0.064
0.222 0.220 0.063
0.211 0.213 0.060
0.209 0.214 0.060
0.208 0.217 0.060
0.205 0.217 0.060
0.201 0.216 0.059
0.195 0.213 0.057
0.195 0.217 0.058
0.199 0.225 0.059
0.201 0.231 0.060
0.206 0.241 0.062
0.219 0.260 0.067
0.219 0.265 0.067
0.219 0.269 0.068
0.220 0.274 0.068
0.221 0.280 0.069
0.204 0.271 0.065
0.099 -0.137 0.033
0.100 -0.136 0.033
0.101 -0.135 0.033
0.101 -0.135 0.033
0.102 -0.133 0.033
0.102 -0.131 0.033
0.102 -0.130 0.032
0.102 -0.128 0.032
0.102 -0.126 0.032
0.102 -0.125 0.032
0.102 -0.123 0.032
0.101 -0.120 0.031
0.102 -0.119 0.031
0.102 -0.118 0.031
0.101 -0.115 0.031
0.101 -0.113 0.031
0.115 -0.127 0.035
0.110 -0.119 0.033
0.109 -0.116 0.032
0.268 -0.273 0.079
0.273 -0.274 0.080
0.275 -0.272 0.080
0.275 -0.268 0.080
0.277 -0.265 0.080
0.279 -0.263 0.080
0.280 -0.260 0.080
0.279 -0.255 0.079
0.281 -0.253 0.079
0.281 -0.249 0.079
0.279 -0.243 0.078
0.279 -0.239 0.078
0.280 -0.236 0.078
0.279 -0.231 0.077
0.276 -0.225 0.076
0.264 -0.212 0.072
0.209 -0.162 0.057
0.201 -0.153 0.055
0.204 -0.153 0.055
0.206 -0.152 0.055
0.206 -0.150 0.055
0.204 -0.146 0.055
0.203 -0.143 0.054
0.201 -0.139 0.053
0.208 -0.141 0.055
0.207 -0.138 0.055
0.205 -0.134 0.054
0.203 -0.131 0.053
0.201 -0.127 0.053
0.205 -0.127 0.054
0.204 -0.124 0.053
0.206 -0.123 0.053
0.207 -0.121 0.054
0.179 -0.103 0.046
0.169 -0.095 0.043
0.169 -0.093 0.043
0.169 -0.092 0.043
0.169 -0.090 0.043
0.169 -0.088 0.043
0.170 -0.087 0.043
0.171 -0.085 0.043
0.172 -0.084 0.044
0.175 -0.084 0.044
0.184 -0.086 0.046
0.188 -0.086 0.047
0.191 -0.086 0.048
0.192 -0.084 0.048
0.189 -0.081 0.047
0.187 -0.078 0.047
0.181 -0.074 0.045
0.181 -0.072 0.045
0.180 -0.070 0.045
0.183 -0.069 0.045
0.184 -0.068 0.046
0.185 -0.066 0.046
0.186 -0.065 0.046
0.189 -0.064 0.047
0.201 -0.066 0.050
0.232 -0.074 0.057
0.229 -0.071 0.056
0.227 -0.068 0.056
0.248 -0.072 0.061
0.258 -0.073 0.064
0.274 -0.075 0.067
0.319 -0.084 0.078
0.329 -0.083 0.081
0.328 -0.080 0.080
0.327 -0.076 0.080
0.319 -0.072 0.078
0.319 -0.069 0.078
0.316 -0.065 0.077
0.311 -0.061 0.076
0.303 -0.057 0.074
0.304 -0.054 0.074
0.283 -0.048 0.069
0.277 -0.044 0.067
0.277 -0.042 0.067
0.277 -0.039 0.067
0.277 -0.037 0.067
0.279 -0.034 0.068
0.282 -0.032 0.068
0.286 -0.030 0.069
0.286 -0.027 0.069
0.284 -0.025 0.069
0.283 -0.022 0.068
0.282 -0.019 0.068
0.281 -0.017 0.068
0.280 -0.014 0.068
0.283 -0.012 0.069
0.285 -0.009 0.069
0.286 -0.007 0.069
0.284 -0.004 0.069
0.282 -0.001 0.068
0.282 0.001 0.068
0.287 0.004 0.069
0.287 0.006 0.070
0.279 0.009 0.068
0.273 0.011 0.066
0.287 0.014 0.070
0.279 0.017 0.068
0.280 0.019 0.068
0.284 0.022 0.069
0.281 0.024 0.068
0.284 0.027 0.069
0.287 0.030 0.070
0.269 0.031 0.065
0.271 0.033 0.066
0.279 0.037 0.068
0.288 0.041 0.070
0.289 0.044 0.070
0.288 0.046 0.070
0.293 0.050 0.071
0.287 0.051 0.070
0.282 0.053 0.069
0.285 0.056 0.070
0.290 0.060 0.071
0.291 0.063 0.071
0.292 0.066 0.072
0.291 0.068 0.071
0.291 0.071 0.072
0.287 0.073 0.070
0.283 0.075 0.070
0.269 0.073 0.066
0.262 0.074 0.065
0.258 0.075 0.064
0.272 0.082 0.067
0.280 0.087 0.069
0.292 0.094 0.073
0.293 0.097 0.073
0.292 0.100 0.073
0.294 0.103 0.073
0.294 0.106 0.073
0.295 0.110 0.074
0.296 0.113 0.074
0.297 0.116 0.074
0.297 0.119 0.075
0.295 0.121 0.074
0.293 0.124 0.074
0.292 0.126 0.074
0.267 0.118 0.068
0.275 0.124 0.070
0.290 0.134 0.074
0.298 0.141 0.076
0.292 0.142 0.075
0.286 0.142 0.073
0.287 0.145 0.074
0.285 0.147 0.073
0.290 0.153 0.075
0.295 0.159 0.076
0.296 0.163 0.077
0.295 0.165 0.077
0.295 0.169 0.077
0.293 0.171 0.077
0.292 0.174 0.077
0.284 0.172 0.075
0.281 0.174 0.074
0.276 0.174 0.073
0.274 0.176 0.073
0.273 0.179 0.073
0.271 0.180 0.072
0.268 0.182 0.072
0.268 0.185 0.072
0.265 0.186 0.072
0.262 0.187 0.071
0.260 0.190 0.071
0.261 0.194 0.071
0.260 0.196 0.071
0.260 0.200 0.071
0.259 0.202 0.072
0.258 0.205 0.072
0.257 0.208 0.071
0.256 0.210 0.072
0.255 0.213 0.072
0.254 0.216 0.072
0.251 0.217 0.071
0.244 0.215 0.070
0.238 0.213 0.068
0.235 0.215 0.068
0.237 0.220 0.069
0.231 0.218 0.067
0.231 0.221 0.067
0.224 0.218 0.066
0.210 0.208 0.062
0.209 0.211 0.062
0.208 0.213 0.062
0.205 0.214 0.062
0.203 0.215 0.062
0.201 0.217 0.061
0.199 0.218 0.061
0.200 0.223 0.062
0.207 0.234 0.064
0.205 0.237 0.064
0.206 0.241 0.065
0.210 0.250 0.067
0.212 0.256 0.068
0.207 0.254 0.066
0.202 0.252 0.065
0.202 0.256 0.066
0.204 0.263 0.067
0.202 0.265 0.067
0.205 0.273 0.068
0.099 -0.137 0.034
0.100 -0.137 0.034
0.101 -0.136 0.034
0.102 -0.135 0.034
0.102 -0.134 0.034
0.102 -0.132 0.034
0.102 -0.130 0.034
0.102 -0.129 0.034
0.102 -0.127 0.033
0.101 -0.124 0.033
0.102 -0.123 0.033
0.103 -0.123 0.033
0.103 -0.121 0.033
0.103 -0.119 0.033
0.103 -0.118 0.033
0.102 -0.114 0.032
0.103 -0.114 0.032
0.105 -0.114 0.033
0.105 -0.112 0.033
0.108 -0.114 0.033
0.267 -0.269 0.081
0.271 -0.269 0.082
0.272 -0.265 0.082
0.273 -0.262 0.082
0.276 -0.260 0.082
0.276 -0.257 0.082
0.277 -0.253 0.082
0.277 -0.249 0.081
0.277 -0.246 0.081
0.276 -0.241 0.080
0.276 -0.236 0.080
0.276 -0.233 0.080
0.276 -0.230 0.079
0.273 -0.223 0.078
0.211 -0.164 0.060
0.206 -0.157 0.058
0.203 -0.152 0.057
0.204 -0.151 0.057
0.205 -0.149 0.057
0.202 -0.144 0.056
0.198 -0.139 0.055
0.202 -0.139 0.056
0.204 -0.138 0.056
0.205 -0.137 0.056
0.204 -0.133 0.056
0.201 -0.129 0.055
0.202 -0.128 0.055
0.201 -0.125 0.055
0.200 -0.122 0.054
0.199 -0.119 0.054
0.170 -0.100 0.046
0.168 -0.097 0.045
0.167 -0.094 0.045
0.168 -0.093 0.045
0.169 -0.092 0.045
0.170 -0.090 0.045
0.175 -0.091 0.046
0.190 -0.097 0.050
0.205 -0.103 0.054
0.204 -0.100 0.054
0.206 -0.099 0.054
0.210 -0.099 0.055
0.211 -0.097 0.055
0.217 -0.097 0.057
0.213 -0.091 0.056
0.209 -0.087 0.054
0.213 -0.087 0.055
0.217 -0.086 0.056
0.211 -0.082 0.055
0.187 -0.071 0.048
0.186 -0.068 0.048
0.185 -0.066 0.048
0.186 -0.065 0.048
0.186 -0.063 0.048
0.188 -0.062 0.048
0.189 -0.060 0.048
0.195 -0.061 0.050
0.248 -0.072 0.063
0.253 -0.071 0.065
0.270 -0.073 0.069
0.305 -0.080 0.078
0.313 -0.079 0.080
0.321 -0.078 0.082
0.314 -0.074 0.080
0.311 -0.070 0.079
0.305 -0.066 0.077
0.303 -0.062 0.077
0.298 -0.059 0.076
0.294 -0.055 0.075
0.291 -0.052 0.074
0.286 -0.048 0.072
0.278 -0.044 0.070
0.276 -0.042 0.070
0.276 -0.039 0.070
0.276 -0.037 0.070
0.278 -0.034 0.070
0.280 -0.032 0.071
0.280 -0.029 0.071
0.283 -0.027 0.071
0.284 -0.025 0.072
0.282 -0.022 0.071
0.283 -0.019 0.071
0.280 -0.017 0.070
0.282 -0.014 0.071
0.285 -0.012 0.072
0.286 -0.009 0.072
0.283 -0.006 0.071
0.280 -0.004 0.070
0.277 -0.001 0.070
0.279 0.001 0.070
0.283 0.004 0.071
0.287 0.007 0.072
0.282 0.009 0.071
0.270 0.011 0.068
0.264 0.013 0.066
0.274 0.016 0.069
0.284 0.019 0.072
0.282 0.022 0.071
0.287 0.025 0.072
0.289 0.028 0.073
0.252 0.029 0.064
0.261 0.032 0.066
0.278 0.037 0.070
0.285 0.040 0.072
0.284 0.043 0.072
0.286 0.046 0.072
0.285 0.048 0.072
0.286 0.051 0.072
0.285 0.054 0.072
0.292 0.058 0.074
0.296 0.061 0.075
0.294 0.064 0.075
0.292 0.066 0.074
0.288 0.068 0.073
0.285 0.070 0.073
0.282 0.072 0.072
0.264 0.070 0.068
0.256 0.070 0.066
0.263 0.074 0.067
0.269 0.079 0.069
0.268 0.081 0.069
0.284 0.089 0.073
0.288 0.093 0.074
0.291 0.097 0.075
0.292 0.100 0.075
0.290 0.102 0.075
0.291 0.105 0.075
0.291 0.108 0.076
0.291 0.111 0.076
0.290 0.114 0.076
0.290 0.117 0.076
0.289 0.119 0.076
0.287 0.121 0.075
0.286 0.124 0.075
0.282 0.125 0.074
0.277 0.126 0.073
0.275 0.127 0.073
0.273 0.129 0.072
0.273 0.132 0.072
0.271 0.135 0.072
0.275 0.139 0.073
0.281 0.145 0.075
0.279 0.147 0.075
0.288 0.156 0.077
0.289 0.159 0.078
0.289 0.162 0.078
0.287 0.164 0.078
0.284 0.166 0.077
0.281 0.168 0.077
0.280 0.170 0.076
0.275 0.170 0.075
0.273 0.172 0.075
0.271 0.174 0.075
0.270 0.177 0.075
0.268 0.179 0.074
0.267 0.181 0.074
0.266 0.184 0.074
0.265 0.187 0.074
0.262 0.188 0.074
0.261 0.190 0.074
0.257 0.191 0.073
0.259 0.196 0.074
0.258 0.198 0.074
0.257 0.201 0.074
0.256 0.204 0.074
0.255 0.207 0.074
0.255 0.210 0.074
0.254 0.213 0.074
0.252 0.215 0.074
0.246 0.214 0.073
0.241 0.213 0.071
0.236 0.212 0.070
0.234 0.214 0.070
0.233 0.217 0.070
0.232 0.219 0.070
0.228 0.219 0.069
0.224 0.219 0.068
0.211 0.210 0.065
0.210 0.212 0.065
0.208 0.214 0.065
0.202 0.211 0.063
0.199 0.211 0.063
0.201 0.217 0.064
0.202 0.222 0.064
0.211 0.235 0.068
0.208 0.236 0.067
0.206 0.237 0.067
0.203 0.238 0.066
0.199 0.238 0.066
0.200 0.242 0.066
0.199 0.245 0.066
0.195 0.245 0.066
0.193 0.245 0.065
0.198 0.255 0.067
0.198 0.260 0.068
0.210 0.279 0.072
0.099 -0.137 0.035
0.100 -0.137 0.035
0.101 -0.136 0.035
0.102 -0.136 0.035
0.102 -0.133 0.035
0.102 -0.132 0.035
0.102 -0.130 0.035
0.103 -0.130 0.035
0.103 -0.129 0.035
0.102 -0.125 0.035
0.102 -0.123 0.034
0.104 -0.124 0.035
0.104 -0.122 0.034
0.103 -0.119 0.034
0.103 -0.118 0.034
0.104 -0.116 0.034
0.105 -0.115 0.034
0.105 -0.114 0.034
0.104 -0.112 0.034
0.105 -0.111 0.034
0.112 -0.116 0.036
0.267 -0.264 0.084
0.269 -0.263 0.084
0.270 -0.260 0.084
0.272 -0.257 0.084
0.273 -0.254 0.084
0.272 -0.250 0.083
0.273 -0.246 0.083
0.274 -0.243 0.083
0.273 -0.238 0.082
0.273 -0.235 0.082
0.274 -0.231 0.082
0.275 -0.229 0.082
0.272 -0.223 0.081
0.264 -0.213 0.078
0.231 -0.183 0.068
0.222 -0.173 0.065
0.209 -0.160 0.061
0.201 -0.152 0.059
0.201 -0.149 0.058
0.202 -0.147 0.058
0.198 -0.142 0.057
0.199 -0.140 0.057
0.201 -0.139 0.057
0.205 -0.139 0.059
0.205 -0.137 0.058
0.203 -0.133 0.058
0.198 -0.128 0.056
0.195 -0.124 0.055
0.195 -0.121 0.055
0.191 -0.117 0.054
0.171 -0.102 0.048
0.168 -0.098 0.047
0.169 -0.097 0.047
0.168 -0.095 0.047
0.172 -0.095 0.048
0.178 -0.097 0.049
0.204 -0.109 0.056
0.208 -0.108 0.057
0.201 -0.103 0.055
0.206 -0.103 0.057
0.209 -0.103 0.057
0.203 -0.098 0.056
0.209 -0.098 0.057
0.211 -0.097 0.057
0.214 -0.096 0.058
0.215 -0.094 0.058
0.200 -0.086 0.054
0.208 -0.087 0.056
0.206 -0.084 0.055
0.214 -0.085 0.058
0.215 -0.083 0.058
0.211 -0.080 0.057
0.210 -0.078 0.056
0.215 -0.077 0.058
0.193 -0.067 0.051
0.189 -0.064 0.050
0.187 -0.062 0.050
0.188 -0.060 0.050
0.190 -0.059 0.051
0.192 -0.058 0.051
0.193 -0.056 0.051
0.202 -0.057 0.053
0.293 -0.077 0.077
0.299 -0.076 0.079
0.305 -0.074 0.080
0.301 -0.068 0.079
0.299 -0.064 0.079
0.295 -0.061 0.078
0.291 -0.057 0.077
0.287 -0.054 0.075
0.287 -0.051 0.075
0.284 -0.048 0.074
0.276 -0.044 0.072
0.272 -0.041 0.071
0.274 -0.039 0.072
0.276 -0.037 0.072
0.279 -0.034 0.073
0.278 -0.032 0.073
0.279 -0.029 0.073
0.279 -0.027 0.073
0.281 -0.024 0.073
0.286 -0.022 0.075
0.283 -0.019 0.074
0.280 -0.017 0.073
0.280 -0.014 0.073
0.282 -0.012 0.074
0.282 -0.009 0.074
0.282 -0.006 0.074
0.279 -0.004 0.073
0.279 -0.001 0.073
0.282 0.001 0.074
0.283 0.004 0.074
0.283 0.006 0.074
0.278 0.009 0.072
0.274 0.011 0.071
0.263 0.013 0.069
0.267 0.016 0.070
0.270 0.018 0.070
0.278 0.022 0.073
0.276 0.024 0.072
0.265 0.025 0.069
0.251 0.026 0.066
0.252 0.029 0.066
0.268 0.033 0.070
0.275 0.037 0.072
0.277 0.039 0.073
0.275 0.042 0.072
0.278 0.045 0.073
0.281 0.048 0.074
0.285 0.051 0.075
0.289 0.055 0.076
0.295 0.058 0.078
0.293 0.061 0.077
0.291 0.063 0.077
0.289 0.065 0.076
0.284 0.067 0.075
0.280 0.069 0.074
0.269 0.068 0.071
0.248 0.065 0.066
0.246 0.067 0.065
0.259 0.073 0.069
0.278 0.081 0.074
0.286 0.087 0.076
0.288 0.090 0.077
0.288 0.093 0.077
0.289 0.096 0.077
0.286 0.098 0.077
0.284 0.100 0.076
0.285 0.103 0.077
0.284 0.105 0.076
0.282 0.108 0.076
0.286 0.112 0.077
0.280 0.113 0.076
0.279 0.115 0.076
0.282 0.119 0.077
0.279 0.121 0.076
0.277 0.123 0.076
0.275 0.125 0.075
0.271 0.126 0.074
0.267 0.127 0.073
0.266 0.129 0.073
0.265 0.132 0.073
0.267 0.136 0.074
0.271 0.140 0.075
0.277 0.147 0.077
0.280 0.151 0.078
0.281 0.155 0.078
0.277 0.156 0.078
0.279 0.160 0.078
0.280 0.164 0.079
0.277 0.165 0.078
0.273 0.166 0.077
0.271 0.168 0.077
0.270 0.170 0.077
0.268 0.173 0.077
0.266 0.174 0.076
0.266 0.178 0.077
0.263 0.179 0.076
0.262 0.181 0.076
0.259 0.183 0.075
0.259 0.186 0.076
0.257 0.188 0.075
0.257 0.191 0.076
0.254 0.192 0.075
0.253 0.195 0.075
0.254 0.199 0.076
0.254 0.203 0.076
0.253 0.206 0.076
0.253 0.209 0.076
0.251 0.211 0.076
0.248 0.212 0.075
0.243 0.211 0.074
0.240 0.212 0.074
0.237 0.213 0.073
0.232 0.212 0.072
0.229 0.213 0.072
0.225 0.213 0.071
0.223 0.215 0.071
0.214 0.209 0.068
0.201 0.201 0.064
0.203 0.205 0.065
0.207 0.213 0.067
0.201 0.210 0.065
0.190 0.202 0.062
0.188 0.203 0.062
0.203 0.224 0.067
0.203 0.228 0.068
0.203 0.231 0.068
0.204 0.236 0.069
0.203 0.238 0.069
0.195 0.233 0.067
0.193 0.234 0.066
0.196 0.242 0.068
0.195 0.244 0.068
0.195 0.248 0.068
0.189 0.245 0.067
0.197 0.258 0.070
0.187 0.249 0.067
0.100 -0.137 0.036
0.101 -0.136 0.037
0.101 -0.134 0.036
0.101 -0.133 0.036
0.102 -0.132 0.036
0.103 -0.131 0.036
0.103 -0.130 0.036
0.104 -0.129 0.036
0.104 -0.128 0.036
0.104 -0.126 0.036
0.103 -0.123 0.036
0.104 -0.122 0.036
0.103 -0.120 0.035
0.103 -0.118 0.035
0.104 -0.117 0.035
0.105 -0.116 0.035
0.108 -0.117 0.036
0.108 -0.115 0.036
0.105 -0.111 0.035
0.107 -0.112 0.035
0.118 -0.121 0.039
0.266 -0.260 0.086
0.267 -0.257 0.086
0.268 -0.254 0.086
0.269 -0.251 0.086
0.268 -0.245 0.085
0.267 -0.241 0.084
0.269 -0.239 0.085
0.270 -0.236 0.085
0.270 -0.233 0.084
0.271 -0.230 0.084
0.271 -0.225 0.084
0.269 -0.220 0.083
0.266 -0.215 0.082
0.206 -0.158 0.062
0.202 -0.153 0.061
0.200 -0.149 0.060
0.202 -0.147 0.061
0.200 -0.144 0.060
0.201 -0.141 0.060
0.204 -0.141 0.061
0.205 -0.140 0.061
0.206 -0.137 0.061
0.206 -0.135 0.061
0.202 -0.130 0.059
0.191 -0.121 0.056
0.179 -0.111 0.052
0.171 -0.105 0.050
0.170 -0.102 0.049
0.171 -0.100 0.049
0.172 -0.099 0.050
0.210 -0.116 0.060
0.204 -0.111 0.058
0.204 -0.109 0.058
0.205 -0.107 0.058
0.204 -0.104 0.058
0.208 -0.104 0.059
0.211 -0.104 0.060
0.202 -0.097 0.057
0.205 -0.096 0.058
0.210 -0.097 0.059
0.212 -0.095 0.060
0.212 -0.093 0.059
0.198 -0.085 0.056
0.207 -0.087 0.058
0.203 -0.083 0.057
0.208 -0.083 0.058
0.214 -0.083 0.060
0.209 -0.079 0.058
0.209 -0.077 0.058
0.207 -0.074 0.057
0.217 -0.076 0.060
0.218 -0.074 0.060
0.215 -0.071 0.059
0.194 -0.062 0.053
0.191 -0.059 0.053
0.192 -0.058 0.053
0.193 -0.056 0.053
0.194 -0.055 0.053
0.195 -0.053 0.053
0.196 -0.051 0.054
0.205 -0.052 0.056
0.213 -0.052 0.058
0.283 -0.061 0.077
0.291 -0.060 0.079
0.283 -0.056 0.077
0.281 -0.053 0.076
0.281 -0.050 0.076
0.279 -0.047 0.076
0.273 -0.044 0.074
0.269 -0.041 0.073
0.271 -0.038 0.074
0.278 -0.037 0.075
0.276 -0.034 0.075
0.277 -0.032 0.075
0.276 -0.029 0.075
0.276 -0.026 0.075
0.278 -0.024 0.075
0.280 -0.022 0.076
0.282 -0.019 0.076
0.281 -0.017 0.076
0.279 -0.014 0.075
0.277 -0.011 0.075
0.284 -0.009 0.077
0.284 -0.006 0.077
0.281 -0.004 0.076
0.281 -0.001 0.076
0.284 0.001 0.077
0.286 0.004 0.077
0.282 0.006 0.076
0.277 0.009 0.075
0.275 0.011 0.074
0.275 0.014 0.074
0.255 0.015 0.069
0.269 0.018 0.073
0.259 0.020 0.070
0.259 0.022 0.070
0.252 0.024 0.068
0.256 0.027 0.069
0.260 0.030 0.071
0.270 0.033 0.073
0.272 0.036 0.074
0.273 0.039 0.074
0.269 0.041 0.073
0.273 0.044 0.074
0.278 0.047 0.076
0.285 0.051 0.078
0.293 0.055 0.080
0.291 0.058 0.079
0.287 0.060 0.078
0.284 0.062 0.078
0.281 0.064 0.077
0.276 0.065 0.076
0.268 0.066 0.074
0.253 0.064 0.069
0.240 0.063 0.066
0.233 0.064 0.064
0.274 0.080 0.076
0.288 0.087 0.079
0.291 0.091 0.080
0.289 0.093 0.080
0.281 0.093 0.078
0.279 0.095 0.077
0.277 0.098 0.077
0.277 0.100 0.077
0.277 0.103 0.077
0.277 0.106 0.077
0.277 0.109 0.078
0.277 0.112 0.078
0.275 0.113 0.077
0.272 0.115 0.077
0.269 0.117 0.076
0.269 0.119 0.076
0.267 0.121 0.076
0.267 0.124 0.076
0.266 0.126 0.076
0.264 0.128 0.075
0.263 0.130 0.075
0.257 0.131 0.074
0.258 0.134 0.074
0.262 0.139 0.075
0.263 0.142 0.076
0.268 0.148 0.078
0.271 0.152 0.079
0.271 0.156 0.079
0.270 0.158 0.079
0.264 0.158 0.077
0.266 0.162 0.078
0.265 0.164 0.078
0.263 0.167 0.078
0.260 0.168 0.077
0.251 0.165 0.075
0.251 0.168 0.075
0.260 0.177 0.078
0.255 0.177 0.076
0.254 0.179 0.077
0.254 0.183 0.077
0.255 0.187 0.077
0.254 0.189 0.077
0.253 0.192 0.077
0.251 0.194 0.077
0.250 0.197 0.077
0.252 0.202 0.078
0.250 0.204 0.078
0.249 0.206 0.078
0.248 0.209 0.078
0.246 0.211 0.078
0.238 0.207 0.075
0.235 0.208 0.075
0.233 0.210 0.075
0.226 0.207 0.073
0.225 0.210 0.073
0.222 0.210 0.072
0.213 0.206 0.070
0.198 0.194 0.065
0.196 0.195 0.065
0.201 0.204 0.067
0.203 0.210 0.068
0.198 0.208 0.067
0.194 0.206 0.066
0.198 0.214 0.067
0.191 0.211 0.066
0.203 0.227 0.070
0.202 0.230 0.070
0.201 0.233 0.070
0.201 0.237 0.071
0.196 0.235 0.070
0.191 0.233 0.068
0.190 0.235 0.068
0.199 0.250 0.072
0.193 0.246 0.070
0.190 0.246 0.069
0.192 0.252 0.070
0.179 0.238 0.066
0.100 -0.137 0.038
0.100 -0.136 0.038
0.101 -0.134 0.038
0.101 -0.133 0.038
0.102 -0.133 0.038
0.103 -0.132 0.038
0.103 -0.130 0.038
0.104 -0.129 0.038
0.104 -0.128 0.038
0.103 -0.125 0.037
0.104 -0.124 0.037
0.104 -0.122 0.037
0.104 -0.121 0.037
0.103 -0.118 0.036
0.104 -0.117 0.036
0.106 -0.117 0.037
0.111 -0.121 0.039
0.108 -0.116 0.037
0.106 -0.112 0.036
0.110 -0.114 0.037
0.107 -0.109 0.036
0.259 -0.253 0.087
0.263 -0.254 0.088
0.263 -0.249 0.087
0.264 -0.247 0.087
0.264 -0.243 0.087
0.265 -0.239 0.087
0.267 -0.237 0.087
0.268 -0.234 0.087
0.267 -0.230 0.086
0.267 -0.226 0.086
0.266 -0.222 0.085
0.264 -0.217 0.084
0.263 -0.213 0.084
0.247 -0.196 0.078
0.235 -0.184 0.074
0.209 -0.161 0.066
0.202 -0.153 0.063
0.202 -0.150 0.063
0.205 -0.150 0.064
0.204 -0.146 0.063
0.204 -0.144 0.063
0.205 -0.142 0.063
0.205 -0.140 0.063
0.205 -0.137 0.063
0.207 -0.136 0.063
0.202 -0.131 0.061
0.182 -0.115 0.055
0.172 -0.107 0.052
0.171 -0.104 0.051
0.170 -0.102 0.051
0.178 -0.105 0.053
0.212 -0.122 0.063
0.211 -0.120 0.063
0.208 -0.116 0.062
0.207 -0.113 0.061
0.207 -0.111 0.061
0.204 -0.107 0.060
0.202 -0.103 0.059
0.211 -0.106 0.062
0.204 -0.100 0.060
0.205 -0.099 0.060
0.206 -0.097 0.060
0.206 -0.095 0.060
0.207 -0.093 0.060
0.210 -0.093 0.061
0.209 -0.090 0.061
0.198 -0.083 0.057
0.207 -0.085 0.060
0.206 -0.082 0.060
0.207 -0.081 0.060
0.209 -0.079 0.060
0.212 -0.078 0.061
0.211 -0.076 0.061
0.217 -0.076 0.062
0.221 -0.075 0.063
0.219 -0.072 0.063
0.225 -0.072 0.064
0.219 -0.068 0.062
0.212 -0.064 0.060
0.195 -0.057 0.055
0.194 -0.055 0.055
0.194 -0.053 0.055
0.195 -0.051 0.055
0.196 -0.050 0.055
0.197 -0.048 0.056
0.199 -0.047 0.056
0.199 -0.045 0.056
0.200 -0.043 0.057
0.209 -0.043 0.059
0.217 -0.043 0.061
0.271 -0.043 0.076
0.270 -0.041 0.076
0.273 -0.039 0.077
0.271 -0.036 0.076
0.270 -0.033 0.076
0.272 -0.031 0.076
0.272 -0.029 0.076
0.274 -0.026 0.077
0.275 -0.024 0.077
0.277 -0.022 0.078
0.278 -0.019 0.078
0.278 -0.017 0.078
0.277 -0.014 0.077
0.279 -0.011 0.078
0.281 -0.009 0.079
0.280 -0.006 0.078
0.279 -0.004 0.078
0.280 -0.001 0.078
0.282 0.001 0.079
0.282 0.004 0.079
0.284 0.006 0.079
0.282 0.009 0.079
0.281 0.012 0.079
0.282 0.014 0.079
0.271 0.016 0.076
0.254 0.017 0.071
0.253 0.020 0.071
0.259 0.023 0.073
0.264 0.025 0.074
0.267 0.028 0.075
0.268 0.031 0.075
0.272 0.034 0.076
0.275 0.037 0.077
0.275 0.039 0.077
0.273 0.041 0.077
0.273 0.044 0.077
0.281 0.048 0.079
0.284 0.051 0.080
0.290 0.055 0.082
0.290 0.057 0.082
0.284 0.059 0.080
0.278 0.060 0.079
0.273 0.062 0.077
0.267 0.063 0.076
0.259 0.064 0.073
0.245 0.063 0.070
0.236 0.062 0.067
0.235 0.064 0.067
0.236 0.067 0.067
0.269 0.079 0.077
0.281 0.085 0.080
0.287 0.090 0.082
0.287 0.093 0.082
0.280 0.093 0.080
0.274 0.094 0.079
0.272 0.096 0.078
0.269 0.098 0.078
0.272 0.101 0.079
0.272 0.104 0.079
0.272 0.107 0.079
0.275 0.111 0.080
0.270 0.112 0.079
0.262 0.111 0.076
0.260 0.113 0.076
0.258 0.115 0.075
0.258 0.117 0.076
0.262 0.122 0.077
0.262 0.125 0.077
0.263 0.128 0.078
0.259 0.129 0.077
0.256 0.130 0.076
0.254 0.132 0.076
0.255 0.135 0.076
0.258 0.140 0.077
0.259 0.143 0.078
0.259 0.146 0.078
0.258 0.148 0.078
0.254 0.149 0.077
0.254 0.152 0.077
0.251 0.153 0.076
0.250 0.155 0.076
0.252 0.160 0.077
0.253 0.164 0.078
0.253 0.166 0.078
0.255 0.171 0.079
0.255 0.174 0.079
0.254 0.176 0.079
0.251 0.177 0.078
0.251 0.180 0.078
0.252 0.185 0.079
0.251 0.188 0.079
0.249 0.189 0.079
0.249 0.192 0.079
0.250 0.196 0.080
0.250 0.200 0.080
0.249 0.203 0.080
0.247 0.204 0.080
0.245 0.207 0.080
0.241 0.207 0.079
0.228 0.199 0.075
0.224 0.199 0.074
0.218 0.197 0.072
0.219 0.201 0.073
0.215 0.201 0.072
0.217 0.206 0.073
0.200 0.193 0.068
0.194 0.190 0.066
0.195 0.194 0.067
0.200 0.203 0.069
0.198 0.205 0.069
0.197 0.207 0.069
0.200 0.214 0.070
0.202 0.220 0.072
0.203 0.224 0.072
0.202 0.227 0.072
0.200 0.229 0.072
0.198 0.230 0.072
0.195 0.230 0.071
0.195 0.234 0.072
0.195 0.238 0.072
0.196 0.242 0.073
0.196 0.247 0.073
0.195 0.250 0.074
0.191 0.248 0.072
0.190 0.250 0.072
0.193 0.258 0.074
0.100 -0.138 0.039
0.101 -0.136 0.039
0.101 -0.135 0.039
0.103 -0.135 0.039
0.102 -0.133 0.039
0.103 -0.132 0.039
0.104 -0.131 0.039
0.104 -0.130 0.039
0.105 -0.129 0.039
0.105 -0.128 0.039
0.104 -0.124 0.038
0.104 -0.123 0.038
0.105 -0.122 0.038
0.104 -0.119 0.038
0.104 -0.117 0.038
0.112 -0.124 0.040
0.110 -0.121 0.040
0.106 -0.114 0.038
0.102 -0.108 0.036
0.108 -0.113 0.038
0.114 -0.117 0.040
0.116 -0.117 0.040
0.121 -0.121 0.042
0.255 -0.247 0.088
0.258 -0.245 0.089
0.259 -0.242 0.088
0.260 -0.240 0.088
0.263 -0.238 0.089
0.265 -0.236 0.089
0.261 -0.229 0.087
0.263 -0.227 0.088
0.264 -0.225 0.088
0.263 -0.220 0.087
0.261 -0.215 0.086
0.258 -0.209 0.085
0.248 -0.197 0.081
0.236 -0.185 0.077
0.211 -0.162 0.068
0.201 -0.152 0.065
0.199 -0.148 0.064
0.202 -0.148 0.065
0.205 -0.147 0.065
0.203 -0.144 0.065
0.200 -0.139 0.064
0.200 -0.136 0.063
0.202 -0.135 0.064
0.202 -0.133 0.064
0.192 -0.124 0.060
0.176 -0.112 0.055
0.172 -0.107 0.054
0.175 -0.107 0.054
0.196 -0.118 0.061
0.207 -0.122 0.064
0.209 -0.121 0.065
0.212 -0.120 0.065
0.214 -0.119 0.066
0.210 -0.115 0.064
0.207 -0.111 0.063
0.207 -0.108 0.063
0.208 -0.107 0.063
0.206 -0.104 0.063
0.204 -0.100 0.062
0.204 -0.098 0.062
0.207 -0.097 0.062
0.206 -0.095 0.062
0.210 -0.095 0.063
0.209 -0.092 0.063
0.208 -0.090 0.062
0.209 -0.088 0.063
0.205 -0.084 0.061
0.203 -0.081 0.061
0.201 -0.078 0.060
0.202 -0.077 0.060
0.205 -0.076 0.061
0.210 -0.076 0.062
0.219 -0.077 0.065
0.221 -0.075 0.065
0.225 -0.075 0.067
0.222 -0.071 0.066
0.222 -0.069 0.065
0.225 -0.068 0.066
0.238 -0.070 0.070
0.239 -0.067 0.070
0.206 -0.054 0.060
0.202 -0.051 0.059
0.200 -0.049 0.058
0.199 -0.047 0.058
0.199 -0.045 0.058
0.200 -0.043 0.058
0.203 -0.042 0.059
0.204 -0.040 0.059
0.204 -0.038 0.059
0.206 -0.037 0.060
0.208 -0.035 0.060
0.211 -0.034 0.061
0.212 -0.032 0.061
0.224 -0.032 0.065
0.267 -0.033 0.077
0.269 -0.031 0.078
0.270 -0.028 0.078
0.271 -0.026 0.078
0.272 -0.024 0.079
0.274 -0.021 0.079
0.275 -0.019 0.079
0.275 -0.016 0.080
0.274 -0.014 0.079
0.273 -0.011 0.079
0.273 -0.009 0.079
0.275 -0.006 0.080
0.275 -0.004 0.079
0.274 -0.001 0.079
0.274 0.001 0.079
0.276 0.004 0.080
0.278 0.006 0.081
0.281 0.009 0.081
0.281 0.012 0.081
0.284 0.014 0.082
0.279 0.017 0.081
0.252 0.017 0.073
0.258 0.020 0.075
0.265 0.023 0.077
0.272 0.026 0.079
0.272 0.029 0.079
0.270 0.031 0.078
0.276 0.034 0.080
0.280 0.037 0.081
0.280 0.040 0.081
0.278 0.042 0.081
0.282 0.045 0.082
0.281 0.048 0.082
0.280 0.050 0.082
0.285 0.054 0.083
0.287 0.057 0.084
0.281 0.058 0.082
0.276 0.060 0.081
0.265 0.060 0.077
0.258 0.061 0.076
0.247 0.061 0.073
0.238 0.061 0.070
0.237 0.063 0.070
0.233 0.064 0.069
0.246 0.070 0.072
0.270 0.079 0.080
0.281 0.086 0.083
0.287 0.090 0.085
0.285 0.092 0.084
0.277 0.092 0.082
0.273 0.094 0.081
0.264 0.093 0.078
0.262 0.095 0.078
0.263 0.098 0.079
0.264 0.101 0.079
0.262 0.103 0.079
0.251 0.101 0.075
0.249 0.103 0.075
0.250 0.106 0.075
0.251 0.109 0.076
0.252 0.112 0.076
0.251 0.114 0.076
0.252 0.118 0.077
0.257 0.123 0.078
0.254 0.124 0.078
0.255 0.127 0.078
0.255 0.130 0.078
0.253 0.132 0.078
0.252 0.134 0.078
0.254 0.138 0.078
0.254 0.141 0.079
0.251 0.142 0.078
0.248 0.143 0.077
0.247 0.145 0.077
0.247 0.148 0.077
0.248 0.151 0.078
0.245 0.152 0.077
0.244 0.155 0.077
0.246 0.159 0.078
0.253 0.167 0.081
0.255 0.171 0.081
0.254 0.174 0.081
0.251 0.175 0.081
0.247 0.175 0.080
0.247 0.178 0.080
0.247 0.182 0.080
0.246 0.184 0.080
0.246 0.187 0.081
0.247 0.191 0.081
0.247 0.194 0.082
0.249 0.200 0.083
0.246 0.200 0.082
0.242 0.201 0.081
0.238 0.201 0.080
0.213 0.183 0.072
0.210 0.183 0.071
0.207 0.184 0.071
0.207 0.187 0.071
0.200 0.184 0.069
0.209 0.196 0.073
0.200 0.191 0.070
0.198 0.191 0.069
0.196 0.193 0.069
0.195 0.196 0.069
0.192 0.196 0.069
0.193 0.199 0.069
0.197 0.208 0.071
0.198 0.212 0.072
0.199 0.216 0.073
0.202 0.224 0.074
0.199 0.224 0.074
0.199 0.228 0.074
0.199 0.231 0.075
0.194 0.230 0.073
0.194 0.233 0.074
0.196 0.239 0.075
0.196 0.243 0.075
0.196 0.247 0.076
0.193 0.247 0.075
0.194 0.252 0.076
0.190 0.250 0.075
0.179 0.240 0.071
0.102 -0.138 0.041
0.103 -0.138 0.041
0.103 -0.135 0.041
0.103 -0.134 0.041
0.103 -0.133 0.041
0.104 -0.132 0.041
0.104 -0.130 0.041
0.105 -0.129 0.041
0.105 -0.128 0.040
0.105 -0.126 0.040
0.105 -0.124 0.040
0.105 -0.122 0.040
0.103 -0.118 0.039
0.105 -0.119 0.039
0.110 -0.122 0.041
0.106 -0.116 0.039
0.107 -0.115 0.039
0.101 -0.107 0.037
0.107 -0.112 0.039
0.125 -0.129 0.045
0.115 -0.116 0.041
0.115 -0.115 0.041
0.117 -0.115 0.042
0.244 -0.236 0.087
0.253 -0.241 0.090
0.254 -0.238 0.089
0.254 -0.234 0.089
0.255 -0.231 0.089
0.256 -0.229 0.089
0.258 -0.226 0.089
0.259 -0.224 0.089
0.262 -0.222 0.090
0.261 -0.219 0.089
0.258 -0.212 0.088
0.254 -0.206 0.086
0.250 -0.199 0.085
0.196 -0.149 0.066
0.194 -0.145 0.065
0.201 -0.148 0.067
0.202 -0.145 0.067
0.202 -0.143 0.066
0.201 -0.140 0.066
0.201 -0.138 0.066
0.201 -0.135 0.066
0.198 -0.131 0.064
0.179 -0.116 0.058
0.178 -0.113 0.058
0.177 -0.110 0.057
0.199 -0.122 0.064
0.206 -0.124 0.066
0.207 -0.122 0.066
0.208 -0.121 0.066
0.212 -0.121 0.068
0.214 -0.119 0.068
0.211 -0.115 0.067
0.207 -0.111 0.065
0.207 -0.108 0.065
0.207 -0.106 0.065
0.205 -0.103 0.064
0.204 -0.100 0.064
0.203 -0.098 0.064
0.205 -0.097 0.064
0.209 -0.097 0.065
0.209 -0.094 0.065
0.209 -0.092 0.065
0.209 -0.090 0.065
0.213 -0.090 0.066
0.202 -0.083 0.062
0.202 -0.081 0.062
0.200 -0.078 0.062
0.202 -0.077 0.062
0.206 -0.076 0.063
0.210 -0.076 0.064
0.214 -0.075 0.065
0.223 -0.076 0.068
0.225 -0.075 0.069
0.226 -0.073 0.069
0.226 -0.071 0.069
0.230 -0.070 0.070
0.238 -0.070 0.072
0.243 -0.069 0.074
0.254 -0.070 0.077
0.272 -0.072 0.082
0.277 -0.071 0.084
0.277 -0.068 0.084
0.215 -0.044 0.065
0.207 -0.041 0.062
0.206 -0.039 0.062
0.207 -0.037 0.062
0.207 -0.035 0.062
0.208 -0.033 0.062
0.210 -0.032 0.063
0.210 -0.030 0.063
0.212 -0.028 0.063
0.214 -0.026 0.064
0.215 -0.025 0.064
0.227 -0.024 0.068
0.266 -0.026 0.079
0.268 -0.023 0.080
0.271 -0.021 0.081
0.271 -0.019 0.081
0.271 -0.016 0.081
0.269 -0.014 0.080
0.268 -0.011 0.080
0.269 -0.009 0.080
0.271 -0.006 0.081
0.270 -0.004 0.081
0.268 -0.001 0.080
0.270 0.001 0.081
0.272 0.004 0.081
0.272 0.006 0.081
0.279 0.009 0.083
0.278 0.011 0.083
0.279 0.014 0.083
0.279 0.017 0.083
0.267 0.018 0.080
0.255 0.020 0.076
0.263 0.023 0.079
0.269 0.026 0.081
0.267 0.028 0.080
0.266 0.031 0.080
0.272 0.034 0.082
0.278 0.037 0.084
0.278 0.040 0.083
0.278 0.042 0.084
0.280 0.045 0.084
0.281 0.048 0.085
0.272 0.049 0.082
0.271 0.051 0.082
0.271 0.054 0.082
0.272 0.057 0.082
0.262 0.057 0.079
0.261 0.059 0.079
0.250 0.059 0.076
0.234 0.058 0.071
0.231 0.059 0.070
0.231 0.061 0.070
0.242 0.067 0.074
0.256 0.073 0.078
0.275 0.081 0.084
0.283 0.086 0.086
0.284 0.089 0.087
0.277 0.090 0.085
0.270 0.090 0.083
0.252 0.087 0.077
0.247 0.087 0.076
0.246 0.089 0.076
0.249 0.093 0.077
0.254 0.097 0.078
0.247 0.097 0.076
0.242 0.098 0.075
0.243 0.101 0.075
0.244 0.104 0.076
0.247 0.107 0.077
0.248 0.110 0.077
0.249 0.113 0.078
0.248 0.116 0.078
0.247 0.118 0.078
0.246 0.120 0.078
0.248 0.124 0.078
0.250 0.127 0.079
0.247 0.129 0.079
0.246 0.131 0.078
0.247 0.134 0.079
0.244 0.135 0.078
0.246 0.139 0.079
0.246 0.142 0.079
0.246 0.145 0.080
0.247 0.148 0.080
0.246 0.151 0.080
0.246 0.153 0.080
0.242 0.154 0.079
0.242 0.157 0.079
0.245 0.162 0.081
0.250 0.168 0.082
0.250 0.171 0.083
0.245 0.171 0.081
0.244 0.173 0.081
0.244 0.176 0.082
0.244 0.179 0.082
0.245 0.184 0.083
0.245 0.187 0.083
0.244 0.189 0.083
0.243 0.192 0.083
0.239 0.192 0.082
0.229 0.187 0.079
0.230 0.191 0.080
0.224 0.190 0.078
0.206 0.177 0.072
0.203 0.177 0.071
0.207 0.185 0.073
0.200 0.181 0.071
0.204 0.188 0.073
0.203 0.190 0.073
0.200 0.191 0.072
0.200 0.194 0.072
0.200 0.197 0.073
0.197 0.198 0.072
0.194 0.198 0.072
0.193 0.201 0.072
0.196 0.207 0.073
0.199 0.213 0.075
0.197 0.215 0.074
0.194 0.215 0.074
0.198 0.223 0.076
0.199 0.228 0.077
0.200 0.233 0.078
0.200 0.237 0.078
0.190 0.229 0.075
0.193 0.236 0.076
0.197 0.244 0.078
0.197 0.248 0.079
0.193 0.247 0.077
0.192 0.250 0.078
0.194 0.256 0.079
0.197 0.264 0.081
0.102 -0.138 0.042
0.102 -0.137 0.042
0.103 -0.136 0.042
0.104 -0.135 0.042
0.104 -0.134 0.042
0.105 -0.133 0.042
0.104 -0.131 0.042
0.104 -0.129 0.042
0.105 -0.128 0.042
0.105 -0.126 0.041
0.105 -0.124 0.041
0.105 -0.122 0.041
0.109 -0.125 0.043
0.111 -0.126 0.043
0.106 -0.118 0.041
0.105 -0.115 0.040
0.099 -0.107 0.038
0.100 -0.106 0.038
0.103 -0.108 0.039
0.124 -0.128 0.046
0.114 -0.115 0.042
0.111 -0.111 0.041
0.109 -0.107 0.040
0.248 -0.237 0.091
0.250 -0.234 0.091
0.248 -0.229 0.090
0.247 -0.225 0.089
0.251 -0.224 0.090
0.253 -0.223 0.090
0.256 -0.222 0.091
0.258 -0.219 0.091
0.255 -0.214 0.090
0.253 -0.209 0.089
0.251 -0.204 0.088
0.246 -0.196 0.086
0.188 -0.143 0.065
0.191 -0.142 0.066
0.201 -0.147 0.069
0.202 -0.146 0.069
0.201 -0.142 0.068
0.201 -0.140 0.068
0.203 -0.139 0.068
0.202 -0.136 0.068
0.187 -0.123 0.063
0.180 -0.117 0.060
0.179 -0.114 0.060
0.185 -0.116 0.062
0.203 -0.125 0.067
0.205 -0.124 0.068
0.206 -0.122 0.068
0.207 -0.120 0.068
0.211 -0.120 0.069
0.212 -0.118 0.070
0.209 -0.114 0.068
0.207 -0.111 0.067
0.204 -0.107 0.066
0.206 -0.106 0.067
0.205 -0.103 0.066
0.203 -0.100 0.066
0.203 -0.098 0.065
0.204 -0.096 0.066
0.207 -0.095 0.066
0.206 -0.093 0.066
0.209 -0.092 0.067
0.210 -0.091 0.067
0.200 -0.084 0.064
0.203 -0.084 0.065
0.203 -0.081 0.065
0.210 -0.082 0.067
0.213 -0.081 0.067
0.209 -0.078 0.066
0.211 -0.076 0.067
0.215 -0.075 0.068
0.219 -0.075 0.069
0.224 -0.074 0.070
0.227 -0.073 0.071
0.228 -0.071 0.072
0.234 -0.071 0.073
0.236 -0.069 0.074
0.244 -0.069 0.076
0.255 -0.070 0.080
0.263 -0.069 0.082
0.273 -0.070 0.085
0.273 -0.067 0.085
0.269 -0.063 0.084
0.269 -0.061 0.084
0.266 -0.058 0.083
0.264 -0.055 0.082
0.262 -0.052 0.081
0.261 -0.049 0.081
0.262 -0.047 0.081
0.259 -0.044 0.080
0.255 -0.041 0.079
0.218 -0.031 0.067
0.218 -0.029 0.067
0.215 -0.027 0.067
0.215 -0.025 0.066
0.215 -0.023 0.066
0.219 -0.021 0.068
0.221 -0.019 0.068
0.269 -0.018 0.083
0.266 -0.016 0.082
0.263 -0.013 0.081
0.265 -0.011 0.082
0.267 -0.009 0.082
0.266 -0.006 0.082
0.264 -0.004 0.081
0.264 -0.001 0.081
0.265 0.001 0.082
0.267 0.004 0.082
0.286 0.007 0.088
0.288 0.009 0.089
0.278 0.011 0.086
0.270 0.014 0.083
0.262 0.016 0.081
0.261 0.018 0.080
0.262 0.020 0.081
0.262 0.023 0.081
0.260 0.025 0.080
0.261 0.028 0.081
0.259 0.030 0.080
0.266 0.033 0.082
0.273 0.036 0.085
0.274 0.039 0.085
0.274 0.042 0.085
0.277 0.045 0.086
0.274 0.047 0.085
0.271 0.049 0.084
0.265 0.050 0.082
0.263 0.052 0.082
0.258 0.054 0.080
0.257 0.056 0.080
0.248 0.057 0.078
0.235 0.056 0.073
0.214 0.053 0.067
0.212 0.054 0.066
0.234 0.062 0.073
0.249 0.069 0.078
0.269 0.077 0.084
0.278 0.082 0.087
0.280 0.085 0.088
0.278 0.087 0.088
0.273 0.089 0.086
0.261 0.087 0.083
0.247 0.085 0.078
0.243 0.086 0.077
0.241 0.088 0.077
0.243 0.091 0.077
0.244 0.094 0.078
0.243 0.096 0.078
0.241 0.098 0.077
0.242 0.100 0.078
0.244 0.104 0.078
0.244 0.106 0.079
0.244 0.109 0.079
0.242 0.111 0.078
0.242 0.113 0.078
0.241 0.115 0.078
0.242 0.118 0.079
0.245 0.122 0.080
0.245 0.125 0.080
0.242 0.126 0.079
0.242 0.129 0.079
0.242 0.132 0.080
0.242 0.134 0.080
0.244 0.138 0.081
0.245 0.142 0.081
0.247 0.146 0.082
0.247 0.148 0.083
0.246 0.151 0.082
0.243 0.152 0.082
0.242 0.154 0.082
0.240 0.155 0.081
0.243 0.160 0.082
0.245 0.165 0.083
0.242 0.166 0.083
0.240 0.168 0.082
0.240 0.171 0.083
0.241 0.175 0.083
0.244 0.180 0.085
0.246 0.185 0.086
0.246 0.188 0.086
0.238 0.185 0.084
0.232 0.184 0.082
0.226 0.182 0.080
0.220 0.180 0.078
0.210 0.175 0.075
0.206 0.175 0.074
0.204 0.176 0.074
0.209 0.184 0.076
0.205 0.183 0.075
0.205 0.186 0.075
0.204 0.189 0.075
0.204 0.191 0.075
0.199 0.190 0.074
0.198 0.193 0.074
0.202 0.199 0.076
0.202 0.203 0.076
0.198 0.202 0.075
0.192 0.200 0.074
0.194 0.205 0.075
0.200 0.216 0.078
0.197 0.216 0.077
0.197 0.220 0.078
0.197 0.223 0.078
0.198 0.228 0.079
0.200 0.234 0.080
0.198 0.235 0.080
0.195 0.235 0.079
0.194 0.238 0.079
0.197 0.245 0.081
0.197 0.249 0.081
0.194 0.250 0.081
0.195 0.254 0.081
0.194 0.257 0.082
0.187 0.252 0.079
0.101 -0.138 0.043
0.101 -0.136 0.043
0.102 -0.135 0.043
0.104 -0.136 0.044
0.105 -0.135 0.044
0.105 -0.134 0.044
0.105 -0.132 0.043
0.104 -0.129 0.043
0.104 -0.127 0.043
0.105 -0.126 0.043
0.105 -0.124 0.042
0.115 -0.135 0.047
0.117 -0.135 0.047
0.109 -0.123 0.043
0.104 -0.116 0.041
0.104 -0.114 0.041
0.098 -0.106 0.039
0.099 -0.106 0.039
0.100 -0.105 0.039
0.115 -0.119 0.045
0.110 -0.112 0.043
0.108 -0.108 0.041
0.108 -0.107 0.041
0.241 -0.227 0.091
0.242 -0.224 0.090
0.243 -0.221 0.090
0.244 -0.219 0.090
0.248 -0.219 0.092
0.250 -0.217 0.092
0.248 -0.211 0.091
0.250 -0.210 0.091
0.249 -0.206 0.090
0.246 -0.200 0.089
0.241 -0.192 0.087
0.229 -0.180 0.082
0.223 -0.172 0.080
0.198 -0.150 0.070
0.193 -0.144 0.068
0.198 -0.145 0.070
0.202 -0.146 0.071
0.200 -0.142 0.070
0.200 -0.140 0.070
0.201 -0.138 0.070
0.195 -0.132 0.068
0.185 -0.122 0.064
0.182 -0.118 0.063
0.185 -0.118 0.064
0.202 -0.126 0.069
0.203 -0.125 0.070
0.205 -0.124 0.070
0.207 -0.123 0.070
0.209 -0.122 0.071
0.214 -0.122 0.072
0.214 -0.120 0.072
0.210 -0.115 0.071
0.207 -0.111 0.070
0.215 -0.113 0.072
0.204 -0.105 0.068
0.206 -0.104 0.069
0.203 -0.100 0.068
0.203 -0.098 0.068
0.205 -0.097 0.068
0.204 -0.094 0.068
0.208 -0.094 0.069
0.209 -0.092 0.069
0.209 -0.090 0.069
0.207 -0.087 0.068
0.204 -0.084 0.067
0.206 -0.083 0.068
0.206 -0.081 0.068
0.211 -0.080 0.069
0.212 -0.079 0.069
0.211 -0.076 0.069
0.213 -0.075 0.069
0.217 -0.074 0.070
0.219 -0.073 0.071
0.224 -0.072 0.072
0.228 -0.071 0.074
0.231 -0.070 0.075
0.239 -0.070 0.077
0.246 -0.070 0.079
0.252 -0.069 0.081
0.257 -0.068 0.083
0.264 -0.067 0.085
0.266 -0.065 0.086
0.266 -0.063 0.085
0.263 -0.060 0.084
0.263 -0.057 0.084
0.262 -0.054 0.084
0.261 -0.052 0.083
0.259 -0.049 0.083
0.259 -0.047 0.083
0.258 -0.044 0.083
0.258 -0.042 0.082
0.257 -0.039 0.082
0.259 -0.037 0.083
0.261 -0.035 0.083
0.260 -0.032 0.083
0.220 -0.023 0.070
0.217 -0.021 0.069
0.219 -0.019 0.070
0.221 -0.017 0.070
0.221 -0.015 0.070
0.259 -0.013 0.082
0.261 -0.011 0.083
0.262 -0.008 0.083
0.261 -0.006 0.083
0.258 -0.004 0.082
0.261 -0.001 0.083
0.267 0.001 0.085
0.297 0.004 0.094
0.280 0.006 0.089
0.284 0.009 0.090
0.275 0.011 0.088
0.256 0.013 0.081
0.256 0.015 0.081
0.257 0.018 0.082
0.264 0.021 0.084
0.264 0.023 0.084
0.260 0.025 0.083
0.255 0.027 0.081
0.257 0.030 0.082
0.263 0.033 0.084
0.268 0.036 0.086
0.271 0.039 0.087
0.274 0.042 0.088
0.274 0.044 0.088
0.274 0.047 0.088
0.272 0.049 0.087
0.266 0.051 0.085
0.256 0.051 0.082
0.250 0.052 0.080
0.246 0.054 0.079
0.237 0.054 0.076
0.217 0.052 0.070
0.207 0.051 0.067
0.220 0.057 0.071
0.238 0.063 0.077
0.251 0.069 0.081
0.266 0.076 0.086
0.271 0.080 0.088
0.272 0.083 0.088
0.272 0.086 0.089
0.268 0.087 0.087
0.258 0.086 0.084
0.245 0.084 0.080
0.242 0.086 0.079
0.242 0.088 0.079
0.243 0.091 0.080
0.242 0.093 0.080
0.242 0.096 0.080
0.240 0.097 0.079
0.239 0.099 0.079
0.241 0.103 0.080
0.241 0.105 0.080
0.239 0.107 0.079
0.239 0.109 0.080
0.239 0.112 0.080
0.239 0.114 0.080
0.239 0.117 0.080
0.241 0.121 0.081
0.240 0.123 0.081
0.238 0.124 0.080
0.238 0.127 0.081
0.239 0.130 0.081
0.241 0.134 0.082
0.240 0.136 0.082
0.242 0.140 0.083
0.243 0.144 0.084
0.246 0.148 0.085
0.242 0.149 0.084
0.241 0.151 0.083
0.239 0.152 0.083
0.236 0.154 0.083
0.238 0.158 0.083
0.242 0.163 0.085
0.239 0.164 0.084
0.234 0.164 0.083
0.234 0.167 0.083
0.240 0.174 0.086
0.247 0.182 0.088
0.245 0.184 0.088
0.236 0.180 0.085
0.226 0.176 0.082
0.221 0.175 0.080
0.215 0.173 0.078
0.202 0.166 0.074
0.198 0.165 0.073
0.198 0.169 0.074
0.199 0.172 0.074
0.197 0.173 0.074
0.194 0.174 0.073
0.197 0.179 0.074
0.199 0.184 0.076
0.199 0.187 0.076
0.198 0.190 0.076
0.194 0.189 0.075
0.194 0.192 0.075
0.196 0.197 0.076
0.194 0.199 0.076
0.193 0.201 0.076
0.190 0.201 0.076
0.198 0.213 0.079
0.199 0.218 0.080
0.197 0.220 0.080
0.196 0.222 0.080
0.195 0.224 0.080
0.195 0.228 0.080
0.197 0.235 0.082
0.194 0.235 0.081
0.193 0.237 0.081
0.192 0.240 0.081
0.194 0.246 0.082
0.194 0.249 0.083
0.193 0.252 0.083
0.190 0.252 0.082
0.187 0.251 0.081
0.101 -0.136 0.044
0.104 -0.137 0.045
0.105 -0.137 0.045
0.105 -0.136 0.045
0.106 -0.135 0.045
0.105 -0.132 0.045
0.104 -0.129 0.044
0.104 -0.127 0.044
0.105 -0.126 0.044
0.113 -0.134 0.047
0.115 -0.134 0.048
0.111 -0.127 0.046
0.106 -0.120 0.044
0.105 -0.118 0.043
0.099 -0.109 0.040
0.099 -0.107 0.040
0.099 -0.106 0.040
0.100 -0.105 0.040
0.113 -0.116 0.045
0.110 -0.112 0.044
0.107 -0.107 0.042
0.104 -0.103 0.041
0.107 -0.104 0.042
0.234 -0.221 0.091
0.237 -0.220 0.091
0.239 -0.218 0.092
0.240 -0.216 0.092
0.239 -0.212 0.091
0.237 -0.206 0.090
0.243 -0.208 0.092
0.244 -0.205 0.092
0.243 -0.201 0.091
0.243 -0.198 0.090
0.233 -0.187 0.086
0.231 -0.182 0.085
0.200 -0.153 0.073
0.200 -0.150 0.073
0.199 -0.146 0.072
0.198 -0.144 0.072
0.198 -0.141 0.072
0.197 -0.138 0.071
0.198 -0.136 0.071
0.185 -0.125 0.066
0.185 -0.122 0.066
0.186 -0.121 0.066
0.201 -0.128 0.071
0.201 -0.126 0.071
0.203 -0.125 0.072
0.203 -0.123 0.072
0.204 -0.121 0.072
0.208 -0.121 0.073
0.213 -0.122 0.074
0.213 -0.119 0.074
0.211 -0.116 0.073
0.211 -0.114 0.073
0.204 -0.108 0.071
0.206 -0.106 0.071
0.204 -0.103 0.070
0.202 -0.100 0.069
0.203 -0.098 0.070
0.206 -0.098 0.070
0.207 -0.096 0.071
0.207 -0.094 0.070
0.209 -0.093 0.071
0.208 -0.090 0.071
0.205 -0.087 0.070
0.205 -0.084 0.069
0.207 -0.083 0.070
0.206 -0.081 0.070
0.211 -0.080 0.071
0.211 -0.079 0.071
0.209 -0.076 0.070
0.210 -0.074 0.070
0.215 -0.074 0.072
0.218 -0.072 0.073
0.222 -0.072 0.074
0.225 -0.070 0.075
0.231 -0.070 0.077
0.243 -0.071 0.081
0.246 -0.070 0.082
0.248 -0.068 0.082
0.252 -0.067 0.084
0.256 -0.065 0.085
0.261 -0.064 0.086
0.260 -0.061 0.086
0.258 -0.059 0.085
0.258 -0.056 0.085
0.258 -0.054 0.085
0.258 -0.051 0.085
0.256 -0.048 0.084
0.254 -0.046 0.084
0.256 -0.044 0.084
0.257 -0.041 0.084
0.256 -0.039 0.084
0.256 -0.037 0.084
0.256 -0.034 0.084
0.251 -0.031 0.082
0.256 -0.029 0.084
0.257 -0.027 0.084
0.255 -0.025 0.084
0.225 -0.020 0.074
0.219 -0.017 0.072
0.220 -0.015 0.072
0.221 -0.013 0.072
0.222 -0.011 0.073
0.254 -0.010 0.083
0.259 -0.008 0.085
0.258 -0.006 0.084
0.257 -0.004 0.084
0.274 -0.001 0.090
0.289 0.001 0.095
0.292 0.004 0.096
0.281 0.006 0.092
0.245 0.010 0.080
0.251 0.013 0.082
0.251 0.015 0.082
0.252 0.017 0.083
0.254 0.020 0.083
0.263 0.023 0.086
0.260 0.025 0.085
0.255 0.027 0.084
0.260 0.030 0.085
0.262 0.033 0.086
0.265 0.036 0.087
0.271 0.039 0.089
0.272 0.042 0.090
0.273 0.044 0.090
0.271 0.046 0.089
0.270 0.049 0.089
0.265 0.050 0.088
0.237 0.047 0.078
0.224 0.047 0.074
0.229 0.050 0.076
0.226 0.052 0.075
0.213 0.051 0.071
0.215 0.053 0.071
0.228 0.058 0.076
0.241 0.064 0.080
0.252 0.070 0.084
0.256 0.073 0.085
0.261 0.077 0.087
0.262 0.080 0.088
0.262 0.083 0.088
0.258 0.084 0.087
0.248 0.083 0.083
0.241 0.083 0.081
0.240 0.085 0.081
0.239 0.087 0.081
0.241 0.090 0.081
0.240 0.093 0.081
0.239 0.095 0.081
0.238 0.097 0.081
0.238 0.099 0.081
0.237 0.101 0.081
0.237 0.104 0.081
0.236 0.106 0.081
0.235 0.108 0.081
0.236 0.111 0.081
0.236 0.113 0.081
0.235 0.115 0.081
0.230 0.115 0.080
0.234 0.120 0.081
0.235 0.123 0.082
0.235 0.125 0.082
0.236 0.129 0.083
0.236 0.131 0.083
0.235 0.133 0.083
0.235 0.136 0.083
0.235 0.139 0.083
0.238 0.144 0.085
0.237 0.146 0.085
0.236 0.148 0.084
0.234 0.150 0.084
0.233 0.151 0.084
0.235 0.156 0.085
0.242 0.163 0.087
0.239 0.165 0.087
0.234 0.164 0.086
0.237 0.169 0.087
0.242 0.176 0.089
0.244 0.181 0.090
0.240 0.181 0.089
0.230 0.176 0.086
0.218 0.170 0.081
0.206 0.164 0.077
0.200 0.161 0.075
0.198 0.162 0.075
0.195 0.163 0.074
0.193 0.165 0.074
0.195 0.169 0.075
0.190 0.168 0.073
0.191 0.171 0.074
0.189 0.172 0.074
0.191 0.177 0.075
0.192 0.181 0.075
0.192 0.184 0.076
0.192 0.188 0.076
0.190 0.188 0.076
0.190 0.192 0.076
0.190 0.195 0.077
0.190 0.199 0.078
0.195 0.207 0.080
0.198 0.214 0.082
0.195 0.214 0.081
0.194 0.216 0.081
0.192 0.218 0.081
0.193 0.223 0.082
0.192 0.225 0.082
0.192 0.228 0.082
0.191 0.232 0.082
0.189 0.233 0.082
0.187 0.234 0.082
0.188 0.239 0.082
0.188 0.242 0.083
0.184 0.241 0.082
0.186 0.247 0.083
0.190 0.256 0.085
0.102 -0.138 0.046
0.103 -0.137 0.046
0.105 -0.137 0.047
0.105 -0.136 0.047
0.106 -0.135 0.047
0.104 -0.131 0.046
0.104 -0.130 0.046
0.113 -0.139 0.049
0.114 -0.138 0.049
0.112 -0.133 0.048
0.108 -0.126 0.046
0.104 -0.120 0.044
0.103 -0.117 0.044
0.097 -0.108 0.041
0.098 -0.108 0.041
0.099 -0.107 0.041
0.099 -0.106 0.041
0.101 -0.107 0.042
0.110 -0.114 0.045
0.110 -0.112 0.045
0.101 -0.102 0.041
0.103 -0.102 0.042
0.108 -0.105 0.043
0.116 -0.111 0.047
0.232 -0.216 0.092
0.231 -0.211 0.091
0.232 -0.209 0.091
0.234 -0.207 0.092
0.233 -0.203 0.091
0.236 -0.202 0.092
0.236 -0.199 0.091
0.237 -0.197 0.091
0.236 -0.192 0.090
0.233 -0.187 0.089
0.222 -0.175 0.084
0.219 -0.170 0.083
0.205 -0.157 0.078
0.197 -0.148 0.074
0.201 -0.148 0.075
0.198 -0.144 0.074
0.197 -0.141 0.074
0.196 -0.137 0.073
0.187 -0.129 0.069
0.186 -0.126 0.069
0.187 -0.124 0.069
0.202 -0.132 0.074
0.202 -0.129 0.074
0.201 -0.126 0.073
0.202 -0.125 0.073
0.202 -0.123 0.073
