VERSION .7
FIELDS x y z
SIZE 4 4 4
TYPE F F F
COUNT 1 1 1
WIDTH     2586
HEIGHT 1
VIEWPOINT 0 0 0 1 0 0 0
POINTS     2586
DATA ascii
0.326 0.116 0.029
0.320 0.117 0.029
0.321 0.121 0.029
0.327 0.126 0.029
0.334 0.132 0.030
0.425 0.177 0.038
0.421 0.179 0.038
0.414 0.181 0.037
0.408 0.182 0.037
0.400 0.183 0.036
0.387 0.181 0.035
0.380 0.182 0.035
0.372 0.182 0.034
0.366 0.183 0.034
0.362 0.184 0.033
0.352 0.183 0.032
0.343 0.182 0.032
0.337 0.183 0.031
0.332 0.183 0.031
0.325 0.183 0.030
0.317 0.183 0.030
0.313 0.184 0.029
0.309 0.184 0.029
0.303 0.184 0.029
0.297 0.185 0.028
0.294 0.186 0.028
0.289 0.186 0.028
0.288 0.189 0.027
0.282 0.189 0.027
0.277 0.189 0.027
0.269 0.186 0.026
0.266 0.187 0.026
0.263 0.189 0.026
0.262 0.191 0.026
0.260 0.193 0.026
0.260 0.196 0.026
0.261 0.201 0.026
0.261 0.204 0.026
0.260 0.207 0.026
0.259 0.210 0.026
0.259 0.213 0.026
0.259 0.216 0.026
0.257 0.219 0.026
0.256 0.221 0.026
0.258 0.227 0.026
0.258 0.231 0.027
0.258 0.234 0.027
0.257 0.237 0.027
0.256 0.241 0.027
0.256 0.245 0.027
0.256 0.249 0.027
0.255 0.252 0.027
0.435 0.452 0.047
0.433 0.457 0.047
0.321 0.381 0.037
0.324 0.390 0.038
0.326 0.400 0.038
0.322 0.400 0.038
0.308 0.389 0.036
0.303 0.390 0.036
0.299 0.391 0.036
0.176 -0.242 0.023
0.176 -0.240 0.023
0.178 -0.239 0.023
0.179 -0.238 0.023
0.180 -0.236 0.023
0.181 -0.234 0.023
0.183 -0.233 0.023
0.184 -0.231 0.023
0.186 -0.230 0.023
0.187 -0.229 0.024
0.190 -0.229 0.024
0.192 -0.228 0.024
0.194 -0.226 0.024
0.195 -0.224 0.024
0.198 -0.224 0.024
0.201 -0.224 0.024
0.203 -0.223 0.024
0.204 -0.220 0.024
0.206 -0.219 0.025
0.208 -0.219 0.025
0.210 -0.217 0.025
0.213 -0.216 0.025
0.214 -0.215 0.025
0.218 -0.215 0.025
0.221 -0.215 0.025
0.223 -0.213 0.026
0.225 -0.212 0.026
0.227 -0.210 0.026
0.229 -0.209 0.026
0.232 -0.209 0.026
0.235 -0.208 0.026
0.238 -0.207 0.027
0.241 -0.207 0.027
0.245 -0.207 0.027
0.247 -0.205 0.027
0.249 -0.203 0.027
0.247 -0.198 0.027
0.240 -0.190 0.026
0.223 -0.174 0.024
0.212 -0.162 0.023
0.205 -0.154 0.022
0.206 -0.153 0.022
0.208 -0.151 0.022
0.205 -0.147 0.022
0.200 -0.141 0.021
0.205 -0.142 0.022
0.202 -0.138 0.021
0.206 -0.138 0.022
0.209 -0.137 0.022
0.207 -0.134 0.022
0.210 -0.133 0.022
0.213 -0.133 0.022
0.212 -0.129 0.022
0.208 -0.125 0.021
0.203 -0.120 0.021
0.208 -0.121 0.021
0.208 -0.118 0.021
0.206 -0.115 0.021
0.208 -0.114 0.021
0.212 -0.114 0.022
0.213 -0.112 0.022
0.212 -0.109 0.021
0.212 -0.107 0.021
0.206 -0.102 0.021
0.208 -0.101 0.021
0.206 -0.098 0.021
0.208 -0.097 0.021
0.203 -0.092 0.020
0.209 -0.092 0.021
0.207 -0.090 0.021
0.217 -0.092 0.021
0.220 -0.091 0.022
0.217 -0.087 0.021
0.214 -0.084 0.021
0.213 -0.082 0.021
0.212 -0.079 0.021
0.228 -0.083 0.022
0.231 -0.082 0.023
0.234 -0.081 0.023
0.239 -0.080 0.023
0.240 -0.078 0.023
0.240 -0.076 0.023
0.255 -0.078 0.025
0.265 -0.079 0.026
0.277 -0.080 0.027
0.408 -0.110 0.040
0.415 -0.108 0.040
0.417 -0.104 0.040
0.417 -0.100 0.040
0.411 -0.095 0.040
0.327 -0.070 0.032
0.368 -0.075 0.035
0.365 -0.071 0.035
0.345 -0.064 0.033
0.336 -0.059 0.032
0.286 -0.048 0.027
0.282 -0.045 0.027
0.284 -0.042 0.027
0.288 -0.040 0.028
0.289 -0.038 0.028
0.287 -0.035 0.028
0.288 -0.032 0.028
0.288 -0.030 0.028
0.287 -0.027 0.027
0.294 -0.025 0.028
0.290 -0.022 0.028
0.291 -0.020 0.028
0.292 -0.017 0.028
0.296 -0.015 0.028
0.297 -0.012 0.028
0.292 -0.009 0.028
0.291 -0.007 0.028
0.290 -0.004 0.028
0.289 -0.001 0.028
0.299 0.001 0.029
0.298 0.004 0.029
0.303 0.007 0.029
0.303 0.009 0.029
0.303 0.012 0.029
0.302 0.015 0.029
0.304 0.018 0.029
0.308 0.021 0.029
0.318 0.024 0.030
0.314 0.027 0.030
0.304 0.029 0.029
0.299 0.031 0.029
0.307 0.035 0.029
0.305 0.037 0.029
0.294 0.038 0.028
0.298 0.042 0.029
0.292 0.043 0.028
0.300 0.048 0.029
0.300 0.050 0.029
0.295 0.052 0.028
0.300 0.056 0.029
0.319 0.062 0.031
0.314 0.064 0.030
0.310 0.066 0.030
0.303 0.068 0.029
0.303 0.070 0.029
0.301 0.073 0.029
0.306 0.077 0.030
0.310 0.081 0.030
0.305 0.082 0.030
0.325 0.091 0.032
0.324 0.094 0.032
0.319 0.095 0.031
0.314 0.097 0.031
0.308 0.098 0.030
0.294 0.096 0.029
0.302 0.102 0.030
0.307 0.107 0.030
0.317 0.113 0.031
0.332 0.121 0.033
0.329 0.124 0.033
0.320 0.123 0.032
0.332 0.132 0.033
0.422 0.176 0.042
0.421 0.180 0.042
0.407 0.178 0.041
0.403 0.180 0.040
0.398 0.182 0.040
0.389 0.182 0.039
0.381 0.182 0.038
0.375 0.183 0.038
0.368 0.184 0.037
0.362 0.185 0.037
0.348 0.181 0.035
0.343 0.182 0.035
0.338 0.183 0.035
0.332 0.183 0.034
0.323 0.182 0.033
0.319 0.183 0.033
0.313 0.183 0.032
0.308 0.184 0.032
0.302 0.184 0.031
0.298 0.185 0.031
0.293 0.185 0.031
0.289 0.186 0.030
0.284 0.187 0.030
0.281 0.188 0.030
0.276 0.188 0.029
0.269 0.186 0.029
0.265 0.187 0.028
0.263 0.189 0.028
0.261 0.191 0.028
0.261 0.194 0.028
0.260 0.197 0.028
0.260 0.200 0.028
0.260 0.203 0.028
0.259 0.206 0.028
0.259 0.209 0.029
0.260 0.214 0.029
0.259 0.217 0.029
0.258 0.220 0.029
0.258 0.223 0.029
0.258 0.227 0.029
0.257 0.230 0.029
0.257 0.234 0.029
0.257 0.237 0.030
0.256 0.241 0.030
0.256 0.245 0.030
0.255 0.248 0.030
0.254 0.251 0.030
0.398 0.421 0.048
0.394 0.423 0.048
0.330 0.360 0.040
0.326 0.362 0.040
0.323 0.390 0.041
0.323 0.396 0.042
0.312 0.389 0.040
0.304 0.385 0.040
0.302 0.388 0.040
0.296 0.387 0.039
0.170 -0.235 0.025
0.175 -0.239 0.025
0.178 -0.239 0.025
0.178 -0.237 0.025
0.179 -0.235 0.025
0.181 -0.234 0.025
0.183 -0.233 0.026
0.185 -0.232 0.026
0.186 -0.230 0.026
0.187 -0.228 0.026
0.189 -0.228 0.026
0.192 -0.227 0.026
0.193 -0.226 0.026
0.195 -0.225 0.026
0.198 -0.225 0.026
0.201 -0.224 0.027
0.202 -0.222 0.027
0.204 -0.221 0.027
0.206 -0.220 0.027
0.208 -0.219 0.027
0.210 -0.217 0.027
0.212 -0.216 0.027
0.215 -0.216 0.027
0.218 -0.215 0.028
0.221 -0.215 0.028
0.223 -0.214 0.028
0.224 -0.212 0.028
0.227 -0.210 0.028
0.230 -0.210 0.028
0.233 -0.210 0.029
0.236 -0.209 0.029
0.239 -0.208 0.029
0.241 -0.207 0.029
0.244 -0.206 0.029
0.248 -0.206 0.030
0.248 -0.202 0.030
0.247 -0.198 0.029
0.240 -0.190 0.028
0.221 -0.172 0.026
0.210 -0.161 0.025
0.204 -0.154 0.024
0.202 -0.150 0.024
0.207 -0.151 0.024
0.207 -0.148 0.024
0.202 -0.142 0.023
0.199 -0.137 0.023
0.204 -0.139 0.023
0.208 -0.139 0.024
0.208 -0.137 0.024
0.205 -0.133 0.023
0.209 -0.133 0.024
0.215 -0.134 0.024
0.207 -0.127 0.023
0.208 -0.125 0.023
0.209 -0.123 0.024
0.208 -0.121 0.023
0.209 -0.119 0.023
0.209 -0.117 0.023
0.212 -0.116 0.024
0.215 -0.115 0.024
0.215 -0.113 0.024
0.207 -0.107 0.023
0.212 -0.107 0.023
0.204 -0.101 0.022
0.211 -0.102 0.023
0.211 -0.100 0.023
0.210 -0.097 0.023
0.208 -0.094 0.023
0.210 -0.093 0.023
0.214 -0.093 0.023
0.214 -0.091 0.023
0.216 -0.089 0.023
0.217 -0.088 0.024
0.215 -0.085 0.023
0.210 -0.081 0.023
0.202 -0.076 0.022
0.220 -0.080 0.024
0.231 -0.082 0.025
0.230 -0.079 0.025
0.229 -0.077 0.025
0.236 -0.077 0.025
0.242 -0.076 0.026
0.246 -0.075 0.026
0.262 -0.078 0.028
0.273 -0.079 0.029
0.291 -0.081 0.031
0.405 -0.109 0.043
0.411 -0.107 0.044
0.419 -0.105 0.044
0.416 -0.100 0.044
0.404 -0.094 0.043
0.319 -0.071 0.034
0.375 -0.077 0.040
0.370 -0.072 0.039
0.368 -0.068 0.039
0.281 -0.047 0.030
0.281 -0.044 0.030
0.282 -0.042 0.030
0.286 -0.040 0.030
0.289 -0.038 0.030
0.289 -0.035 0.030
0.287 -0.032 0.030
0.287 -0.030 0.030
0.288 -0.027 0.030
0.291 -0.025 0.030
0.293 -0.022 0.031
0.289 -0.020 0.030
0.291 -0.017 0.030
0.293 -0.015 0.031
0.296 -0.012 0.031
0.297 -0.009 0.031
0.294 -0.007 0.031
0.291 -0.004 0.030
0.290 -0.001 0.030
0.292 0.001 0.031
0.301 0.004 0.031
0.298 0.007 0.031
0.298 0.009 0.031
0.297 0.012 0.031
0.300 0.015 0.031
0.300 0.017 0.031
0.298 0.020 0.031
0.303 0.023 0.032
0.311 0.027 0.033
0.304 0.029 0.032
0.296 0.031 0.031
0.297 0.033 0.031
0.300 0.036 0.031
0.284 0.037 0.030
0.280 0.039 0.029
0.283 0.042 0.030
0.291 0.046 0.031
0.284 0.048 0.030
0.286 0.051 0.030
0.294 0.055 0.031
0.300 0.058 0.032
0.307 0.063 0.032
0.304 0.065 0.032
0.292 0.065 0.031
0.308 0.072 0.033
0.307 0.074 0.033
0.315 0.079 0.033
0.314 0.082 0.033
0.323 0.087 0.034
0.316 0.088 0.034
0.317 0.092 0.034
0.320 0.095 0.034
0.313 0.096 0.033
0.306 0.097 0.033
0.303 0.099 0.033
0.301 0.101 0.032
0.302 0.105 0.033
0.304 0.108 0.033
0.324 0.119 0.035
0.320 0.120 0.035
0.329 0.127 0.036
0.322 0.128 0.035
0.324 0.132 0.035
0.385 0.164 0.042
0.403 0.176 0.044
0.398 0.178 0.044
0.395 0.180 0.043
0.389 0.182 0.043
0.381 0.182 0.042
0.370 0.181 0.041
0.364 0.182 0.040
0.356 0.182 0.040
0.351 0.183 0.039
0.342 0.182 0.038
0.336 0.182 0.038
0.331 0.183 0.037
0.325 0.183 0.037
0.318 0.183 0.036
0.313 0.184 0.035
0.309 0.185 0.035
0.304 0.186 0.035
0.300 0.186 0.034
0.294 0.186 0.034
0.289 0.186 0.033
0.284 0.186 0.033
0.281 0.188 0.032
0.276 0.188 0.032
0.269 0.186 0.031
0.265 0.187 0.031
0.263 0.189 0.031
0.261 0.191 0.031
0.261 0.194 0.031
0.260 0.197 0.031
0.260 0.200 0.031
0.259 0.203 0.031
0.258 0.206 0.031
0.258 0.209 0.031
0.260 0.214 0.032
0.260 0.218 0.032
0.259 0.221 0.032
0.258 0.223 0.032
0.257 0.226 0.032
0.256 0.229 0.032
0.257 0.234 0.032
0.256 0.237 0.032
0.257 0.242 0.032
0.256 0.245 0.033
0.255 0.248 0.033
0.253 0.251 0.033
0.396 0.419 0.052
0.328 0.358 0.044
0.316 0.351 0.043
0.318 0.359 0.043
0.303 0.360 0.042
0.314 0.385 0.044
0.306 0.381 0.043
0.302 0.382 0.043
0.300 0.386 0.043
0.301 0.394 0.044
0.169 -0.233 0.026
0.176 -0.240 0.027
0.178 -0.240 0.028
0.179 -0.237 0.028
0.179 -0.235 0.027
0.180 -0.233 0.028
0.183 -0.234 0.028
0.186 -0.233 0.028
0.187 -0.231 0.028
0.188 -0.229 0.028
0.189 -0.228 0.028
0.191 -0.227 0.028
0.193 -0.226 0.028
0.196 -0.226 0.029
0.198 -0.225 0.029
0.200 -0.223 0.029
0.202 -0.222 0.029
0.204 -0.221 0.029
0.206 -0.220 0.029
0.208 -0.218 0.029
0.209 -0.217 0.029
0.212 -0.216 0.029
0.215 -0.216 0.030
0.218 -0.215 0.030
0.221 -0.215 0.030
0.223 -0.214 0.030
0.225 -0.212 0.030
0.228 -0.211 0.031
0.231 -0.211 0.031
0.234 -0.210 0.031
0.237 -0.210 0.032
0.243 -0.212 0.032
0.249 -0.213 0.033
0.253 -0.213 0.033
0.254 -0.211 0.033
0.250 -0.204 0.032
0.247 -0.199 0.032
0.255 -0.202 0.033
0.209 -0.160 0.027
0.202 -0.152 0.026
0.201 -0.149 0.026
0.206 -0.150 0.026
0.213 -0.153 0.027
0.209 -0.147 0.026
0.201 -0.139 0.025
0.205 -0.140 0.026
0.212 -0.142 0.026
0.210 -0.138 0.026
0.206 -0.133 0.026
0.205 -0.130 0.025
0.205 -0.128 0.025
0.208 -0.128 0.026
0.207 -0.124 0.025
0.205 -0.121 0.025
0.206 -0.119 0.025
0.201 -0.114 0.024
0.210 -0.117 0.025
0.214 -0.117 0.026
0.217 -0.116 0.026
0.219 -0.115 0.026
0.216 -0.111 0.026
0.204 -0.103 0.024
0.210 -0.104 0.025
0.201 -0.097 0.024
0.202 -0.096 0.024
0.204 -0.094 0.024
0.213 -0.097 0.025
0.199 -0.088 0.023
0.208 -0.090 0.025
0.210 -0.089 0.025
0.214 -0.088 0.025
0.220 -0.089 0.026
0.218 -0.086 0.026
0.208 -0.080 0.024
0.208 -0.078 0.024
0.204 -0.074 0.024
0.221 -0.078 0.026
0.224 -0.077 0.026
0.227 -0.076 0.026
0.232 -0.075 0.027
0.237 -0.075 0.027
0.243 -0.075 0.028
0.254 -0.076 0.029
0.268 -0.077 0.031
0.285 -0.079 0.033
0.402 -0.108 0.046
0.412 -0.107 0.047
0.421 -0.105 0.048
0.415 -0.100 0.048
0.374 -0.076 0.043
0.383 -0.075 0.044
0.366 -0.068 0.042
0.283 -0.047 0.032
0.281 -0.044 0.032
0.282 -0.042 0.032
0.283 -0.040 0.032
0.286 -0.037 0.033
0.290 -0.035 0.033
0.287 -0.032 0.033
0.285 -0.030 0.032
0.288 -0.027 0.033
0.293 -0.025 0.033
0.292 -0.022 0.033
0.290 -0.020 0.033
0.290 -0.017 0.033
0.293 -0.015 0.033
0.296 -0.012 0.034
0.298 -0.009 0.034
0.297 -0.007 0.034
0.300 -0.004 0.034
0.297 -0.001 0.034
0.298 0.001 0.034
0.297 0.004 0.034
0.294 0.007 0.033
0.289 0.009 0.033
0.295 0.012 0.034
0.304 0.015 0.035
0.303 0.018 0.034
0.286 0.019 0.033
0.284 0.022 0.032
0.297 0.025 0.034
0.302 0.029 0.034
0.300 0.031 0.034
0.321 0.036 0.037
0.310 0.038 0.035
0.289 0.038 0.033
0.279 0.039 0.032
0.285 0.042 0.033
0.294 0.046 0.034
0.279 0.047 0.032
0.274 0.048 0.031
0.285 0.053 0.033
0.296 0.058 0.034
0.292 0.060 0.034
0.292 0.062 0.034
0.301 0.067 0.035
0.309 0.072 0.036
0.321 0.078 0.037
0.318 0.080 0.037
0.318 0.083 0.037
0.319 0.086 0.037
0.314 0.088 0.036
0.316 0.091 0.037
0.323 0.096 0.037
0.317 0.098 0.037
0.304 0.097 0.035
0.302 0.099 0.035
0.313 0.106 0.037
0.305 0.106 0.036
0.309 0.110 0.036
0.315 0.115 0.037
0.319 0.120 0.038
0.310 0.120 0.036
0.315 0.125 0.037
0.328 0.134 0.039
0.343 0.143 0.041
0.381 0.163 0.045
0.390 0.170 0.046
0.396 0.177 0.047
0.393 0.180 0.047
0.387 0.181 0.046
0.381 0.182 0.046
0.373 0.182 0.045
0.360 0.180 0.043
0.356 0.182 0.043
0.352 0.183 0.043
0.340 0.181 0.041
0.334 0.181 0.041
0.328 0.182 0.040
0.324 0.183 0.040
0.320 0.185 0.039
0.313 0.184 0.038
0.309 0.185 0.038
0.305 0.186 0.038
0.300 0.187 0.037
0.293 0.186 0.037
0.289 0.186 0.036
0.284 0.187 0.036
0.280 0.187 0.035
0.275 0.187 0.035
0.268 0.186 0.034
0.265 0.187 0.034
0.262 0.188 0.033
0.261 0.191 0.033
0.260 0.194 0.033
0.261 0.198 0.034
0.260 0.201 0.034
0.259 0.203 0.034
0.259 0.206 0.034
0.260 0.211 0.034
0.259 0.214 0.034
0.259 0.217 0.034
0.259 0.220 0.034
0.257 0.223 0.034
0.256 0.226 0.034
0.256 0.229 0.035
0.256 0.233 0.035
0.256 0.237 0.035
0.257 0.242 0.035
0.256 0.245 0.035
0.255 0.248 0.035
0.253 0.251 0.035
0.324 0.355 0.047
0.314 0.349 0.046
0.310 0.351 0.046
0.305 0.351 0.045
0.300 0.350 0.045
0.294 0.350 0.044
0.294 0.355 0.045
0.307 0.377 0.047
0.306 0.382 0.047
0.301 0.381 0.047
0.298 0.384 0.046
0.298 0.390 0.047
0.164 -0.226 0.028
0.176 -0.240 0.030
0.180 -0.242 0.030
0.182 -0.243 0.030
0.186 -0.243 0.031
0.182 -0.236 0.030
0.187 -0.238 0.031
0.187 -0.235 0.030
0.189 -0.234 0.030
0.191 -0.233 0.031
0.192 -0.231 0.031
0.196 -0.232 0.031
0.200 -0.234 0.032
0.204 -0.235 0.032
0.207 -0.235 0.032
0.210 -0.235 0.033
0.279 -0.259 0.041
0.285 -0.260 0.041
0.288 -0.259 0.041
0.291 -0.258 0.042
0.295 -0.257 0.042
0.295 -0.253 0.042
0.297 -0.251 0.042
0.299 -0.249 0.042
0.290 -0.237 0.041
0.210 -0.161 0.029
0.204 -0.154 0.028
0.204 -0.152 0.028
0.208 -0.152 0.028
0.210 -0.151 0.029
0.208 -0.146 0.028
0.207 -0.144 0.028
0.209 -0.143 0.028
0.214 -0.144 0.029
0.213 -0.140 0.029
0.207 -0.134 0.028
0.203 -0.129 0.027
0.204 -0.127 0.027
0.207 -0.127 0.027
0.210 -0.126 0.028
0.212 -0.125 0.028
0.206 -0.120 0.027
0.205 -0.117 0.027
0.210 -0.117 0.027
0.213 -0.117 0.028
0.218 -0.117 0.028
0.222 -0.117 0.029
0.221 -0.114 0.029
0.205 -0.104 0.026
0.209 -0.103 0.027
0.204 -0.099 0.026
0.203 -0.096 0.026
0.212 -0.098 0.027
0.208 -0.094 0.027
0.210 -0.093 0.027
0.207 -0.090 0.026
0.210 -0.089 0.027
0.213 -0.088 0.027
0.215 -0.087 0.027
0.217 -0.086 0.027
0.214 -0.082 0.027
0.209 -0.078 0.026
0.214 -0.078 0.027
0.219 -0.078 0.028
0.221 -0.076 0.028
0.220 -0.074 0.028
0.231 -0.075 0.029
0.236 -0.075 0.030
0.240 -0.074 0.030
0.250 -0.074 0.031
0.268 -0.077 0.033
0.284 -0.079 0.035
0.403 -0.109 0.050
0.414 -0.107 0.051
0.419 -0.105 0.052
0.416 -0.100 0.052
0.400 -0.093 0.050
0.393 -0.087 0.049
0.352 -0.072 0.043
0.351 -0.069 0.043
0.350 -0.065 0.043
0.286 -0.048 0.035
0.284 -0.045 0.035
0.284 -0.042 0.035
0.282 -0.040 0.035
0.282 -0.037 0.035
0.289 -0.035 0.036
0.288 -0.033 0.035
0.287 -0.030 0.035
0.288 -0.027 0.035
0.292 -0.025 0.036
0.292 -0.022 0.036
0.290 -0.020 0.036
0.291 -0.017 0.036
0.293 -0.015 0.036
0.293 -0.012 0.036
0.293 -0.009 0.036
0.296 -0.007 0.036
0.301 -0.004 0.037
0.300 -0.001 0.037
0.300 0.001 0.037
0.292 0.004 0.036
0.288 0.006 0.035
0.287 0.009 0.035
0.294 0.012 0.036
0.308 0.015 0.038
0.304 0.018 0.037
0.282 0.019 0.035
0.278 0.021 0.034
0.287 0.025 0.035
0.295 0.028 0.036
0.310 0.032 0.038
0.316 0.036 0.039
0.315 0.038 0.039
0.300 0.039 0.037
0.294 0.041 0.036
0.296 0.044 0.036
0.298 0.047 0.037
0.286 0.048 0.035
0.279 0.049 0.034
0.285 0.053 0.035
0.299 0.058 0.037
0.320 0.065 0.040
0.302 0.065 0.037
0.308 0.069 0.038
0.317 0.074 0.039
0.317 0.077 0.039
0.317 0.080 0.039
0.315 0.082 0.039
0.315 0.085 0.039
0.309 0.086 0.039
0.319 0.092 0.040
0.321 0.096 0.040
0.310 0.096 0.039
0.301 0.096 0.038
0.305 0.100 0.038
0.312 0.105 0.039
0.320 0.111 0.040
0.317 0.113 0.040
0.312 0.114 0.039
0.312 0.118 0.040
0.308 0.119 0.039
0.337 0.134 0.043
0.330 0.134 0.042
0.339 0.141 0.043
0.384 0.168 0.049
0.392 0.175 0.050
0.393 0.180 0.051
0.386 0.181 0.050
0.380 0.182 0.049
0.373 0.183 0.048
0.361 0.180 0.047
0.355 0.181 0.046
0.349 0.182 0.046
0.341 0.181 0.045
0.336 0.182 0.044
0.328 0.182 0.043
0.323 0.183 0.043
0.319 0.184 0.042
0.314 0.185 0.042
0.308 0.185 0.041
0.304 0.185 0.041
0.298 0.185 0.040
0.292 0.185 0.039
0.288 0.186 0.039
0.283 0.186 0.038
0.278 0.186 0.038
0.273 0.186 0.037
0.269 0.186 0.037
0.265 0.187 0.036
0.262 0.189 0.036
0.261 0.191 0.036
0.260 0.194 0.036
0.261 0.198 0.036
0.260 0.200 0.036
0.259 0.203 0.036
0.259 0.207 0.037
0.260 0.211 0.037
0.259 0.214 0.037
0.258 0.216 0.037
0.258 0.220 0.037
0.258 0.223 0.037
0.256 0.226 0.037
0.256 0.230 0.037
0.256 0.233 0.038
0.255 0.237 0.038
0.256 0.241 0.038
0.255 0.245 0.038
0.255 0.248 0.038
0.253 0.251 0.038
0.355 0.376 0.055
0.318 0.348 0.050
0.309 0.344 0.049
0.302 0.341 0.048
0.296 0.341 0.047
0.297 0.347 0.048
0.293 0.348 0.047
0.295 0.356 0.048
0.306 0.376 0.050
0.304 0.380 0.050
0.300 0.381 0.050
0.297 0.383 0.050
0.299 0.391 0.050
0.185 -0.255 0.033
0.173 -0.236 0.031
0.182 -0.245 0.033
0.185 -0.247 0.033
0.253 -0.332 0.045
0.267 -0.336 0.047
0.273 -0.334 0.047
0.274 -0.325 0.047
0.273 -0.315 0.046
0.276 -0.314 0.046
0.281 -0.314 0.047
0.284 -0.313 0.047
0.283 -0.307 0.046
0.283 -0.302 0.046
0.283 -0.298 0.046
0.286 -0.296 0.046
0.291 -0.297 0.047
0.293 -0.294 0.047
0.294 -0.291 0.047
0.294 -0.287 0.047
0.290 -0.278 0.046
0.288 -0.272 0.045
0.290 -0.270 0.045
0.287 -0.263 0.045
0.288 -0.260 0.045
0.291 -0.258 0.045
0.294 -0.257 0.045
0.294 -0.252 0.045
0.294 -0.249 0.045
0.295 -0.245 0.045
0.287 -0.235 0.043
0.210 -0.161 0.031
0.204 -0.154 0.030
0.204 -0.152 0.030
0.204 -0.149 0.030
0.203 -0.146 0.030
0.205 -0.145 0.030
0.208 -0.144 0.030
0.213 -0.145 0.031
0.211 -0.141 0.030
0.211 -0.139 0.030
0.207 -0.134 0.030
0.205 -0.130 0.029
0.204 -0.127 0.029
0.207 -0.127 0.029
0.211 -0.127 0.030
0.210 -0.124 0.030
0.205 -0.119 0.029
0.205 -0.116 0.029
0.205 -0.114 0.029
0.210 -0.115 0.029
0.213 -0.114 0.030
0.215 -0.113 0.030
0.200 -0.103 0.028
0.207 -0.104 0.029
0.205 -0.101 0.028
0.206 -0.100 0.028
0.205 -0.097 0.028
0.208 -0.096 0.029
0.207 -0.094 0.028
0.210 -0.093 0.029
0.202 -0.088 0.028
0.208 -0.088 0.028
0.212 -0.088 0.029
0.212 -0.086 0.029
0.213 -0.084 0.029
0.211 -0.081 0.029
0.212 -0.079 0.029
0.213 -0.078 0.029
0.221 -0.078 0.030
0.217 -0.075 0.029
0.210 -0.071 0.028
0.229 -0.075 0.031
0.240 -0.076 0.032
0.246 -0.075 0.033
0.251 -0.075 0.034
0.261 -0.075 0.035
0.407 -0.110 0.054
0.414 -0.108 0.055
0.417 -0.105 0.056
0.415 -0.100 0.055
0.409 -0.095 0.054
0.353 -0.072 0.047
0.352 -0.069 0.047
0.341 -0.063 0.045
0.288 -0.048 0.038
0.289 -0.046 0.038
0.286 -0.043 0.038
0.282 -0.040 0.037
0.280 -0.037 0.037
0.280 -0.034 0.037
0.285 -0.032 0.038
0.285 -0.030 0.038
0.287 -0.027 0.038
0.287 -0.025 0.038
0.288 -0.022 0.038
0.289 -0.020 0.038
0.291 -0.017 0.038
0.292 -0.015 0.038
0.291 -0.012 0.038
0.291 -0.009 0.038
0.292 -0.007 0.038
0.293 -0.004 0.039
0.296 -0.001 0.039
0.294 0.001 0.039
0.291 0.004 0.038
0.289 0.006 0.038
0.289 0.009 0.038
0.296 0.012 0.039
0.306 0.015 0.040
0.306 0.018 0.040
0.291 0.020 0.038
0.278 0.021 0.037
0.290 0.025 0.038
0.300 0.028 0.040
0.301 0.031 0.040
0.304 0.034 0.040
0.303 0.037 0.040
0.303 0.040 0.040
0.303 0.043 0.040
0.302 0.045 0.040
0.301 0.048 0.040
0.293 0.049 0.039
0.293 0.052 0.039
0.299 0.056 0.040
0.313 0.061 0.042
0.311 0.064 0.041
0.317 0.068 0.042
0.309 0.069 0.041
0.309 0.072 0.041
0.299 0.072 0.040
0.315 0.079 0.042
0.314 0.082 0.042
0.309 0.084 0.042
0.321 0.090 0.043
0.317 0.092 0.043
0.316 0.095 0.043
0.308 0.095 0.042
0.301 0.096 0.041
0.301 0.099 0.041
0.312 0.105 0.042
0.320 0.111 0.043
0.314 0.112 0.043
0.305 0.112 0.041
0.305 0.115 0.042
0.321 0.124 0.044
0.326 0.129 0.045
0.333 0.136 0.046
0.333 0.139 0.046
0.345 0.147 0.047
0.392 0.176 0.054
0.393 0.180 0.054
0.389 0.182 0.054
0.379 0.182 0.053
0.371 0.182 0.052
0.363 0.181 0.051
0.354 0.181 0.049
0.348 0.181 0.049
0.343 0.182 0.048
0.336 0.183 0.047
0.330 0.183 0.047
0.322 0.182 0.046
0.317 0.183 0.045
0.313 0.184 0.045
0.308 0.185 0.044
0.303 0.185 0.043
0.300 0.186 0.043
0.292 0.185 0.042
0.288 0.186 0.042
0.284 0.187 0.041
0.277 0.185 0.040
0.272 0.186 0.040
0.269 0.187 0.039
0.265 0.187 0.039
0.262 0.189 0.039
0.261 0.191 0.039
0.260 0.194 0.039
0.260 0.197 0.039
0.259 0.200 0.039
0.259 0.203 0.039
0.260 0.207 0.039
0.259 0.210 0.039
0.258 0.213 0.039
0.258 0.217 0.040
0.259 0.221 0.040
0.258 0.224 0.040
0.257 0.227 0.040
0.256 0.230 0.040
0.255 0.233 0.040
0.255 0.237 0.040
0.255 0.241 0.041
0.255 0.245 0.041
0.255 0.248 0.041
0.254 0.252 0.041
0.261 0.263 0.043
0.290 0.329 0.049
0.295 0.339 0.051
0.294 0.344 0.051
0.294 0.350 0.051
0.296 0.359 0.052
0.302 0.371 0.053
0.302 0.378 0.054
0.300 0.381 0.054
0.299 0.385 0.054
0.295 0.387 0.054
0.178 -0.247 0.034
0.176 -0.241 0.034
0.181 -0.245 0.035
0.188 -0.250 0.036
0.259 -0.341 0.049
0.269 -0.349 0.051
0.276 -0.352 0.052
0.276 -0.347 0.051
0.281 -0.348 0.052
0.280 -0.343 0.052
0.282 -0.341 0.052
0.284 -0.338 0.052
0.284 -0.333 0.051
0.282 -0.325 0.051
0.283 -0.321 0.050
0.286 -0.320 0.051
0.286 -0.315 0.050
0.288 -0.313 0.051
0.285 -0.305 0.050
0.286 -0.301 0.050
0.289 -0.300 0.050
0.291 -0.298 0.050
0.291 -0.293 0.050
0.292 -0.289 0.050
0.293 -0.286 0.050
0.288 -0.277 0.048
0.289 -0.273 0.048
0.288 -0.268 0.048
0.290 -0.266 0.048
0.289 -0.260 0.048
0.288 -0.256 0.047
0.289 -0.253 0.047
0.288 -0.247 0.047
0.289 -0.244 0.047
0.286 -0.238 0.046
0.288 -0.236 0.046
0.284 -0.229 0.045
0.205 -0.158 0.033
0.203 -0.153 0.032
0.202 -0.150 0.032
0.200 -0.146 0.031
0.203 -0.146 0.032
0.208 -0.147 0.032
0.210 -0.146 0.033
0.208 -0.142 0.032
0.209 -0.140 0.032
0.209 -0.138 0.032
0.208 -0.135 0.032
0.206 -0.131 0.031
0.203 -0.127 0.031
0.203 -0.125 0.031
0.205 -0.123 0.031
0.209 -0.123 0.032
0.206 -0.119 0.031
0.203 -0.115 0.030
0.206 -0.115 0.031
0.200 -0.110 0.030
0.214 -0.115 0.032
0.212 -0.112 0.032
0.210 -0.108 0.031
0.204 -0.103 0.030
0.205 -0.102 0.030
0.205 -0.099 0.030
0.203 -0.096 0.030
0.205 -0.095 0.030
0.209 -0.095 0.031
0.199 -0.088 0.029
0.205 -0.089 0.030
0.199 -0.084 0.029
0.210 -0.087 0.031
0.213 -0.086 0.031
0.213 -0.084 0.031
0.213 -0.082 0.031
0.201 -0.075 0.029
0.213 -0.078 0.031
0.217 -0.077 0.031
0.222 -0.077 0.032
0.218 -0.073 0.031
0.235 -0.077 0.034
0.246 -0.078 0.035
0.250 -0.077 0.036
0.250 -0.074 0.036
0.255 -0.073 0.036
0.407 -0.110 0.058
0.413 -0.108 0.059
0.412 -0.103 0.059
0.404 -0.098 0.058
0.399 -0.093 0.057
0.386 -0.086 0.055
0.370 -0.079 0.053
0.368 -0.075 0.052
0.354 -0.069 0.050
0.352 -0.065 0.050
0.292 -0.049 0.041
0.289 -0.046 0.041
0.289 -0.043 0.041
0.285 -0.040 0.040
0.281 -0.037 0.040
0.280 -0.034 0.039
0.282 -0.032 0.040
0.285 -0.030 0.040
0.285 -0.027 0.040
0.287 -0.025 0.040
0.287 -0.022 0.041
0.288 -0.020 0.041
0.291 -0.017 0.041
0.294 -0.015 0.041
0.294 -0.012 0.041
0.291 -0.009 0.041
0.290 -0.007 0.041
0.290 -0.004 0.041
0.289 -0.001 0.041
0.289 0.001 0.041
0.291 0.004 0.041
0.294 0.007 0.041
0.293 0.009 0.041
0.290 0.012 0.041
0.292 0.014 0.041
0.300 0.018 0.042
0.293 0.020 0.041
0.281 0.022 0.040
0.294 0.025 0.041
0.313 0.030 0.044
0.304 0.032 0.043
0.293 0.033 0.041
0.294 0.036 0.042
0.301 0.040 0.043
0.303 0.043 0.043
0.302 0.045 0.043
0.298 0.047 0.042
0.296 0.050 0.042
0.294 0.052 0.042
0.297 0.055 0.042
0.308 0.060 0.044
0.313 0.064 0.045
0.311 0.067 0.044
0.307 0.069 0.044
0.297 0.069 0.042
0.307 0.074 0.044
0.312 0.079 0.045
0.314 0.082 0.045
0.315 0.085 0.045
0.313 0.088 0.045
0.316 0.091 0.045
0.299 0.090 0.043
0.297 0.092 0.043
0.301 0.096 0.043
0.298 0.098 0.043
0.305 0.103 0.044
0.311 0.108 0.045
0.310 0.111 0.045
0.299 0.110 0.044
0.304 0.115 0.044
0.319 0.124 0.047
0.326 0.129 0.048
0.325 0.132 0.048
0.331 0.138 0.049
0.336 0.144 0.049
0.393 0.176 0.058
0.393 0.180 0.058
0.390 0.183 0.058
0.382 0.183 0.057
0.369 0.181 0.055
0.364 0.182 0.054
0.355 0.181 0.053
0.349 0.182 0.052
0.342 0.182 0.051
0.334 0.182 0.050
0.328 0.182 0.050
0.322 0.182 0.049
0.316 0.183 0.048
0.312 0.183 0.048
0.308 0.184 0.047
0.303 0.185 0.046
0.299 0.186 0.046
0.294 0.187 0.045
0.287 0.185 0.044
0.282 0.186 0.044
0.280 0.187 0.044
0.272 0.186 0.042
0.267 0.186 0.042
0.264 0.187 0.042
0.262 0.189 0.041
0.261 0.191 0.041
0.260 0.194 0.041
0.260 0.197 0.042
0.260 0.201 0.042
0.259 0.204 0.042
0.259 0.207 0.042
0.258 0.210 0.042
0.258 0.213 0.042
0.258 0.217 0.042
0.258 0.220 0.042
0.258 0.224 0.043
0.257 0.227 0.043
0.256 0.230 0.043
0.255 0.233 0.043
0.256 0.238 0.043
0.256 0.242 0.043
0.255 0.245 0.044
0.254 0.248 0.044
0.254 0.252 0.044
0.255 0.257 0.044
0.260 0.267 0.046
0.271 0.283 0.048
0.279 0.296 0.049
0.283 0.306 0.051
0.279 0.312 0.050
0.278 0.316 0.051
0.287 0.330 0.053
0.292 0.343 0.054
0.291 0.346 0.054
0.295 0.358 0.055
0.303 0.373 0.057
0.299 0.374 0.057
0.300 0.381 0.057
0.298 0.384 0.057
0.297 0.390 0.058
0.161 -0.223 0.033
0.174 -0.238 0.036
0.183 -0.247 0.037
0.191 -0.254 0.039
0.275 -0.357 0.055
0.276 -0.353 0.055
0.280 -0.353 0.055
0.282 -0.350 0.056
0.284 -0.348 0.056
0.284 -0.343 0.055
0.287 -0.341 0.055
0.286 -0.335 0.055
0.288 -0.333 0.055
0.288 -0.328 0.055
0.290 -0.325 0.055
0.290 -0.320 0.055
0.291 -0.316 0.054
0.289 -0.309 0.054
0.288 -0.304 0.053
0.291 -0.303 0.054
0.292 -0.298 0.053
0.291 -0.293 0.053
0.290 -0.288 0.053
0.289 -0.282 0.052
0.288 -0.276 0.052
0.288 -0.272 0.051
0.289 -0.269 0.051
0.287 -0.263 0.051
0.288 -0.260 0.051
0.287 -0.255 0.050
0.285 -0.249 0.050
0.285 -0.245 0.049
0.285 -0.241 0.049
0.281 -0.234 0.048
0.281 -0.231 0.048
0.285 -0.230 0.049
0.212 -0.163 0.036
0.206 -0.155 0.035
0.203 -0.151 0.034
0.204 -0.149 0.034
0.209 -0.150 0.035
0.211 -0.149 0.035
0.213 -0.148 0.035
0.209 -0.143 0.034
0.208 -0.139 0.034
0.209 -0.138 0.034
0.210 -0.136 0.034
0.208 -0.133 0.034
0.206 -0.129 0.033
0.204 -0.125 0.033
0.205 -0.123 0.033
0.208 -0.123 0.033
0.209 -0.122 0.034
0.207 -0.118 0.033
0.205 -0.115 0.033
0.211 -0.116 0.034
0.209 -0.112 0.033
0.213 -0.112 0.034
0.211 -0.109 0.033
0.208 -0.105 0.033
0.209 -0.104 0.033
0.212 -0.103 0.033
0.206 -0.098 0.032
0.205 -0.095 0.032
0.206 -0.094 0.032
0.219 -0.097 0.034
0.204 -0.088 0.032
0.217 -0.092 0.034
0.210 -0.087 0.033
0.213 -0.086 0.033
0.216 -0.085 0.033
0.214 -0.082 0.033
0.211 -0.079 0.033
0.211 -0.077 0.032
0.213 -0.076 0.033
0.215 -0.074 0.033
0.229 -0.077 0.035
0.240 -0.078 0.037
0.247 -0.078 0.038
0.245 -0.075 0.037
0.247 -0.074 0.038
0.256 -0.074 0.039
0.266 -0.074 0.041
0.403 -0.109 0.061
0.406 -0.106 0.062
0.400 -0.100 0.061
0.397 -0.096 0.060
0.391 -0.091 0.059
0.387 -0.086 0.059
0.381 -0.081 0.058
0.357 -0.073 0.054
0.363 -0.071 0.055
0.287 -0.048 0.043
0.287 -0.045 0.043
0.287 -0.043 0.043
0.287 -0.040 0.043
0.284 -0.037 0.043
0.282 -0.034 0.042
0.281 -0.032 0.042
0.281 -0.029 0.042
0.282 -0.027 0.042
0.283 -0.024 0.043
0.287 -0.022 0.043
0.290 -0.020 0.044
0.293 -0.017 0.044
0.296 -0.015 0.044
0.296 -0.012 0.044
0.292 -0.009 0.044
0.291 -0.007 0.044
0.293 -0.004 0.044
0.291 -0.001 0.044
0.290 0.001 0.044
0.294 0.004 0.044
0.295 0.007 0.044
0.292 0.009 0.044
0.278 0.011 0.042
0.280 0.014 0.042
0.292 0.017 0.044
0.287 0.019 0.043
0.286 0.022 0.043
0.297 0.025 0.045
0.327 0.031 0.049
0.312 0.032 0.047
0.294 0.033 0.044
0.291 0.036 0.044
0.300 0.039 0.045
0.302 0.042 0.045
0.300 0.045 0.045
0.297 0.047 0.045
0.300 0.050 0.045
0.294 0.052 0.044
0.291 0.054 0.044
0.292 0.057 0.044
0.315 0.065 0.048
0.306 0.066 0.046
0.303 0.068 0.046
0.305 0.071 0.046
0.304 0.074 0.046
0.309 0.078 0.047
0.308 0.081 0.047
0.304 0.082 0.046
0.305 0.086 0.047
0.292 0.085 0.045
0.283 0.085 0.043
0.286 0.088 0.044
0.298 0.095 0.046
0.306 0.100 0.047
0.305 0.103 0.047
0.307 0.107 0.047
0.309 0.111 0.048
0.302 0.111 0.047
0.306 0.116 0.047
0.316 0.122 0.049
0.319 0.127 0.050
0.324 0.132 0.051
0.338 0.141 0.053
0.339 0.145 0.053
0.387 0.173 0.061
0.392 0.180 0.062
0.388 0.182 0.061
0.373 0.179 0.059
0.369 0.181 0.059
0.365 0.183 0.058
0.357 0.182 0.057
0.349 0.182 0.056
0.342 0.182 0.055
0.331 0.180 0.053
0.327 0.181 0.053
0.323 0.183 0.052
0.317 0.183 0.051
0.312 0.184 0.051
0.307 0.184 0.050
0.303 0.185 0.049
0.297 0.185 0.049
0.293 0.186 0.048
0.286 0.185 0.047
0.281 0.185 0.046
0.279 0.187 0.046
0.272 0.186 0.045
0.265 0.185 0.044
0.263 0.186 0.044
0.262 0.188 0.044
0.260 0.191 0.044
0.260 0.194 0.044
0.261 0.198 0.044
0.260 0.201 0.044
0.260 0.204 0.045
0.259 0.207 0.045
0.258 0.210 0.045
0.257 0.213 0.045
0.258 0.217 0.045
0.257 0.220 0.045
0.257 0.224 0.045
0.257 0.227 0.046
0.256 0.230 0.046
0.256 0.234 0.046
0.256 0.238 0.046
0.255 0.242 0.046
0.255 0.245 0.046
0.254 0.248 0.047
0.254 0.252 0.047
0.255 0.258 0.047
0.263 0.271 0.049
0.274 0.286 0.051
0.276 0.293 0.052
0.274 0.296 0.052
0.267 0.293 0.051
0.268 0.300 0.052
0.274 0.311 0.053
0.282 0.325 0.055
0.286 0.336 0.056
0.291 0.347 0.057
0.295 0.358 0.059
0.299 0.368 0.060
0.301 0.376 0.061
0.294 0.374 0.060
0.293 0.379 0.060
0.289 0.379 0.059
0.142 -0.196 0.031
0.173 -0.237 0.038
0.181 -0.244 0.039
0.274 -0.355 0.058
0.277 -0.355 0.058
0.279 -0.352 0.058
0.281 -0.350 0.059
0.284 -0.348 0.059
0.287 -0.347 0.059
0.285 -0.340 0.059
0.288 -0.338 0.059
0.290 -0.335 0.059
0.292 -0.333 0.059
0.293 -0.329 0.059
0.293 -0.323 0.058
0.291 -0.316 0.058
0.290 -0.311 0.057
0.291 -0.307 0.057
0.291 -0.303 0.057
0.292 -0.299 0.057
0.291 -0.293 0.056
0.290 -0.287 0.056
0.288 -0.282 0.055
0.288 -0.277 0.055
0.289 -0.274 0.055
0.288 -0.268 0.054
0.287 -0.263 0.054
0.287 -0.259 0.054
0.286 -0.254 0.053
0.286 -0.250 0.053
0.285 -0.246 0.052
0.283 -0.240 0.052
0.283 -0.236 0.052
0.281 -0.231 0.051
0.279 -0.226 0.051
0.263 -0.209 0.047
0.267 -0.209 0.048
0.214 -0.164 0.038
0.213 -0.161 0.038
0.210 -0.156 0.037
0.207 -0.151 0.037
0.211 -0.152 0.037
0.213 -0.151 0.037
0.213 -0.148 0.037
0.212 -0.145 0.037
0.205 -0.138 0.036
0.205 -0.135 0.036
0.210 -0.136 0.036
0.209 -0.133 0.036
0.206 -0.129 0.035
0.206 -0.127 0.035
0.208 -0.126 0.036
0.211 -0.125 0.036
0.211 -0.122 0.036
0.208 -0.118 0.035
0.205 -0.115 0.035
0.209 -0.114 0.035
0.205 -0.110 0.035
0.209 -0.110 0.035
0.211 -0.109 0.035
0.211 -0.107 0.035
0.212 -0.105 0.035
0.207 -0.101 0.035
0.201 -0.096 0.034
0.204 -0.095 0.034
0.205 -0.093 0.034
0.207 -0.092 0.034
0.203 -0.088 0.034
0.212 -0.090 0.035
0.209 -0.086 0.034
0.212 -0.086 0.035
0.214 -0.084 0.035
0.213 -0.082 0.035
0.214 -0.080 0.035
0.208 -0.076 0.034
0.211 -0.075 0.034
0.216 -0.075 0.035
0.227 -0.076 0.037
0.237 -0.078 0.039
0.238 -0.075 0.039
0.239 -0.074 0.039
0.243 -0.072 0.039
0.255 -0.073 0.041
0.259 -0.072 0.042
0.369 -0.100 0.060
0.386 -0.100 0.062
0.393 -0.099 0.063
0.394 -0.095 0.063
0.397 -0.092 0.064
0.389 -0.087 0.062
0.381 -0.081 0.061
0.365 -0.075 0.058
0.352 -0.069 0.056
0.346 -0.064 0.055
0.285 -0.048 0.046
0.281 -0.045 0.045
0.284 -0.042 0.045
0.285 -0.040 0.046
0.285 -0.037 0.046
0.284 -0.035 0.045
0.283 -0.032 0.045
0.282 -0.029 0.045
0.281 -0.027 0.045
0.281 -0.024 0.045
0.283 -0.022 0.045
0.288 -0.020 0.046
0.293 -0.017 0.047
0.296 -0.015 0.047
0.295 -0.012 0.047
0.292 -0.009 0.047
0.294 -0.007 0.047
0.294 -0.004 0.047
0.293 -0.001 0.047
0.293 0.001 0.047
0.292 0.004 0.047
0.292 0.007 0.046
0.282 0.009 0.045
0.275 0.011 0.044
0.276 0.014 0.044
0.293 0.017 0.047
0.293 0.020 0.047
0.284 0.022 0.045
0.288 0.025 0.046
0.303 0.029 0.048
0.308 0.032 0.049
0.302 0.034 0.048
0.299 0.037 0.048
0.299 0.039 0.048
0.302 0.042 0.048
0.304 0.045 0.049
0.303 0.048 0.048
0.295 0.050 0.047
0.292 0.052 0.047
0.287 0.054 0.046
0.295 0.058 0.047
0.292 0.060 0.047
0.300 0.064 0.048
0.304 0.068 0.049
0.305 0.071 0.049
0.305 0.074 0.049
0.297 0.075 0.048
0.294 0.077 0.047
0.292 0.079 0.047
0.297 0.083 0.048
0.293 0.085 0.048
0.277 0.083 0.045
0.279 0.086 0.045
0.290 0.092 0.047
0.296 0.097 0.048
0.296 0.100 0.048
0.296 0.103 0.049
0.306 0.109 0.050
0.305 0.112 0.050
0.301 0.114 0.049
0.308 0.120 0.051
0.309 0.123 0.051
0.309 0.126 0.051
0.366 0.157 0.061
0.376 0.165 0.062
0.379 0.170 0.063
0.383 0.176 0.064
0.382 0.179 0.064
0.373 0.179 0.063
0.370 0.181 0.062
0.364 0.183 0.061
0.355 0.182 0.060
0.348 0.182 0.059
0.342 0.183 0.058
0.335 0.182 0.057
0.326 0.181 0.056
0.323 0.183 0.055
0.317 0.183 0.054
0.311 0.183 0.053
0.306 0.184 0.053
0.300 0.183 0.052
0.295 0.184 0.051
0.292 0.185 0.051
0.288 0.187 0.050
0.282 0.186 0.050
0.276 0.186 0.049
0.271 0.185 0.048
0.266 0.185 0.047
0.263 0.186 0.047
0.261 0.188 0.047
0.261 0.191 0.047
0.261 0.195 0.047
0.260 0.198 0.047
0.260 0.201 0.047
0.260 0.205 0.047
0.260 0.208 0.047
0.258 0.210 0.047
0.257 0.213 0.047
0.258 0.217 0.048
0.258 0.221 0.048
0.257 0.224 0.048
0.257 0.227 0.048
0.256 0.231 0.048
0.257 0.235 0.049
0.256 0.238 0.049
0.255 0.242 0.049
0.255 0.245 0.049
0.254 0.249 0.049
0.254 0.253 0.050
0.256 0.259 0.050
0.275 0.283 0.054
0.278 0.291 0.055
0.278 0.296 0.056
0.271 0.293 0.055
0.273 0.301 0.055
0.282 0.325 0.058
0.286 0.336 0.060
0.291 0.348 0.061
0.297 0.360 0.063
0.297 0.367 0.063
0.295 0.370 0.063
0.293 0.373 0.063
0.289 0.374 0.063
0.286 0.376 0.062
0.121 -0.168 0.028
0.123 -0.168 0.028
0.124 -0.168 0.028
0.278 -0.351 0.062
0.280 -0.349 0.062
0.283 -0.347 0.062
0.282 -0.342 0.062
0.286 -0.341 0.062
0.288 -0.338 0.062
0.290 -0.336 0.062
0.292 -0.333 0.062
0.294 -0.330 0.062
0.292 -0.323 0.062
0.290 -0.316 0.061
0.291 -0.312 0.061
0.291 -0.308 0.060
0.292 -0.304 0.060
0.292 -0.300 0.060
0.291 -0.293 0.059
0.290 -0.288 0.059
0.290 -0.283 0.058
0.290 -0.279 0.058
0.290 -0.275 0.058
0.288 -0.269 0.057
0.287 -0.264 0.057
0.286 -0.258 0.056
0.286 -0.254 0.056
0.286 -0.251 0.056
0.284 -0.245 0.055
0.284 -0.241 0.055
0.283 -0.237 0.055
0.281 -0.231 0.054
0.276 -0.224 0.053
0.271 -0.216 0.052
0.262 -0.205 0.050
0.208 -0.160 0.039
0.207 -0.157 0.039
0.210 -0.157 0.039
0.208 -0.152 0.039
0.206 -0.148 0.038
0.209 -0.148 0.039
0.212 -0.147 0.039
0.209 -0.143 0.039
0.204 -0.137 0.038
0.207 -0.137 0.038
0.211 -0.137 0.039
0.211 -0.135 0.039
0.209 -0.131 0.038
0.207 -0.127 0.038
0.209 -0.126 0.038
0.209 -0.124 0.038
0.210 -0.122 0.038
0.209 -0.119 0.037
0.208 -0.117 0.037
0.201 -0.110 0.036
0.205 -0.110 0.037
0.202 -0.107 0.036
0.209 -0.108 0.037
0.210 -0.106 0.037
0.207 -0.103 0.037
0.206 -0.100 0.036
0.206 -0.098 0.036
0.200 -0.093 0.035
0.203 -0.093 0.036
0.204 -0.091 0.036
0.214 -0.093 0.037
0.198 -0.084 0.035
0.211 -0.088 0.037
0.205 -0.083 0.036
0.216 -0.085 0.037
0.217 -0.084 0.038
0.201 -0.076 0.035
0.203 -0.074 0.035
0.214 -0.076 0.037
0.219 -0.076 0.038
0.222 -0.075 0.038
0.230 -0.075 0.039
0.239 -0.076 0.041
0.242 -0.074 0.041
0.246 -0.073 0.042
0.250 -0.072 0.043
0.258 -0.072 0.044
0.365 -0.099 0.062
0.379 -0.099 0.065
0.388 -0.098 0.066
0.394 -0.095 0.067
0.396 -0.092 0.067
0.390 -0.087 0.066
0.381 -0.082 0.065
0.372 -0.076 0.063
0.349 -0.068 0.059
0.335 -0.062 0.057
0.286 -0.048 0.048
0.282 -0.045 0.048
0.283 -0.042 0.048
0.282 -0.040 0.048
0.283 -0.037 0.048
0.285 -0.035 0.048
0.285 -0.032 0.048
0.282 -0.029 0.048
0.282 -0.027 0.047
0.283 -0.024 0.048
0.280 -0.022 0.047
0.284 -0.019 0.048
0.290 -0.017 0.049
0.293 -0.015 0.049
0.291 -0.012 0.049
0.294 -0.009 0.050
0.295 -0.007 0.050
0.294 -0.004 0.050
0.292 -0.001 0.049
0.290 0.001 0.049
0.292 0.004 0.049
0.290 0.006 0.049
0.289 0.009 0.049
0.282 0.011 0.047
0.283 0.014 0.048
0.291 0.017 0.049
0.293 0.020 0.049
0.290 0.022 0.049
0.290 0.025 0.049
0.290 0.028 0.049
0.300 0.031 0.051
0.306 0.035 0.052
0.302 0.037 0.051
0.301 0.040 0.051
0.303 0.043 0.051
0.301 0.045 0.051
0.300 0.048 0.051
0.301 0.051 0.051
0.296 0.052 0.050
0.299 0.056 0.051
0.295 0.058 0.050
0.296 0.061 0.050
0.294 0.063 0.050
0.301 0.067 0.051
0.307 0.072 0.052
0.303 0.074 0.052
0.295 0.074 0.050
0.291 0.076 0.050
0.296 0.080 0.051
0.306 0.086 0.053
0.309 0.090 0.053
0.292 0.087 0.050
0.276 0.085 0.047
0.276 0.088 0.048
0.272 0.089 0.047
0.277 0.094 0.048
0.280 0.097 0.048
0.295 0.106 0.051
0.299 0.110 0.052
0.292 0.110 0.051
0.288 0.112 0.050
0.358 0.150 0.063
0.366 0.157 0.064
0.371 0.163 0.065
0.373 0.167 0.066
0.373 0.171 0.066
0.372 0.175 0.066
0.371 0.178 0.066
0.364 0.179 0.065
0.362 0.181 0.064
0.351 0.180 0.063
0.345 0.181 0.062
0.342 0.183 0.061
0.330 0.180 0.059
0.327 0.182 0.059
0.323 0.183 0.058
0.317 0.183 0.057
0.313 0.184 0.057
0.305 0.183 0.056
0.300 0.184 0.055
0.295 0.184 0.054
0.291 0.185 0.054
0.288 0.186 0.053
0.282 0.186 0.052
0.276 0.185 0.051
0.271 0.185 0.051
0.266 0.185 0.050
0.263 0.186 0.049
0.261 0.189 0.049
0.262 0.192 0.050
0.261 0.195 0.050
0.260 0.198 0.050
0.260 0.201 0.050
0.260 0.205 0.050
0.260 0.208 0.050
0.259 0.211 0.050
0.259 0.214 0.050
0.259 0.218 0.051
0.258 0.221 0.051
0.257 0.224 0.051
0.256 0.227 0.051
0.257 0.232 0.051
0.256 0.235 0.052
0.256 0.239 0.052
0.255 0.242 0.052
0.255 0.246 0.052
0.254 0.249 0.052
0.254 0.253 0.052
0.255 0.258 0.053
0.276 0.284 0.058
0.276 0.290 0.058
0.275 0.293 0.058
0.268 0.291 0.057
0.251 0.276 0.054
0.250 0.280 0.054
0.257 0.293 0.056
0.287 0.337 0.063
0.287 0.343 0.064
0.295 0.359 0.066
0.294 0.363 0.066
0.291 0.365 0.066
0.289 0.369 0.066
0.288 0.373 0.066
0.284 0.373 0.066
0.106 -0.147 0.026
0.115 -0.157 0.028
0.117 -0.159 0.028
0.280 -0.339 0.064
0.285 -0.340 0.065
0.288 -0.338 0.065
0.285 -0.331 0.064
0.287 -0.328 0.065
0.292 -0.329 0.065
0.292 -0.323 0.065
0.290 -0.317 0.064
0.290 -0.311 0.064
0.291 -0.308 0.064
0.292 -0.305 0.064
0.294 -0.301 0.063
0.294 -0.297 0.063
0.290 -0.288 0.062
0.291 -0.285 0.062
0.291 -0.281 0.062
0.292 -0.277 0.062
0.292 -0.272 0.061
0.290 -0.267 0.061
0.286 -0.259 0.059
0.286 -0.255 0.059
0.286 -0.250 0.059
0.286 -0.247 0.059
0.286 -0.243 0.058
0.283 -0.236 0.057
0.283 -0.233 0.057
0.281 -0.227 0.057
0.271 -0.216 0.054
0.209 -0.161 0.042
0.209 -0.158 0.041
0.209 -0.156 0.041
0.208 -0.152 0.041
0.203 -0.146 0.040
0.204 -0.145 0.040
0.208 -0.145 0.041
0.211 -0.144 0.041
0.210 -0.142 0.041
0.210 -0.139 0.041
0.214 -0.139 0.041
0.220 -0.140 0.042
0.210 -0.132 0.040
0.208 -0.128 0.040
0.207 -0.125 0.040
0.206 -0.122 0.039
0.208 -0.121 0.039
0.211 -0.120 0.040
0.210 -0.118 0.040
0.210 -0.115 0.040
0.201 -0.108 0.038
0.208 -0.110 0.039
0.207 -0.107 0.039
0.206 -0.104 0.038
0.206 -0.102 0.038
0.209 -0.102 0.039
0.211 -0.100 0.039
0.206 -0.096 0.038
0.210 -0.095 0.039
0.213 -0.095 0.039
0.214 -0.093 0.039
0.215 -0.091 0.039
0.206 -0.086 0.038
0.214 -0.087 0.039
0.217 -0.086 0.040
0.219 -0.084 0.040
0.222 -0.083 0.040
0.220 -0.081 0.040
0.220 -0.078 0.040
0.220 -0.076 0.040
0.224 -0.075 0.041
0.227 -0.074 0.041
0.239 -0.076 0.043
0.245 -0.076 0.044
0.247 -0.074 0.045
0.253 -0.073 0.046
0.260 -0.073 0.047
0.365 -0.099 0.066
0.380 -0.099 0.068
0.386 -0.097 0.069
0.386 -0.094 0.069
0.391 -0.091 0.070
0.382 -0.085 0.068
0.378 -0.081 0.068
0.380 -0.078 0.068
0.338 -0.066 0.060
0.328 -0.061 0.059
0.312 -0.055 0.056
0.289 -0.049 0.052
0.282 -0.045 0.050
0.282 -0.042 0.050
0.281 -0.039 0.050
0.283 -0.037 0.050
0.284 -0.035 0.051
0.286 -0.032 0.051
0.284 -0.030 0.050
0.283 -0.027 0.050
0.282 -0.024 0.050
0.284 -0.022 0.050
0.286 -0.019 0.051
0.293 -0.017 0.052
0.292 -0.015 0.052
0.292 -0.012 0.052
0.297 -0.009 0.053
0.296 -0.007 0.053
0.289 -0.004 0.051
0.287 -0.001 0.051
0.290 0.001 0.051
0.290 0.004 0.051
0.293 0.007 0.052
0.293 0.009 0.052
0.292 0.012 0.052
0.290 0.014 0.052
0.290 0.017 0.052
0.294 0.020 0.052
0.293 0.023 0.052
0.292 0.025 0.052
0.288 0.027 0.051
0.293 0.031 0.052
0.305 0.035 0.054
0.303 0.037 0.054
0.300 0.039 0.054
0.300 0.042 0.053
0.300 0.045 0.053
0.301 0.048 0.054
0.300 0.050 0.054
0.298 0.053 0.053
0.298 0.056 0.053
0.305 0.060 0.055
0.301 0.062 0.054
0.299 0.064 0.054
0.300 0.067 0.054
0.307 0.072 0.055
0.296 0.075 0.053
0.293 0.077 0.053
0.302 0.082 0.055
0.310 0.087 0.056
0.311 0.090 0.056
0.294 0.088 0.053
0.285 0.088 0.052
0.280 0.089 0.051
0.281 0.092 0.051
0.272 0.092 0.050
0.266 0.093 0.049
0.275 0.099 0.050
0.290 0.107 0.053
0.283 0.107 0.052
0.291 0.113 0.053
0.336 0.137 0.062
0.345 0.144 0.064
0.356 0.153 0.066
0.357 0.157 0.066
0.358 0.161 0.067
0.365 0.168 0.068
0.367 0.173 0.069
0.362 0.174 0.068
0.357 0.175 0.067
0.348 0.175 0.065
0.343 0.176 0.065
0.341 0.179 0.064
0.337 0.180 0.064
0.330 0.180 0.063
0.326 0.182 0.062
0.322 0.183 0.062
0.318 0.184 0.061
0.309 0.182 0.059
0.305 0.183 0.059
0.300 0.184 0.058
0.294 0.184 0.057
0.291 0.185 0.057
0.285 0.185 0.056
0.281 0.186 0.055
0.275 0.185 0.054
0.270 0.185 0.053
0.266 0.186 0.053
0.263 0.187 0.052
0.261 0.189 0.052
0.261 0.192 0.052
0.260 0.195 0.052
0.260 0.198 0.052
0.260 0.202 0.053
0.261 0.206 0.053
0.260 0.209 0.053
0.259 0.211 0.053
0.258 0.214 0.053
0.258 0.218 0.053
0.257 0.221 0.053
0.257 0.224 0.054
0.256 0.228 0.054
0.257 0.232 0.054
0.256 0.235 0.054
0.255 0.238 0.054
0.255 0.242 0.055
0.255 0.246 0.055
0.254 0.249 0.055
0.253 0.252 0.055
0.261 0.264 0.057
0.268 0.277 0.059
0.269 0.282 0.060
0.258 0.276 0.058
0.252 0.273 0.057
0.248 0.273 0.056
0.248 0.278 0.056
0.263 0.299 0.060
0.268 0.311 0.062
0.282 0.333 0.066
0.281 0.336 0.066
0.284 0.345 0.067
0.288 0.356 0.068
0.286 0.359 0.068
0.284 0.362 0.068
0.284 0.368 0.069
0.280 0.368 0.068
0.105 -0.145 0.027
0.105 -0.145 0.027
0.106 -0.143 0.027
0.105 -0.141 0.026
0.106 -0.140 0.026
0.108 -0.141 0.027
0.117 -0.150 0.029
0.283 -0.328 0.067
0.287 -0.328 0.068
0.290 -0.326 0.068
0.291 -0.322 0.068
0.291 -0.318 0.068
0.290 -0.312 0.067
0.291 -0.308 0.067
0.293 -0.306 0.067
0.294 -0.302 0.067
0.291 -0.295 0.066
0.291 -0.289 0.065
0.291 -0.285 0.065
0.292 -0.282 0.065
0.292 -0.277 0.065
0.291 -0.272 0.064
0.291 -0.268 0.064
0.289 -0.262 0.063
0.288 -0.257 0.063
0.286 -0.251 0.062
0.286 -0.247 0.062
0.287 -0.244 0.062
0.287 -0.240 0.061
0.283 -0.233 0.060
0.283 -0.229 0.060
0.220 -0.170 0.046
0.210 -0.160 0.044
0.208 -0.155 0.043
0.205 -0.150 0.043
0.202 -0.146 0.042
0.203 -0.144 0.042
0.205 -0.143 0.042
0.209 -0.143 0.043
0.206 -0.139 0.042
0.207 -0.137 0.042
0.216 -0.140 0.044
0.214 -0.137 0.043
0.213 -0.133 0.043
0.209 -0.129 0.042
0.205 -0.124 0.041
0.201 -0.119 0.040
0.203 -0.118 0.041
0.207 -0.118 0.041
0.209 -0.117 0.042
0.205 -0.113 0.041
0.201 -0.108 0.040
0.203 -0.107 0.040
0.204 -0.106 0.040
0.205 -0.104 0.040
0.206 -0.102 0.040
0.210 -0.102 0.041
0.211 -0.100 0.041
0.205 -0.096 0.040
0.208 -0.095 0.041
0.212 -0.094 0.041
0.205 -0.089 0.040
0.211 -0.090 0.041
0.198 -0.082 0.038
0.214 -0.087 0.041
0.214 -0.085 0.041
0.217 -0.084 0.042
0.223 -0.084 0.043
0.227 -0.083 0.043
0.222 -0.079 0.043
0.222 -0.077 0.042
0.222 -0.075 0.042
0.227 -0.074 0.043
0.230 -0.073 0.044
0.239 -0.074 0.045
0.247 -0.074 0.047
0.254 -0.073 0.048
0.264 -0.074 0.050
0.370 -0.100 0.070
0.375 -0.098 0.071
0.383 -0.096 0.072
0.380 -0.092 0.072
0.379 -0.088 0.071
0.373 -0.083 0.070
0.367 -0.079 0.069
0.361 -0.074 0.068
0.321 -0.060 0.060
0.315 -0.056 0.059
0.288 -0.048 0.054
0.281 -0.045 0.053
0.280 -0.042 0.052
0.279 -0.039 0.052
0.279 -0.037 0.052
0.282 -0.035 0.053
0.284 -0.032 0.053
0.282 -0.029 0.053
0.280 -0.027 0.052
0.281 -0.024 0.053
0.284 -0.022 0.053
0.290 -0.020 0.054
0.292 -0.017 0.055
0.293 -0.015 0.055
0.294 -0.012 0.055
0.296 -0.009 0.055
0.295 -0.007 0.055
0.286 -0.004 0.053
0.284 -0.001 0.053
0.289 0.001 0.054
0.296 0.004 0.055
0.297 0.007 0.055
0.298 0.009 0.056
0.294 0.012 0.055
0.294 0.015 0.055
0.292 0.017 0.055
0.297 0.020 0.056
0.294 0.023 0.055
0.291 0.025 0.054
0.290 0.028 0.054
0.293 0.031 0.055
0.297 0.034 0.056
0.297 0.036 0.056
0.298 0.039 0.056
0.300 0.042 0.056
0.299 0.045 0.056
0.299 0.048 0.056
0.299 0.050 0.056
0.296 0.053 0.056
0.297 0.056 0.056
0.302 0.059 0.057
0.302 0.062 0.057
0.296 0.064 0.056
0.299 0.067 0.056
0.302 0.071 0.057
0.299 0.073 0.057
0.294 0.074 0.056
0.296 0.078 0.056
0.300 0.081 0.057
0.301 0.085 0.057
0.298 0.086 0.057
0.303 0.091 0.058
0.296 0.092 0.056
0.296 0.095 0.057
0.290 0.095 0.055
0.280 0.095 0.054
0.274 0.096 0.053
0.267 0.096 0.051
0.275 0.101 0.053
0.278 0.105 0.054
0.287 0.112 0.055
0.306 0.122 0.059
0.317 0.129 0.061
0.340 0.142 0.066
0.339 0.146 0.066
0.343 0.151 0.067
0.345 0.155 0.067
0.352 0.162 0.069
0.360 0.170 0.071
0.358 0.172 0.070
0.345 0.170 0.068
0.339 0.170 0.067
0.337 0.173 0.067
0.335 0.175 0.066
0.332 0.178 0.066
0.329 0.179 0.066
0.325 0.181 0.065
0.320 0.182 0.064
0.313 0.181 0.063
0.308 0.182 0.062
0.303 0.183 0.061
0.295 0.181 0.060
0.291 0.182 0.059
0.288 0.183 0.059
0.283 0.184 0.058
0.280 0.185 0.058
0.275 0.185 0.057
0.270 0.185 0.056
0.266 0.185 0.055
0.263 0.187 0.055
0.261 0.189 0.055
0.260 0.192 0.055
0.260 0.195 0.055
0.260 0.199 0.055
0.261 0.202 0.055
0.260 0.205 0.056
0.259 0.208 0.056
0.258 0.211 0.056
0.257 0.214 0.056
0.257 0.217 0.056
0.257 0.221 0.056
0.257 0.224 0.056
0.257 0.228 0.057
0.257 0.232 0.057
0.255 0.235 0.057
0.255 0.238 0.057
0.255 0.242 0.057
0.254 0.246 0.058
0.253 0.249 0.058
0.253 0.252 0.058
0.255 0.259 0.059
0.258 0.266 0.060
0.254 0.267 0.059
0.253 0.271 0.059
0.252 0.273 0.059
0.252 0.278 0.060
0.259 0.291 0.062
0.265 0.303 0.064
0.275 0.319 0.067
0.277 0.327 0.068
0.278 0.333 0.068
0.281 0.343 0.070
0.281 0.348 0.070
0.276 0.347 0.069
0.273 0.349 0.069
0.228 0.300 0.058
0.104 -0.145 0.028
0.106 -0.145 0.028
0.106 -0.143 0.028
0.105 -0.141 0.028
0.106 -0.140 0.028
0.107 -0.140 0.028
0.106 -0.136 0.028
0.106 -0.135 0.027
0.112 -0.140 0.029
0.114 -0.141 0.029
0.132 -0.158 0.033
0.140 -0.165 0.035
0.289 -0.325 0.071
0.290 -0.321 0.071
0.290 -0.317 0.071
0.290 -0.313 0.070
0.291 -0.309 0.070
0.293 -0.306 0.070
0.295 -0.303 0.070
0.290 -0.294 0.069
0.291 -0.290 0.069
0.291 -0.285 0.068
0.290 -0.280 0.068
0.290 -0.276 0.068
0.291 -0.272 0.067
0.290 -0.268 0.067
0.290 -0.263 0.067
0.289 -0.258 0.066
0.287 -0.252 0.065
0.286 -0.247 0.065
0.287 -0.244 0.065
0.287 -0.241 0.064
0.284 -0.234 0.063
0.282 -0.229 0.063
0.208 -0.158 0.046
0.200 -0.149 0.044
0.202 -0.148 0.044
0.201 -0.146 0.044
0.206 -0.146 0.045
0.203 -0.142 0.044
0.203 -0.140 0.044
0.205 -0.139 0.044
0.204 -0.135 0.044
0.206 -0.134 0.044
0.215 -0.137 0.046
0.220 -0.138 0.047
0.215 -0.132 0.045
0.208 -0.126 0.044
0.204 -0.121 0.043
0.201 -0.117 0.042
0.203 -0.116 0.042
0.206 -0.115 0.043
0.205 -0.113 0.043
0.205 -0.111 0.043
0.203 -0.107 0.042
0.205 -0.106 0.042
0.205 -0.104 0.042
0.208 -0.103 0.043
0.208 -0.101 0.043
0.209 -0.100 0.043
0.207 -0.097 0.042
0.200 -0.091 0.041
0.208 -0.093 0.042
0.212 -0.092 0.043
0.197 -0.084 0.040
0.212 -0.088 0.043
0.198 -0.080 0.040
0.214 -0.085 0.043
0.210 -0.081 0.042
0.207 -0.078 0.042
0.224 -0.080 0.045
0.220 -0.076 0.044
0.222 -0.075 0.045
0.225 -0.074 0.045
0.233 -0.074 0.046
0.239 -0.074 0.048
0.243 -0.073 0.048
0.253 -0.073 0.050
0.262 -0.073 0.052
0.356 -0.096 0.071
0.374 -0.098 0.074
0.368 -0.093 0.073
0.370 -0.090 0.073
0.375 -0.087 0.074
0.365 -0.082 0.072
0.357 -0.077 0.071
0.351 -0.072 0.069
0.343 -0.067 0.068
0.331 -0.062 0.065
0.317 -0.056 0.062
0.292 -0.049 0.057
0.281 -0.045 0.055
0.278 -0.042 0.055
0.275 -0.039 0.054
0.276 -0.036 0.054
0.281 -0.035 0.055
0.284 -0.032 0.056
0.281 -0.029 0.055
0.281 -0.027 0.055
0.280 -0.024 0.055
0.285 -0.022 0.056
0.285 -0.019 0.056
0.288 -0.017 0.056
0.293 -0.015 0.057
0.295 -0.012 0.058
0.295 -0.009 0.058
0.294 -0.007 0.058
0.289 -0.004 0.057
0.286 -0.001 0.056
0.289 0.001 0.057
0.295 0.004 0.058
0.297 0.007 0.058
0.295 0.009 0.058
0.289 0.012 0.057
0.286 0.014 0.056
0.294 0.017 0.058
0.293 0.020 0.057
0.290 0.022 0.057
0.290 0.025 0.057
0.287 0.027 0.056
0.292 0.030 0.057
0.290 0.033 0.057
0.295 0.036 0.058
0.302 0.040 0.059
0.301 0.042 0.059
0.297 0.045 0.058
0.296 0.047 0.058
0.296 0.050 0.058
0.297 0.053 0.059
0.293 0.055 0.058
0.290 0.057 0.057
0.297 0.061 0.059
0.297 0.064 0.059
0.294 0.066 0.058
0.297 0.069 0.059
0.293 0.071 0.058
0.288 0.073 0.057
0.293 0.077 0.058
0.293 0.080 0.058
0.289 0.081 0.058
0.295 0.086 0.059
0.295 0.089 0.059
0.295 0.091 0.059
0.281 0.090 0.056
0.282 0.093 0.057
0.283 0.096 0.057
0.285 0.100 0.057
0.278 0.100 0.056
0.263 0.097 0.053
0.255 0.097 0.052
0.312 0.128 0.063
0.323 0.136 0.066
0.328 0.141 0.067
0.324 0.143 0.066
0.328 0.148 0.067
0.321 0.148 0.066
0.346 0.166 0.071
0.339 0.167 0.070
0.330 0.166 0.068
0.331 0.170 0.069
0.330 0.173 0.069
0.326 0.175 0.068
0.324 0.177 0.068
0.322 0.179 0.068
0.316 0.180 0.067
0.311 0.181 0.066
0.307 0.182 0.065
0.299 0.180 0.064
0.295 0.181 0.063
0.289 0.181 0.062
0.285 0.182 0.061
0.282 0.183 0.061
0.279 0.185 0.060
0.276 0.186 0.060
0.269 0.185 0.059
0.265 0.185 0.058
0.263 0.187 0.057
