VERSION .7
FIELDS x y z
SIZE 4 4 4
TYPE F F F
COUNT 1 1 1
WIDTH     2586
HEIGHT 1
VIEWPOINT 0 0 0 1 0 0 0
POINTS     2586
DATA ascii
0.351 0.162 0.069
0.356 0.168 0.070
0.352 0.169 0.069
0.347 0.171 0.068
0.344 0.173 0.068
0.342 0.175 0.068
0.339 0.178 0.067
0.336 0.180 0.067
0.332 0.182 0.066
0.327 0.182 0.065
0.322 0.183 0.065
0.315 0.183 0.063
0.310 0.183 0.063
0.306 0.184 0.062
0.301 0.185 0.061
0.297 0.186 0.060
0.291 0.185 0.059
0.286 0.186 0.059
0.283 0.187 0.058
0.275 0.185 0.057
0.270 0.185 0.056
0.265 0.185 0.055
0.263 0.187 0.055
0.262 0.190 0.055
0.261 0.192 0.055
0.260 0.195 0.055
0.261 0.199 0.055
0.261 0.203 0.056
0.261 0.206 0.056
0.260 0.209 0.056
0.259 0.211 0.056
0.258 0.214 0.056
0.258 0.218 0.056
0.257 0.221 0.056
0.257 0.224 0.056
0.256 0.228 0.057
0.256 0.232 0.057
0.255 0.234 0.057
0.254 0.238 0.057
0.254 0.242 0.057
0.255 0.246 0.058
0.254 0.249 0.058
0.253 0.253 0.058
0.255 0.259 0.059
0.266 0.275 0.062
0.260 0.273 0.061
0.259 0.277 0.061
0.262 0.284 0.062
0.267 0.295 0.064
0.267 0.300 0.064
0.269 0.307 0.065
0.273 0.317 0.066
0.283 0.334 0.069
0.283 0.339 0.070
0.271 0.330 0.067
0.283 0.351 0.071
0.282 0.355 0.071
0.279 0.357 0.071
0.243 0.321 0.062
0.103 -0.143 0.027
0.106 -0.145 0.028
0.107 -0.145 0.028
0.107 -0.143 0.028
0.107 -0.142 0.028
0.107 -0.139 0.028
0.106 -0.136 0.027
0.106 -0.135 0.027
0.110 -0.137 0.028
0.118 -0.145 0.030
0.128 -0.155 0.032
0.134 -0.161 0.034
0.288 -0.324 0.071
0.290 -0.321 0.071
0.291 -0.318 0.071
0.293 -0.315 0.071
0.293 -0.311 0.071
0.293 -0.306 0.070
0.293 -0.302 0.070
0.293 -0.296 0.069
0.292 -0.291 0.069
0.290 -0.285 0.068
0.290 -0.280 0.068
0.291 -0.276 0.068
0.291 -0.273 0.067
0.292 -0.269 0.067
0.291 -0.264 0.067
0.291 -0.259 0.066
0.288 -0.253 0.065
0.286 -0.248 0.065
0.287 -0.244 0.065
0.287 -0.240 0.064
0.285 -0.235 0.064
0.284 -0.230 0.063
0.279 -0.223 0.062
0.270 -0.212 0.060
0.216 -0.167 0.048
0.209 -0.159 0.046
0.212 -0.158 0.046
0.216 -0.159 0.047
0.209 -0.151 0.045
0.206 -0.146 0.045
0.205 -0.143 0.044
0.206 -0.142 0.044
0.205 -0.138 0.044
0.207 -0.137 0.044
0.217 -0.141 0.046
0.221 -0.141 0.047
0.222 -0.139 0.047
0.218 -0.135 0.046
0.216 -0.131 0.045
0.213 -0.126 0.045
0.208 -0.121 0.044
0.207 -0.119 0.043
0.204 -0.114 0.042
0.206 -0.114 0.043
0.207 -0.112 0.043
0.206 -0.109 0.043
0.209 -0.108 0.043
0.206 -0.104 0.042
0.212 -0.105 0.044
0.211 -0.103 0.043
0.210 -0.100 0.043
0.207 -0.097 0.042
0.202 -0.092 0.041
0.206 -0.092 0.042
0.214 -0.093 0.044
0.199 -0.081 0.040
0.214 -0.085 0.043
0.212 -0.082 0.043
0.206 -0.078 0.042
0.231 -0.082 0.046
0.228 -0.079 0.046
0.225 -0.076 0.045
0.225 -0.074 0.045
0.238 -0.076 0.047
0.245 -0.076 0.049
0.246 -0.073 0.049
0.248 -0.072 0.049
0.362 -0.098 0.072
0.371 -0.097 0.074
0.382 -0.096 0.076
0.383 -0.093 0.076
0.385 -0.090 0.076
0.375 -0.084 0.074
0.369 -0.079 0.073
0.370 -0.076 0.073
0.365 -0.071 0.072
0.283 -0.048 0.056
0.280 -0.045 0.055
0.282 -0.042 0.055
0.283 -0.040 0.056
0.285 -0.038 0.056
0.286 -0.035 0.056
0.287 -0.033 0.056
0.285 -0.030 0.056
0.286 -0.027 0.056
0.289 -0.025 0.057
0.295 -0.023 0.058
0.296 -0.020 0.058
0.296 -0.017 0.058
0.287 -0.014 0.056
0.287 -0.012 0.056
0.287 -0.009 0.056
0.289 -0.007 0.057
0.293 -0.004 0.057
0.298 -0.001 0.058
0.298 0.001 0.058
0.303 0.004 0.059
0.302 0.007 0.059
0.304 0.010 0.060
0.301 0.012 0.059
0.300 0.015 0.059
0.300 0.018 0.059
0.303 0.021 0.059
0.299 0.023 0.059
0.294 0.025 0.058
0.295 0.028 0.058
0.297 0.031 0.058
0.301 0.034 0.059
0.304 0.037 0.060
0.305 0.040 0.060
0.305 0.043 0.060
0.306 0.046 0.060
0.302 0.048 0.060
0.304 0.051 0.060
0.301 0.053 0.059
0.308 0.058 0.061
0.304 0.060 0.060
0.299 0.061 0.059
0.293 0.063 0.058
0.315 0.071 0.062
0.321 0.075 0.064
0.317 0.077 0.063
0.301 0.076 0.060
0.293 0.077 0.058
0.309 0.084 0.062
0.309 0.087 0.062
0.297 0.086 0.059
0.303 0.091 0.061
0.301 0.093 0.060
0.296 0.095 0.059
0.286 0.094 0.057
0.287 0.097 0.058
0.290 0.101 0.058
0.283 0.102 0.057
0.277 0.102 0.056
0.263 0.100 0.053
0.268 0.104 0.054
0.335 0.137 0.068
0.339 0.142 0.069
0.333 0.143 0.068
0.327 0.144 0.067
0.323 0.146 0.066
0.319 0.147 0.066
0.338 0.163 0.070
0.345 0.170 0.071
0.341 0.172 0.071
0.337 0.173 0.070
0.332 0.174 0.069
0.332 0.178 0.069
0.328 0.179 0.069
0.323 0.180 0.068
0.318 0.181 0.067
0.314 0.182 0.066
0.310 0.183 0.066
0.303 0.183 0.064
0.298 0.183 0.063
0.293 0.184 0.063
0.289 0.184 0.062
0.286 0.186 0.061
0.282 0.186 0.061
0.274 0.185 0.059
0.269 0.185 0.059
0.265 0.185 0.058
0.263 0.187 0.057
0.262 0.190 0.058
0.261 0.192 0.057
0.259 0.195 0.057
0.259 0.198 0.058
0.259 0.201 0.058
0.258 0.204 0.058
0.259 0.208 0.058
0.258 0.211 0.058
0.258 0.214 0.059
0.257 0.217 0.059
0.257 0.221 0.059
0.257 0.225 0.059
0.257 0.228 0.059
0.256 0.231 0.059
0.254 0.234 0.059
0.255 0.239 0.060
0.255 0.243 0.060
0.255 0.246 0.060
0.254 0.250 0.061
0.252 0.252 0.061
0.252 0.256 0.061
0.252 0.261 0.061
0.256 0.269 0.063
0.257 0.275 0.063
0.258 0.281 0.064
0.265 0.294 0.066
0.270 0.304 0.068
0.265 0.302 0.067
0.265 0.308 0.068
0.275 0.325 0.071
0.273 0.327 0.070
0.267 0.326 0.069
0.210 0.269 0.056
0.199 0.259 0.053
0.194 0.255 0.052
0.119 -0.166 0.033
0.114 -0.157 0.032
0.114 -0.155 0.032
0.115 -0.154 0.032
0.115 -0.152 0.032
0.116 -0.151 0.032
0.115 -0.148 0.031
0.112 -0.142 0.030
0.114 -0.142 0.031
0.117 -0.145 0.031
0.119 -0.145 0.032
0.128 -0.153 0.034
0.134 -0.158 0.035
0.290 -0.318 0.074
0.291 -0.314 0.074
0.293 -0.311 0.074
0.293 -0.306 0.074
0.293 -0.302 0.073
0.295 -0.299 0.073
0.293 -0.292 0.072
0.293 -0.287 0.072
0.291 -0.281 0.071
0.291 -0.277 0.071
0.292 -0.273 0.071
0.292 -0.269 0.070
0.292 -0.265 0.070
0.291 -0.260 0.070
0.287 -0.252 0.068
0.287 -0.248 0.068
0.286 -0.244 0.068
0.286 -0.240 0.067
0.286 -0.236 0.067
0.286 -0.232 0.067
0.277 -0.221 0.064
0.223 -0.172 0.051
0.215 -0.163 0.049
0.212 -0.158 0.049
0.218 -0.160 0.050
0.211 -0.153 0.048
0.198 -0.141 0.045
0.203 -0.141 0.046
0.205 -0.141 0.046
0.207 -0.140 0.046
0.208 -0.138 0.047
0.211 -0.137 0.047
0.221 -0.141 0.049
0.222 -0.140 0.049
0.223 -0.137 0.049
0.216 -0.131 0.048
0.211 -0.126 0.046
0.210 -0.123 0.046
0.206 -0.118 0.045
0.209 -0.117 0.046
0.207 -0.114 0.045
0.207 -0.112 0.045
0.206 -0.109 0.045
0.206 -0.107 0.045
0.213 -0.108 0.046
0.211 -0.105 0.045
0.214 -0.104 0.046
0.214 -0.102 0.046
0.210 -0.098 0.045
0.214 -0.098 0.046
0.210 -0.094 0.045
0.210 -0.092 0.045
0.211 -0.090 0.045
0.212 -0.088 0.045
0.215 -0.087 0.046
0.208 -0.082 0.044
0.214 -0.083 0.045
0.215 -0.081 0.045
0.225 -0.083 0.047
0.221 -0.079 0.046
0.224 -0.078 0.047
0.225 -0.076 0.047
0.226 -0.074 0.047
0.231 -0.074 0.048
0.240 -0.074 0.050
0.246 -0.074 0.051
0.252 -0.073 0.053
0.367 -0.096 0.076
0.366 -0.092 0.076
0.366 -0.089 0.076
0.364 -0.085 0.075
0.363 -0.081 0.075
0.363 -0.078 0.075
0.364 -0.075 0.075
0.362 -0.071 0.075
0.318 -0.060 0.066
0.308 -0.055 0.064
0.290 -0.049 0.060
0.286 -0.046 0.059
0.284 -0.043 0.058
0.285 -0.040 0.059
0.283 -0.037 0.058
0.285 -0.035 0.059
0.288 -0.033 0.059
0.285 -0.030 0.059
0.288 -0.027 0.059
0.290 -0.025 0.060
0.293 -0.023 0.060
0.294 -0.020 0.060
0.290 -0.017 0.060
0.288 -0.014 0.059
0.289 -0.012 0.059
0.292 -0.009 0.060
0.286 -0.007 0.059
0.288 -0.004 0.059
0.292 -0.001 0.060
0.294 0.001 0.060
0.296 0.004 0.061
0.296 0.007 0.061
0.299 0.009 0.061
0.299 0.012 0.061
0.298 0.015 0.061
0.294 0.017 0.060
0.296 0.020 0.061
0.296 0.023 0.061
0.297 0.026 0.061
0.299 0.028 0.061
0.307 0.032 0.063
0.309 0.035 0.064
0.311 0.038 0.064
0.306 0.040 0.063
0.293 0.041 0.060
0.296 0.045 0.061
0.308 0.049 0.064
0.305 0.051 0.063
0.310 0.055 0.064
0.307 0.057 0.063
0.303 0.060 0.063
0.299 0.062 0.062
0.305 0.066 0.063
0.306 0.069 0.064
0.317 0.074 0.066
0.323 0.079 0.067
0.294 0.074 0.061
0.292 0.077 0.061
0.304 0.083 0.063
0.300 0.085 0.063
0.304 0.088 0.064
0.302 0.091 0.063
0.301 0.094 0.063
0.293 0.094 0.061
0.286 0.094 0.060
0.282 0.096 0.059
0.291 0.102 0.061
0.291 0.105 0.062
0.285 0.105 0.060
0.277 0.105 0.059
0.259 0.101 0.055
0.262 0.105 0.056
0.335 0.137 0.071
0.337 0.142 0.072
0.330 0.142 0.071
0.330 0.145 0.071
0.327 0.147 0.070
0.319 0.147 0.069
0.306 0.144 0.066
0.313 0.151 0.068
0.336 0.169 0.073
0.328 0.169 0.071
0.324 0.170 0.071
0.323 0.173 0.071
0.322 0.176 0.071
0.319 0.178 0.070
0.313 0.178 0.069
0.311 0.180 0.069
0.309 0.183 0.068
0.301 0.182 0.067
0.296 0.182 0.066
0.292 0.183 0.065
0.287 0.184 0.064
0.284 0.185 0.064
0.278 0.184 0.063
0.273 0.184 0.062
0.269 0.185 0.061
0.266 0.186 0.061
0.263 0.187 0.060
0.261 0.190 0.060
0.261 0.192 0.060
0.261 0.196 0.060
0.260 0.199 0.061
0.259 0.201 0.060
0.258 0.204 0.060
0.257 0.207 0.061
0.258 0.211 0.061
0.257 0.214 0.061
0.257 0.218 0.061
0.257 0.221 0.062
0.257 0.225 0.062
0.256 0.229 0.062
0.256 0.232 0.062
0.256 0.236 0.063
0.255 0.239 0.063
0.255 0.243 0.063
0.254 0.246 0.063
0.251 0.248 0.063
0.249 0.250 0.063
0.247 0.252 0.063
0.247 0.256 0.063
0.247 0.260 0.063
0.247 0.265 0.064
0.247 0.269 0.064
0.201 0.242 0.054
0.191 0.234 0.052
0.188 0.234 0.052
0.203 0.256 0.056
0.203 0.261 0.056
0.197 0.256 0.055
0.194 0.256 0.054
0.117 -0.162 0.034
0.113 -0.156 0.033
0.111 -0.151 0.032
0.112 -0.150 0.032
0.115 -0.152 0.033
0.115 -0.151 0.033
0.115 -0.148 0.032
0.113 -0.143 0.032
0.113 -0.141 0.032
0.113 -0.140 0.032
0.121 -0.147 0.034
0.122 -0.147 0.034
0.125 -0.147 0.034
0.136 -0.156 0.037
0.291 -0.309 0.077
0.292 -0.305 0.077
0.293 -0.302 0.077
0.289 -0.293 0.075
0.291 -0.290 0.075
0.292 -0.288 0.075
0.292 -0.282 0.075
0.291 -0.277 0.074
0.291 -0.273 0.074
0.292 -0.269 0.074
0.291 -0.265 0.073
0.291 -0.260 0.073
0.287 -0.253 0.072
0.287 -0.249 0.071
0.286 -0.244 0.071
0.285 -0.239 0.070
0.286 -0.236 0.070
0.286 -0.232 0.070
0.277 -0.222 0.067
0.228 -0.177 0.055
0.216 -0.164 0.052
0.213 -0.159 0.051
0.216 -0.159 0.052
0.215 -0.156 0.051
0.201 -0.143 0.048
0.200 -0.140 0.047
0.208 -0.143 0.049
0.209 -0.141 0.049
0.208 -0.138 0.049
0.208 -0.136 0.049
0.211 -0.135 0.049
0.219 -0.138 0.051
0.218 -0.135 0.050
0.208 -0.126 0.048
0.206 -0.122 0.047
0.207 -0.121 0.047
0.212 -0.121 0.048
0.203 -0.114 0.046
0.210 -0.116 0.048
0.207 -0.112 0.047
0.204 -0.108 0.046
0.208 -0.108 0.047
0.209 -0.106 0.047
0.209 -0.104 0.047
0.213 -0.104 0.048
0.215 -0.103 0.048
0.213 -0.099 0.048
0.202 -0.092 0.045
0.201 -0.090 0.045
0.208 -0.091 0.046
0.209 -0.089 0.047
0.200 -0.083 0.044
0.207 -0.084 0.046
0.202 -0.080 0.045
0.211 -0.081 0.046
0.207 -0.078 0.046
0.209 -0.077 0.046
0.209 -0.075 0.046
0.222 -0.077 0.049
0.226 -0.076 0.050
0.225 -0.074 0.049
0.228 -0.073 0.050
0.233 -0.072 0.051
0.246 -0.074 0.054
0.254 -0.074 0.055
0.340 -0.092 0.074
0.349 -0.091 0.076
0.355 -0.090 0.077
0.356 -0.087 0.077
0.357 -0.083 0.077
0.357 -0.080 0.077
0.356 -0.077 0.077
0.354 -0.073 0.076
0.339 -0.066 0.073
0.327 -0.061 0.071
0.297 -0.053 0.064
0.290 -0.049 0.062
0.285 -0.045 0.061
0.284 -0.043 0.061
0.282 -0.040 0.061
0.284 -0.037 0.061
0.284 -0.035 0.061
0.284 -0.032 0.061
0.289 -0.030 0.062
0.289 -0.028 0.062
0.289 -0.025 0.062
0.292 -0.023 0.063
0.290 -0.020 0.062
0.288 -0.017 0.062
0.288 -0.014 0.062
0.291 -0.012 0.062
0.290 -0.009 0.062
0.288 -0.007 0.062
0.286 -0.004 0.061
0.288 -0.001 0.062
0.289 0.001 0.062
0.293 0.004 0.063
0.292 0.007 0.063
0.296 0.009 0.063
0.298 0.012 0.064
0.297 0.015 0.064
0.290 0.017 0.062
0.291 0.020 0.062
0.294 0.023 0.063
0.295 0.025 0.063
0.300 0.029 0.064
0.311 0.032 0.067
0.319 0.036 0.069
0.299 0.037 0.064
0.302 0.040 0.065
0.293 0.041 0.063
0.296 0.045 0.064
0.301 0.048 0.065
0.304 0.051 0.066
0.299 0.053 0.065
0.295 0.055 0.064
0.294 0.058 0.064
0.294 0.061 0.064
0.299 0.064 0.065
0.299 0.067 0.065
0.290 0.068 0.063
0.284 0.072 0.062
0.292 0.077 0.064
0.295 0.080 0.064
0.300 0.085 0.066
0.297 0.086 0.065
0.301 0.091 0.066
0.297 0.092 0.065
0.292 0.093 0.064
0.287 0.095 0.063
0.290 0.099 0.064
0.291 0.102 0.064
0.297 0.107 0.065
0.296 0.109 0.065
0.292 0.111 0.065
0.286 0.112 0.064
0.260 0.104 0.058
0.315 0.136 0.070
0.321 0.142 0.072
0.321 0.145 0.072
0.320 0.148 0.072
0.316 0.149 0.071
0.307 0.148 0.069
0.308 0.152 0.070
0.316 0.159 0.072
0.316 0.163 0.072
0.316 0.166 0.072
0.317 0.170 0.072
0.315 0.172 0.072
0.310 0.173 0.071
0.308 0.176 0.071
0.307 0.179 0.071
0.302 0.179 0.070
0.298 0.180 0.069
0.294 0.181 0.069
0.291 0.183 0.068
0.288 0.184 0.068
0.283 0.184 0.067
0.277 0.184 0.065
0.273 0.184 0.065
0.269 0.185 0.064
0.266 0.186 0.063
0.263 0.187 0.063
0.261 0.190 0.063
0.261 0.193 0.063
0.261 0.196 0.063
0.261 0.199 0.063
0.260 0.202 0.063
0.259 0.205 0.063
0.258 0.208 0.064
0.258 0.211 0.064
0.257 0.215 0.064
0.257 0.218 0.064
0.256 0.221 0.064
0.254 0.223 0.064
0.255 0.228 0.065
0.254 0.231 0.065
0.255 0.235 0.065
0.255 0.239 0.066
0.253 0.242 0.066
0.251 0.243 0.065
0.245 0.242 0.064
0.239 0.239 0.063
0.241 0.246 0.064
0.238 0.247 0.063
0.235 0.248 0.063
0.209 0.235 0.057
0.206 0.236 0.057
0.204 0.238 0.057
0.200 0.237 0.056
0.197 0.237 0.055
0.193 0.236 0.055
0.185 0.230 0.053
0.192 0.242 0.055
0.201 0.258 0.058
0.204 0.265 0.059
0.232 0.307 0.068
0.100 -0.139 0.030
0.099 -0.137 0.030
0.099 -0.135 0.030
0.099 -0.133 0.030
0.099 -0.132 0.030
0.100 -0.131 0.030
0.101 -0.130 0.030
0.101 -0.129 0.030
0.101 -0.127 0.030
0.101 -0.125 0.029
0.102 -0.124 0.029
0.102 -0.122 0.029
0.102 -0.120 0.029
0.131 -0.150 0.037
0.121 -0.135 0.034
0.122 -0.134 0.034
0.272 -0.281 0.074
0.278 -0.282 0.075
0.284 -0.284 0.076
0.287 -0.283 0.077
0.286 -0.277 0.076
0.286 -0.273 0.076
0.290 -0.272 0.077
0.289 -0.267 0.076
0.288 -0.263 0.076
0.288 -0.258 0.075
0.287 -0.253 0.074
0.287 -0.249 0.074
0.288 -0.246 0.074
0.286 -0.240 0.073
0.285 -0.235 0.073
0.284 -0.231 0.072
0.280 -0.224 0.071
0.212 -0.162 0.053
0.206 -0.154 0.051
0.207 -0.152 0.051
0.209 -0.152 0.052
0.205 -0.146 0.051
0.205 -0.144 0.050
0.206 -0.142 0.050
0.209 -0.141 0.051
0.209 -0.139 0.051
0.207 -0.135 0.050
0.209 -0.134 0.051
0.213 -0.134 0.052
0.212 -0.131 0.051
0.204 -0.124 0.049
0.202 -0.120 0.048
0.204 -0.119 0.049
0.202 -0.116 0.048
0.201 -0.113 0.048
0.206 -0.114 0.049
0.214 -0.116 0.051
0.217 -0.115 0.051
0.176 -0.090 0.041
0.174 -0.087 0.041
0.173 -0.084 0.041
0.173 -0.082 0.040
0.173 -0.081 0.040
0.173 -0.079 0.040
0.174 -0.078 0.041
0.175 -0.077 0.041
0.177 -0.076 0.041
0.178 -0.074 0.041
0.179 -0.073 0.041
0.188 -0.074 0.043
0.188 -0.073 0.043
0.209 -0.079 0.048
0.210 -0.077 0.048
0.213 -0.076 0.049
0.220 -0.077 0.050
0.228 -0.077 0.052
0.228 -0.075 0.052
0.229 -0.073 0.052
0.235 -0.073 0.054
0.241 -0.072 0.055
0.253 -0.073 0.057
0.256 -0.072 0.058
0.328 -0.089 0.074
0.342 -0.090 0.077
0.346 -0.087 0.078
0.349 -0.085 0.079
0.352 -0.082 0.079
0.348 -0.078 0.078
0.339 -0.073 0.077
0.335 -0.069 0.075
0.333 -0.065 0.075
0.325 -0.061 0.073
0.303 -0.054 0.068
0.287 -0.048 0.064
0.282 -0.045 0.063
0.278 -0.042 0.062
0.282 -0.040 0.063
0.287 -0.038 0.064
0.286 -0.035 0.064
0.281 -0.032 0.063
0.285 -0.030 0.064
0.288 -0.028 0.065
0.287 -0.025 0.064
0.289 -0.022 0.065
0.289 -0.020 0.065
0.287 -0.017 0.064
0.285 -0.014 0.064
0.288 -0.012 0.064
0.288 -0.009 0.064
0.292 -0.007 0.065
0.288 -0.004 0.064
0.285 -0.001 0.064
0.287 0.001 0.064
0.290 0.004 0.065
0.290 0.007 0.065
0.292 0.009 0.065
0.299 0.012 0.067
0.297 0.015 0.066
0.290 0.017 0.065
0.289 0.020 0.065
0.295 0.023 0.066
0.298 0.026 0.067
0.298 0.028 0.067
0.307 0.032 0.069
0.309 0.035 0.069
0.308 0.038 0.069
0.292 0.039 0.066
0.293 0.041 0.066
0.287 0.043 0.065
0.296 0.047 0.067
0.292 0.049 0.066
0.289 0.052 0.065
0.288 0.054 0.065
0.286 0.056 0.064
0.286 0.059 0.065
0.287 0.062 0.065
0.285 0.064 0.064
0.274 0.064 0.062
0.272 0.066 0.062
0.275 0.072 0.063
0.283 0.077 0.064
0.290 0.082 0.066
0.293 0.086 0.067
0.292 0.088 0.067
0.299 0.093 0.068
0.293 0.094 0.067
0.292 0.097 0.067
0.295 0.100 0.068
0.303 0.106 0.070
0.302 0.109 0.070
0.303 0.112 0.070
0.303 0.115 0.070
0.302 0.118 0.070
0.298 0.119 0.069
0.286 0.117 0.066
0.314 0.139 0.073
0.314 0.142 0.074
0.314 0.145 0.074
0.312 0.147 0.073
0.310 0.150 0.073
0.307 0.152 0.073
0.309 0.156 0.073
0.308 0.159 0.073
0.307 0.161 0.073
0.308 0.165 0.073
0.307 0.168 0.073
0.305 0.170 0.073
0.304 0.173 0.073
0.301 0.175 0.072
0.298 0.177 0.072
0.295 0.178 0.072
0.292 0.180 0.071
0.289 0.182 0.070
0.287 0.184 0.070
0.285 0.186 0.070
0.278 0.185 0.069
0.271 0.184 0.067
0.268 0.185 0.067
0.265 0.186 0.066
0.262 0.187 0.066
0.261 0.190 0.065
0.260 0.193 0.066
0.259 0.195 0.066
0.260 0.199 0.066
0.260 0.202 0.066
0.260 0.206 0.066
0.259 0.209 0.066
0.258 0.211 0.066
0.257 0.214 0.067
0.253 0.215 0.066
0.252 0.218 0.066
0.251 0.220 0.066
0.252 0.225 0.067
0.253 0.230 0.067
0.252 0.233 0.067
0.249 0.234 0.067
0.246 0.236 0.067
0.239 0.232 0.065
0.234 0.231 0.064
0.226 0.228 0.062
0.216 0.220 0.060
0.218 0.227 0.061
0.215 0.227 0.060
0.212 0.228 0.060
0.204 0.223 0.058
0.204 0.226 0.058
0.203 0.230 0.058
0.202 0.232 0.058
0.198 0.231 0.058
0.196 0.232 0.057
0.196 0.236 0.058
0.201 0.246 0.060
0.248 0.328 0.076
0.100 -0.138 0.031
0.100 -0.136 0.031
0.101 -0.136 0.032
0.100 -0.132 0.031
0.100 -0.131 0.031
0.101 -0.130 0.031
0.100 -0.128 0.031
0.101 -0.126 0.031
0.102 -0.126 0.031
0.102 -0.124 0.031
0.102 -0.122 0.030
0.102 -0.121 0.030
0.102 -0.119 0.030
0.103 -0.119 0.030
0.105 -0.119 0.031
0.117 -0.131 0.034
0.121 -0.133 0.035
0.119 -0.129 0.034
0.265 -0.274 0.075
0.271 -0.275 0.076
0.276 -0.277 0.078
0.281 -0.277 0.078
0.281 -0.273 0.078
0.282 -0.270 0.078
0.285 -0.268 0.079
0.288 -0.267 0.079
0.284 -0.259 0.078
0.284 -0.255 0.077
0.284 -0.251 0.077
0.284 -0.247 0.077
0.286 -0.245 0.077
0.285 -0.240 0.076
0.283 -0.234 0.075
0.283 -0.230 0.075
0.273 -0.219 0.072
0.268 -0.212 0.071
0.208 -0.158 0.054
0.199 -0.149 0.052
0.200 -0.148 0.052
0.204 -0.148 0.053
0.207 -0.148 0.053
0.206 -0.144 0.053
0.205 -0.142 0.053
0.208 -0.141 0.053
0.209 -0.139 0.053
0.213 -0.139 0.054
0.213 -0.137 0.054
0.212 -0.134 0.053
0.210 -0.130 0.053
0.209 -0.127 0.052
0.206 -0.123 0.052
0.204 -0.119 0.051
0.202 -0.116 0.050
0.203 -0.115 0.050
0.202 -0.112 0.050
0.171 -0.093 0.042
0.169 -0.090 0.042
0.169 -0.088 0.042
0.171 -0.087 0.042
0.172 -0.082 0.042
0.173 -0.081 0.042
0.174 -0.080 0.042
0.174 -0.078 0.042
0.175 -0.077 0.042
0.176 -0.075 0.042
0.177 -0.074 0.043
0.179 -0.073 0.043
0.180 -0.071 0.043
0.181 -0.070 0.043
0.183 -0.069 0.044
0.185 -0.068 0.044
0.189 -0.068 0.045
0.218 -0.076 0.052
0.226 -0.076 0.054
0.229 -0.075 0.054
0.230 -0.073 0.055
0.234 -0.072 0.055
0.241 -0.072 0.057
0.246 -0.072 0.058
0.264 -0.074 0.062
0.332 -0.087 0.078
0.334 -0.084 0.079
0.333 -0.081 0.078
0.339 -0.079 0.080
0.335 -0.075 0.079
0.324 -0.070 0.076
0.324 -0.067 0.076
0.326 -0.064 0.076
0.319 -0.060 0.075
0.311 -0.055 0.073
0.292 -0.049 0.068
0.278 -0.044 0.065
0.278 -0.042 0.065
0.281 -0.040 0.066
0.285 -0.038 0.067
0.285 -0.035 0.066
0.282 -0.032 0.066
0.279 -0.029 0.065
0.287 -0.027 0.067
0.285 -0.025 0.067
0.281 -0.022 0.065
0.287 -0.020 0.067
0.286 -0.017 0.067
0.286 -0.014 0.066
0.282 -0.012 0.066
0.288 -0.009 0.067
0.289 -0.007 0.067
0.288 -0.004 0.067
0.289 -0.001 0.067
0.289 0.001 0.067
0.289 0.004 0.067
0.287 0.006 0.067
0.286 0.009 0.067
0.292 0.012 0.068
0.300 0.015 0.070
0.289 0.017 0.067
0.288 0.020 0.067
0.294 0.023 0.069
0.301 0.026 0.070
0.301 0.029 0.070
0.298 0.031 0.070
0.295 0.034 0.069
0.294 0.036 0.069
0.293 0.039 0.068
0.293 0.041 0.069
0.296 0.045 0.069
0.280 0.045 0.066
0.291 0.049 0.068
0.295 0.053 0.069
0.289 0.054 0.068
0.284 0.056 0.067
0.285 0.059 0.067
0.288 0.062 0.068
0.292 0.066 0.069
0.292 0.069 0.069
0.285 0.069 0.067
0.288 0.073 0.068
0.271 0.071 0.064
0.277 0.075 0.066
0.288 0.081 0.068
0.289 0.084 0.069
0.293 0.088 0.070
0.293 0.091 0.070
0.296 0.095 0.071
0.298 0.099 0.071
0.303 0.103 0.073
0.301 0.106 0.072
0.300 0.108 0.072
0.300 0.111 0.072
0.303 0.115 0.073
0.304 0.119 0.073
0.301 0.120 0.073
0.299 0.123 0.072
0.290 0.122 0.070
0.309 0.140 0.075
0.305 0.141 0.075
0.307 0.145 0.075
0.306 0.148 0.075
0.313 0.155 0.077
0.303 0.153 0.075
0.299 0.154 0.074
0.300 0.158 0.074
0.301 0.162 0.075
0.300 0.165 0.075
0.300 0.168 0.075
0.299 0.171 0.075
0.297 0.173 0.075
0.294 0.175 0.074
0.292 0.177 0.074
0.290 0.179 0.074
0.283 0.178 0.072
0.283 0.182 0.072
0.282 0.184 0.072
0.277 0.184 0.071
0.273 0.185 0.070
0.267 0.184 0.069
0.265 0.186 0.069
0.260 0.186 0.068
0.261 0.190 0.068
0.260 0.193 0.068
0.259 0.195 0.068
0.259 0.199 0.069
0.259 0.202 0.069
0.259 0.205 0.069
0.258 0.209 0.069
0.257 0.212 0.069
0.255 0.213 0.069
0.254 0.216 0.069
0.252 0.218 0.069
0.253 0.222 0.069
0.250 0.224 0.069
0.248 0.226 0.069
0.247 0.229 0.069
0.240 0.226 0.067
0.232 0.222 0.065
0.228 0.222 0.064
0.221 0.218 0.063
0.214 0.215 0.061
0.209 0.214 0.060
0.209 0.218 0.061
0.206 0.218 0.060
0.202 0.217 0.059
0.200 0.219 0.059
0.199 0.222 0.059
0.206 0.233 0.062
0.205 0.235 0.062
0.206 0.240 0.062
0.225 0.267 0.069
0.228 0.275 0.070
0.222 0.277 0.069
0.227 0.287 0.071
0.223 0.295 0.071
0.100 -0.138 0.033
0.101 -0.138 0.033
0.101 -0.136 0.033
0.102 -0.135 0.033
0.101 -0.132 0.032
0.101 -0.131 0.032
0.102 -0.130 0.032
0.103 -0.129 0.032
0.103 -0.127 0.032
0.103 -0.126 0.032
0.102 -0.123 0.032
0.102 -0.121 0.032
0.103 -0.121 0.032
0.103 -0.119 0.032
0.102 -0.116 0.031
0.101 -0.113 0.031
0.113 -0.124 0.034
0.110 -0.119 0.033
0.112 -0.120 0.033
0.266 -0.271 0.078
0.273 -0.274 0.080
0.276 -0.272 0.080
0.279 -0.271 0.081
0.280 -0.268 0.081
0.281 -0.265 0.081
0.281 -0.260 0.080
0.281 -0.257 0.080
0.282 -0.253 0.080
0.282 -0.249 0.079
0.281 -0.244 0.079
0.283 -0.242 0.079
0.287 -0.242 0.080
0.282 -0.234 0.078
0.276 -0.225 0.076
0.259 -0.208 0.071
0.247 -0.195 0.068
0.206 -0.157 0.056
0.203 -0.153 0.055
0.203 -0.150 0.055
0.206 -0.149 0.055
0.206 -0.147 0.055
0.202 -0.142 0.054
0.201 -0.139 0.054
0.206 -0.140 0.055
0.209 -0.139 0.055
0.211 -0.138 0.055
0.215 -0.138 0.057
0.210 -0.133 0.055
0.211 -0.131 0.055
0.209 -0.127 0.054
0.211 -0.126 0.055
0.207 -0.121 0.054
0.169 -0.095 0.043
0.168 -0.093 0.043
0.168 -0.091 0.043
0.168 -0.089 0.043
0.169 -0.088 0.043
0.170 -0.087 0.043
0.172 -0.086 0.044
0.172 -0.084 0.044
0.179 -0.086 0.045
0.181 -0.085 0.046
0.186 -0.085 0.047
0.189 -0.085 0.048
0.191 -0.084 0.048
0.191 -0.082 0.048
0.185 -0.077 0.046
0.182 -0.074 0.046
0.181 -0.072 0.045
0.182 -0.070 0.045
0.183 -0.069 0.045
0.183 -0.067 0.046
0.185 -0.066 0.046
0.186 -0.065 0.046
0.188 -0.064 0.047
0.203 -0.067 0.050
0.229 -0.073 0.056
0.230 -0.071 0.057
0.238 -0.072 0.059
0.247 -0.072 0.061
0.258 -0.072 0.063
0.314 -0.082 0.077
0.322 -0.082 0.079
0.322 -0.078 0.079
0.323 -0.076 0.079
0.326 -0.073 0.080
0.320 -0.069 0.078
0.316 -0.065 0.077
0.315 -0.062 0.077
0.315 -0.059 0.077
0.307 -0.055 0.075
0.298 -0.050 0.073
0.277 -0.044 0.067
0.277 -0.042 0.067
0.279 -0.039 0.068
0.280 -0.037 0.068
0.280 -0.034 0.068
0.283 -0.032 0.069
0.286 -0.030 0.069
0.283 -0.027 0.069
0.283 -0.025 0.069
0.281 -0.022 0.068
0.276 -0.019 0.067
0.285 -0.017 0.069
0.286 -0.014 0.069
0.285 -0.012 0.069
0.279 -0.009 0.068
0.280 -0.006 0.068
0.288 -0.004 0.070
0.289 -0.001 0.070
0.289 0.001 0.070
0.287 0.004 0.070
0.283 0.006 0.069
0.282 0.009 0.068
0.284 0.012 0.069
0.294 0.015 0.071
0.292 0.017 0.071
0.289 0.020 0.070
0.297 0.023 0.072
0.303 0.026 0.074
0.302 0.029 0.073
0.298 0.031 0.072
0.294 0.034 0.071
0.287 0.035 0.070
0.289 0.038 0.070
0.295 0.042 0.072
0.298 0.045 0.072
0.292 0.047 0.071
0.293 0.050 0.071
0.296 0.053 0.072
0.294 0.055 0.072
0.291 0.057 0.071
0.292 0.060 0.071
0.292 0.063 0.072
0.295 0.067 0.072
0.297 0.070 0.073
0.295 0.072 0.073
0.285 0.072 0.070
0.277 0.073 0.068
0.274 0.075 0.067
0.282 0.080 0.070
0.288 0.084 0.071
0.289 0.087 0.071
0.289 0.090 0.072
0.293 0.094 0.073
0.293 0.097 0.073
0.301 0.103 0.075
0.295 0.104 0.074
0.293 0.106 0.073
0.294 0.109 0.073
0.296 0.113 0.074
0.299 0.117 0.075
0.299 0.120 0.075
0.297 0.122 0.075
0.297 0.125 0.075
0.292 0.126 0.074
0.276 0.122 0.070
0.266 0.120 0.068
0.302 0.143 0.077
0.305 0.148 0.078
0.300 0.148 0.077
0.292 0.147 0.075
0.292 0.151 0.075
0.289 0.152 0.075
0.293 0.158 0.076
0.295 0.162 0.076
0.296 0.166 0.077
0.296 0.169 0.077
0.291 0.170 0.076
0.290 0.172 0.076
0.288 0.175 0.076
0.282 0.175 0.074
0.280 0.176 0.074
0.278 0.178 0.074
0.277 0.181 0.074
0.275 0.183 0.073
0.271 0.184 0.073
0.267 0.185 0.072
0.264 0.186 0.071
0.263 0.188 0.071
0.261 0.190 0.071
0.261 0.193 0.071
0.259 0.196 0.071
0.260 0.200 0.072
0.259 0.202 0.072
0.258 0.205 0.071
0.259 0.210 0.072
0.256 0.211 0.072
0.254 0.213 0.071
0.253 0.216 0.071
0.253 0.219 0.072
0.251 0.222 0.072
0.243 0.218 0.070
0.245 0.223 0.071
0.242 0.224 0.070
0.237 0.223 0.069
0.231 0.221 0.068
0.226 0.221 0.067
0.217 0.215 0.064
0.210 0.212 0.063
0.207 0.213 0.062
0.209 0.217 0.063
0.208 0.220 0.063
0.205 0.221 0.062
0.205 0.225 0.063
0.216 0.241 0.067
0.215 0.244 0.067
0.209 0.241 0.065
0.214 0.251 0.067
0.220 0.262 0.070
0.217 0.262 0.069
0.210 0.258 0.067
0.214 0.267 0.069
0.211 0.267 0.069
0.212 0.274 0.070
0.211 0.276 0.070
0.195 0.258 0.064
0.100 -0.138 0.034
0.100 -0.136 0.034
0.101 -0.136 0.034
0.102 -0.136 0.034
0.102 -0.134 0.034
0.102 -0.132 0.034
0.103 -0.131 0.034
0.103 -0.130 0.034
0.103 -0.128 0.034
0.104 -0.127 0.034
0.104 -0.125 0.034
0.104 -0.123 0.033
0.104 -0.122 0.033
0.104 -0.120 0.033
0.103 -0.117 0.033
0.102 -0.114 0.032
0.102 -0.113 0.032
0.109 -0.119 0.034
0.108 -0.116 0.034
0.110 -0.116 0.034
0.268 -0.270 0.081
0.273 -0.270 0.082
0.275 -0.268 0.083
0.280 -0.268 0.084
0.281 -0.265 0.084
0.278 -0.258 0.082
0.278 -0.254 0.082
0.280 -0.252 0.082
0.280 -0.248 0.082
0.278 -0.243 0.081
0.281 -0.241 0.081
0.285 -0.240 0.082
0.279 -0.231 0.080
0.277 -0.226 0.079
0.208 -0.159 0.059
0.205 -0.154 0.057
0.207 -0.153 0.058
0.207 -0.150 0.058
0.203 -0.145 0.056
0.200 -0.140 0.055
0.202 -0.139 0.056
0.206 -0.140 0.057
0.207 -0.138 0.057
0.208 -0.136 0.057
0.211 -0.136 0.058
0.212 -0.134 0.058
0.207 -0.128 0.056
0.207 -0.126 0.056
0.204 -0.122 0.055
0.170 -0.100 0.046
0.168 -0.097 0.045
0.168 -0.095 0.045
0.168 -0.093 0.045
0.168 -0.091 0.045
0.168 -0.089 0.045
0.175 -0.091 0.046
0.208 -0.104 0.055
0.203 -0.099 0.053
0.209 -0.100 0.055
0.209 -0.098 0.055
0.210 -0.097 0.055
0.211 -0.094 0.055
0.197 -0.086 0.051
0.210 -0.090 0.055
0.210 -0.088 0.055
0.219 -0.090 0.057
0.222 -0.088 0.058
0.212 -0.082 0.055
0.190 -0.072 0.049
0.188 -0.069 0.048
0.186 -0.067 0.048
0.186 -0.065 0.048
0.187 -0.063 0.048
0.187 -0.062 0.048
0.190 -0.061 0.049
0.199 -0.062 0.051
0.243 -0.071 0.062
0.249 -0.070 0.064
0.284 -0.077 0.073
0.300 -0.079 0.076
0.312 -0.079 0.080
0.317 -0.077 0.081
0.313 -0.073 0.079
0.309 -0.070 0.079
0.314 -0.068 0.080
0.305 -0.063 0.077
0.306 -0.060 0.078
0.306 -0.057 0.077
0.299 -0.053 0.076
0.287 -0.049 0.073
0.277 -0.044 0.070
0.278 -0.042 0.070
0.278 -0.039 0.070
0.279 -0.037 0.070
0.280 -0.035 0.071
0.283 -0.032 0.071
0.285 -0.030 0.072
0.285 -0.027 0.072
0.280 -0.024 0.070
0.280 -0.022 0.070
0.283 -0.019 0.071
0.282 -0.017 0.071
0.286 -0.014 0.072
0.284 -0.012 0.071
0.280 -0.009 0.071
0.278 -0.006 0.070
0.288 -0.004 0.072
0.289 -0.001 0.073
0.283 0.001 0.071
0.283 0.004 0.071
0.291 0.007 0.073
0.285 0.009 0.072
0.287 0.012 0.072
0.288 0.014 0.072
0.289 0.017 0.073
0.292 0.020 0.074
0.295 0.023 0.074
0.302 0.026 0.076
0.297 0.028 0.075
0.290 0.033 0.073
0.288 0.036 0.073
0.288 0.038 0.073
0.292 0.041 0.074
0.294 0.044 0.074
0.289 0.046 0.073
0.289 0.049 0.073
0.289 0.052 0.073
0.292 0.055 0.074
0.294 0.058 0.075
0.296 0.061 0.075
0.294 0.064 0.075
0.293 0.066 0.075
0.291 0.068 0.074
0.287 0.070 0.073
0.286 0.073 0.073
0.281 0.074 0.072
0.265 0.072 0.068
0.267 0.076 0.068
0.282 0.083 0.072
0.284 0.086 0.073
0.283 0.088 0.073
0.288 0.093 0.074
0.290 0.096 0.075
0.289 0.099 0.075
0.292 0.103 0.076
0.291 0.105 0.075
0.289 0.107 0.075
0.292 0.111 0.076
0.292 0.114 0.076
0.293 0.118 0.077
0.293 0.121 0.077
0.290 0.123 0.076
0.289 0.125 0.076
0.289 0.128 0.076
0.272 0.123 0.072
0.262 0.121 0.069
0.267 0.126 0.071
0.289 0.140 0.077
0.287 0.142 0.076
0.288 0.146 0.077
0.284 0.147 0.076
0.282 0.149 0.075
0.286 0.154 0.077
0.289 0.159 0.078
0.288 0.162 0.078
0.283 0.162 0.077
0.284 0.166 0.077
0.284 0.169 0.077
0.281 0.170 0.077
0.278 0.172 0.076
0.275 0.173 0.075
0.274 0.176 0.075
0.273 0.179 0.076
0.268 0.179 0.074
0.266 0.180 0.074
0.264 0.183 0.074
0.263 0.185 0.074
0.261 0.187 0.073
0.260 0.190 0.073
0.259 0.193 0.074
0.260 0.197 0.074
0.260 0.200 0.074
0.258 0.202 0.074
0.256 0.204 0.074
0.255 0.207 0.074
0.253 0.209 0.074
0.253 0.212 0.074
0.251 0.214 0.074
0.248 0.215 0.073
0.247 0.218 0.073
0.246 0.221 0.073
0.246 0.224 0.073
0.240 0.223 0.072
0.233 0.220 0.071
0.231 0.222 0.070
0.229 0.224 0.070
0.221 0.220 0.068
0.215 0.217 0.067
0.209 0.215 0.065
0.206 0.215 0.065
0.211 0.224 0.066
0.208 0.225 0.066
0.209 0.229 0.067
0.219 0.245 0.070
0.213 0.242 0.069
0.206 0.238 0.067
0.209 0.245 0.068
0.215 0.256 0.071
0.205 0.248 0.068
0.199 0.245 0.066
0.199 0.249 0.067
0.202 0.256 0.068
0.204 0.263 0.069
0.202 0.264 0.069
0.207 0.275 0.071
0.099 -0.137 0.035
0.101 -0.137 0.035
0.102 -0.137 0.036
0.102 -0.136 0.036
0.102 -0.134 0.035
0.102 -0.132 0.035
0.103 -0.131 0.035
0.103 -0.130 0.035
0.103 -0.128 0.035
0.104 -0.127 0.035
0.104 -0.126 0.035
0.104 -0.124 0.035
0.104 -0.122 0.035
0.103 -0.120 0.034
0.103 -0.117 0.034
0.104 -0.116 0.034
0.105 -0.116 0.034
0.106 -0.115 0.034
0.108 -0.116 0.035
0.107 -0.113 0.034
0.112 -0.117 0.036
0.267 -0.265 0.084
0.270 -0.263 0.084
0.277 -0.266 0.086
0.278 -0.263 0.086
0.275 -0.256 0.085
0.275 -0.252 0.084
0.277 -0.249 0.084
0.278 -0.247 0.084
0.277 -0.242 0.084
0.279 -0.240 0.084
0.281 -0.237 0.084
0.280 -0.233 0.084
0.276 -0.226 0.082
0.244 -0.193 0.072
0.233 -0.181 0.068
0.210 -0.161 0.061
0.207 -0.156 0.060
0.207 -0.153 0.060
0.205 -0.149 0.059
0.201 -0.144 0.058
0.200 -0.141 0.058
0.202 -0.139 0.058
0.204 -0.139 0.058
0.205 -0.137 0.059
0.206 -0.135 0.058
0.209 -0.135 0.059
0.209 -0.132 0.059
0.206 -0.128 0.058
0.170 -0.102 0.048
0.169 -0.099 0.047
0.168 -0.097 0.047
0.168 -0.095 0.047
0.170 -0.094 0.047
0.181 -0.099 0.050
0.206 -0.110 0.057
0.208 -0.109 0.057
0.207 -0.106 0.057
0.204 -0.102 0.056
0.210 -0.103 0.058
0.208 -0.100 0.057
0.209 -0.098 0.057
0.209 -0.096 0.057
0.212 -0.095 0.058
0.211 -0.093 0.057
0.206 -0.088 0.056
0.211 -0.088 0.057
0.214 -0.087 0.058
0.217 -0.086 0.058
0.217 -0.084 0.058
0.214 -0.081 0.057
0.212 -0.078 0.057
0.210 -0.076 0.056
0.193 -0.068 0.052
0.188 -0.064 0.050
0.188 -0.062 0.050
0.189 -0.061 0.050
0.191 -0.059 0.051
0.192 -0.058 0.051
0.194 -0.056 0.051
0.201 -0.057 0.053
0.295 -0.077 0.078
0.299 -0.076 0.079
0.306 -0.075 0.081
0.304 -0.071 0.080
0.299 -0.067 0.079
0.291 -0.063 0.077
0.293 -0.061 0.077
0.296 -0.058 0.078
0.295 -0.055 0.078
0.291 -0.052 0.076
0.282 -0.048 0.074
0.277 -0.044 0.073
0.277 -0.042 0.073
0.280 -0.040 0.073
0.282 -0.037 0.074
0.281 -0.035 0.073
0.280 -0.032 0.073
0.282 -0.030 0.074
0.280 -0.027 0.073
0.281 -0.024 0.073
0.282 -0.022 0.074
0.286 -0.020 0.075
0.284 -0.017 0.074
0.285 -0.014 0.074
0.284 -0.012 0.074
0.284 -0.009 0.074
0.284 -0.006 0.074
0.285 -0.004 0.074
0.284 -0.001 0.074
0.280 0.001 0.073
0.277 0.004 0.072
0.292 0.007 0.076
0.291 0.009 0.076
0.282 0.012 0.074
0.284 0.014 0.074
0.287 0.017 0.075
0.288 0.020 0.075
0.288 0.022 0.075
0.289 0.025 0.076
0.296 0.028 0.077
0.283 0.030 0.074
0.283 0.032 0.074
0.284 0.035 0.075
0.294 0.039 0.077
0.297 0.042 0.078
0.286 0.043 0.075
0.286 0.046 0.075
0.287 0.049 0.075
0.286 0.051 0.075
0.289 0.054 0.076
0.292 0.058 0.077
0.295 0.061 0.078
0.292 0.063 0.077
0.287 0.065 0.076
0.279 0.066 0.074
0.277 0.068 0.073
0.281 0.072 0.074
0.275 0.073 0.073
0.263 0.072 0.070
0.266 0.075 0.071
0.273 0.080 0.073
0.281 0.085 0.075
0.285 0.089 0.076
0.290 0.093 0.077
0.288 0.095 0.077
0.287 0.098 0.077
0.287 0.101 0.077
0.288 0.104 0.078
0.288 0.107 0.078
0.282 0.108 0.076
0.287 0.112 0.078
0.284 0.114 0.077
0.284 0.117 0.077
0.284 0.120 0.077
0.280 0.121 0.076
0.276 0.122 0.075
0.276 0.125 0.075
0.266 0.124 0.073
0.266 0.126 0.073
0.263 0.128 0.073
0.263 0.131 0.073
0.276 0.140 0.076
0.279 0.144 0.077
0.276 0.146 0.077
0.282 0.152 0.079
0.282 0.155 0.079
0.280 0.157 0.078
0.278 0.159 0.078
0.277 0.162 0.078
0.278 0.166 0.079
0.275 0.167 0.078
0.271 0.168 0.077
0.269 0.170 0.077
0.269 0.173 0.077
0.266 0.174 0.076
0.262 0.175 0.075
0.260 0.177 0.075
0.262 0.182 0.076
0.261 0.184 0.076
0.258 0.186 0.075
0.256 0.187 0.075
0.257 0.191 0.076
0.258 0.195 0.076
0.257 0.198 0.076
0.254 0.200 0.076
0.254 0.202 0.076
0.252 0.205 0.076
0.252 0.208 0.076
0.251 0.211 0.076
0.248 0.212 0.076
0.247 0.215 0.076
0.245 0.217 0.075
0.249 0.224 0.077
0.246 0.225 0.076
0.234 0.218 0.073
0.231 0.219 0.073
0.225 0.216 0.071
0.222 0.217 0.070
0.218 0.217 0.070
0.215 0.218 0.069
0.214 0.220 0.069
0.214 0.224 0.070
0.207 0.221 0.068
0.210 0.228 0.069
0.208 0.229 0.069
0.206 0.231 0.069
0.202 0.229 0.068
0.199 0.231 0.067
0.207 0.244 0.070
0.211 0.252 0.072
0.198 0.241 0.068
0.194 0.239 0.067
0.196 0.245 0.068
0.199 0.253 0.070
0.201 0.260 0.071
0.200 0.263 0.071
0.194 0.258 0.069
0.100 -0.137 0.037
0.101 -0.137 0.037
0.102 -0.136 0.037
0.102 -0.134 0.037
0.102 -0.132 0.036
0.103 -0.131 0.037
0.103 -0.130 0.037
0.103 -0.129 0.036
0.104 -0.127 0.036
0.104 -0.126 0.036
0.104 -0.124 0.036
0.104 -0.123 0.036
0.103 -0.119 0.035
0.103 -0.118 0.035
0.105 -0.117 0.035
0.104 -0.115 0.035
0.109 -0.118 0.036
0.107 -0.115 0.036
0.106 -0.112 0.035
0.111 -0.115 0.037
0.117 -0.119 0.038
0.267 -0.261 0.086
0.267 -0.257 0.086
0.268 -0.254 0.086
0.269 -0.251 0.086
0.270 -0.247 0.086
0.273 -0.246 0.086
0.273 -0.243 0.086
0.276 -0.241 0.086
0.276 -0.238 0.086
0.276 -0.233 0.086
0.275 -0.229 0.085
0.272 -0.223 0.084
0.262 -0.211 0.080
0.210 -0.161 0.064
0.207 -0.156 0.063
0.206 -0.153 0.062
0.204 -0.149 0.061
0.202 -0.145 0.060
0.202 -0.142 0.060
0.204 -0.141 0.061
0.206 -0.140 0.061
0.207 -0.138 0.061
0.207 -0.136 0.061
0.207 -0.133 0.061
0.202 -0.128 0.059
0.170 -0.104 0.049
0.170 -0.102 0.049
0.170 -0.100 0.049
0.170 -0.098 0.049
0.207 -0.115 0.060
0.206 -0.112 0.059
0.206 -0.110 0.059
0.207 -0.108 0.059
0.206 -0.106 0.059
0.209 -0.105 0.059
0.210 -0.103 0.059
0.209 -0.100 0.059
0.206 -0.097 0.058
0.207 -0.095 0.058
0.209 -0.094 0.059
0.208 -0.092 0.059
0.201 -0.086 0.056
0.208 -0.087 0.058
0.210 -0.086 0.059
0.213 -0.085 0.059
0.214 -0.083 0.060
0.213 -0.081 0.059
0.212 -0.078 0.059
0.210 -0.075 0.058
0.215 -0.075 0.060
0.219 -0.075 0.061
0.219 -0.072 0.060
0.196 -0.063 0.054
0.191 -0.059 0.052
0.192 -0.058 0.053
0.193 -0.056 0.053
0.194 -0.055 0.053
0.195 -0.053 0.053
0.196 -0.052 0.054
0.203 -0.051 0.055
0.286 -0.062 0.078
0.289 -0.060 0.079
0.291 -0.057 0.079
0.291 -0.055 0.079
0.286 -0.051 0.078
0.279 -0.047 0.076
0.274 -0.044 0.074
0.277 -0.042 0.075
0.279 -0.040 0.076
0.282 -0.037 0.076
0.280 -0.034 0.076
0.278 -0.032 0.075
0.278 -0.029 0.075
0.281 -0.027 0.076
0.281 -0.024 0.076
0.283 -0.022 0.076
0.285 -0.020 0.077
0.285 -0.017 0.077
0.284 -0.014 0.077
0.284 -0.012 0.077
0.286 -0.009 0.077
0.284 -0.006 0.077
0.281 -0.004 0.076
0.285 -0.001 0.077
0.282 0.001 0.076
0.281 0.004 0.076
0.280 0.006 0.076
0.281 0.009 0.076
0.277 0.011 0.075
0.276 0.014 0.075
0.276 0.016 0.075
0.282 0.019 0.076
0.272 0.021 0.074
0.279 0.024 0.075
0.284 0.027 0.077
0.278 0.029 0.075
0.279 0.032 0.076
0.290 0.036 0.079
0.296 0.039 0.080
0.293 0.042 0.080
0.284 0.043 0.077
0.281 0.045 0.077
0.290 0.049 0.079
0.290 0.052 0.079
0.289 0.055 0.079
0.292 0.058 0.080
0.293 0.061 0.080
0.289 0.063 0.079
0.281 0.064 0.077
0.272 0.064 0.075
0.264 0.065 0.072
0.262 0.067 0.072
0.266 0.070 0.073
0.279 0.076 0.077
0.283 0.080 0.078
0.276 0.081 0.076
0.279 0.085 0.077
0.291 0.091 0.080
0.293 0.095 0.081
0.288 0.096 0.080
0.283 0.097 0.079
0.280 0.099 0.078
0.279 0.101 0.078
0.278 0.103 0.078
0.276 0.105 0.077
0.272 0.107 0.076
0.273 0.110 0.077
0.277 0.115 0.078
0.278 0.118 0.078
0.275 0.119 0.078
0.273 0.121 0.077
0.267 0.121 0.076
0.265 0.123 0.075
0.265 0.126 0.075
0.265 0.129 0.075
0.262 0.130 0.075
0.259 0.132 0.074
0.258 0.134 0.074
0.267 0.141 0.077
0.268 0.145 0.077
0.272 0.150 0.079
0.274 0.154 0.080
0.268 0.154 0.078
0.269 0.158 0.079
0.271 0.162 0.079
0.273 0.166 0.080
0.262 0.163 0.077
0.260 0.164 0.077
0.257 0.166 0.076
0.255 0.167 0.076
0.256 0.171 0.076
0.260 0.177 0.078
0.261 0.181 0.078
0.259 0.183 0.078
0.254 0.182 0.077
0.254 0.186 0.077
0.254 0.190 0.078
0.254 0.193 0.078
0.253 0.196 0.078
0.252 0.198 0.078
0.250 0.200 0.078
0.249 0.203 0.078
0.250 0.207 0.078
0.249 0.210 0.078
0.248 0.212 0.078
0.246 0.214 0.078
0.247 0.219 0.079
0.244 0.220 0.078
0.229 0.210 0.074
0.223 0.208 0.072
0.218 0.207 0.071
0.216 0.209 0.071
0.210 0.206 0.069
0.207 0.206 0.068
0.213 0.216 0.071
0.210 0.216 0.070
0.205 0.215 0.069
0.205 0.219 0.070
0.204 0.222 0.070
0.203 0.224 0.070
0.197 0.221 0.068
0.195 0.222 0.068
0.199 0.230 0.070
0.203 0.240 0.072
0.203 0.243 0.072
0.202 0.246 0.072
0.197 0.243 0.071
0.199 0.249 0.072
0.197 0.251 0.072
0.198 0.257 0.072
0.194 0.255 0.071
0.186 0.249 0.069
0.100 -0.137 0.038
0.101 -0.137 0.038
0.102 -0.136 0.038
0.103 -0.135 0.038
0.103 -0.133 0.038
0.103 -0.132 0.038
0.103 -0.131 0.038
0.104 -0.129 0.038
0.104 -0.128 0.038
0.105 -0.127 0.038
0.104 -0.124 0.037
0.104 -0.122 0.037
0.103 -0.119 0.037
0.103 -0.118 0.036
0.104 -0.117 0.037
0.105 -0.117 0.037
0.110 -0.120 0.038
0.110 -0.119 0.038
0.105 -0.111 0.036
0.109 -0.113 0.037
0.106 -0.109 0.036
0.119 -0.120 0.040
0.259 -0.254 0.087
0.266 -0.256 0.089
0.264 -0.250 0.088
0.263 -0.245 0.087
0.265 -0.243 0.087
0.266 -0.241 0.087
0.270 -0.240 0.088
0.272 -0.238 0.088
0.273 -0.235 0.088
0.267 -0.226 0.086
0.268 -0.223 0.086
0.266 -0.218 0.085
0.264 -0.213 0.084
0.213 -0.163 0.067
0.207 -0.157 0.065
0.207 -0.154 0.065
0.208 -0.152 0.065
0.205 -0.147 0.063
0.204 -0.144 0.063
0.205 -0.142 0.063
0.207 -0.141 0.063
0.206 -0.138 0.063
0.204 -0.134 0.062
0.202 -0.130 0.061
0.193 -0.122 0.058
0.172 -0.107 0.052
0.172 -0.105 0.052
0.170 -0.102 0.051
0.184 -0.108 0.055
0.210 -0.121 0.063
0.211 -0.119 0.063
0.211 -0.117 0.063
0.209 -0.114 0.062
0.208 -0.111 0.062
0.206 -0.108 0.061
0.207 -0.106 0.061
0.209 -0.105 0.061
0.211 -0.104 0.062
0.210 -0.101 0.061
0.207 -0.098 0.061
0.205 -0.094 0.060
0.207 -0.093 0.060
0.209 -0.092 0.061
0.209 -0.090 0.061
0.199 -0.084 0.058
0.210 -0.086 0.061
0.210 -0.084 0.061
0.208 -0.081 0.060
0.209 -0.079 0.060
0.211 -0.078 0.061
0.214 -0.077 0.061
0.214 -0.075 0.061
0.221 -0.075 0.063
0.221 -0.073 0.063
0.228 -0.073 0.065
0.226 -0.070 0.064
0.194 -0.057 0.055
0.194 -0.055 0.055
0.194 -0.053 0.055
0.194 -0.051 0.055
0.195 -0.050 0.055
0.199 -0.049 0.056
0.200 -0.047 0.056
0.201 -0.045 0.057
0.202 -0.044 0.057
0.212 -0.044 0.060
0.217 -0.043 0.061
0.262 -0.044 0.074
0.271 -0.044 0.076
0.275 -0.042 0.077
0.277 -0.039 0.078
0.275 -0.037 0.077
0.278 -0.034 0.078
0.277 -0.032 0.078
0.279 -0.029 0.078
0.280 -0.027 0.078
0.281 -0.024 0.079
0.280 -0.022 0.078
0.281 -0.019 0.079
0.282 -0.017 0.079
0.282 -0.014 0.079
0.283 -0.012 0.079
0.285 -0.009 0.080
0.281 -0.006 0.079
0.280 -0.004 0.078
0.281 -0.001 0.079
0.282 0.001 0.079
0.280 0.004 0.078
0.280 0.006 0.078
0.280 0.009 0.078
0.283 0.012 0.079
0.276 0.014 0.077
0.273 0.016 0.076
0.277 0.019 0.077
0.268 0.023 0.075
0.271 0.026 0.076
0.277 0.029 0.078
0.280 0.032 0.078
0.289 0.036 0.081
0.291 0.039 0.082
0.290 0.041 0.081
0.287 0.043 0.081
0.272 0.044 0.077
0.290 0.049 0.082
0.291 0.052 0.082
0.294 0.056 0.083
0.291 0.058 0.082
0.287 0.060 0.081
0.286 0.062 0.081
0.276 0.063 0.078
0.267 0.063 0.076
0.253 0.062 0.072
0.245 0.062 0.070
0.258 0.068 0.073
0.279 0.077 0.079
0.277 0.079 0.079
0.277 0.081 0.079
0.283 0.086 0.081
0.292 0.091 0.084
0.295 0.095 0.084
0.290 0.096 0.083
0.273 0.093 0.078
0.272 0.096 0.078
0.271 0.098 0.078
0.270 0.101 0.078
0.272 0.104 0.079
0.268 0.105 0.078
0.265 0.107 0.077
0.274 0.113 0.080
0.273 0.116 0.080
0.269 0.117 0.079
0.260 0.116 0.076
0.255 0.116 0.075
0.259 0.121 0.076
0.263 0.125 0.077
0.264 0.128 0.078
0.262 0.131 0.078
0.261 0.133 0.077
0.261 0.136 0.078
0.262 0.139 0.078
0.262 0.142 0.078
0.261 0.144 0.078
0.257 0.145 0.077
0.254 0.146 0.077
0.253 0.148 0.076
0.253 0.151 0.077
0.249 0.152 0.076
0.249 0.155 0.076
0.251 0.159 0.077
0.252 0.163 0.077
0.252 0.166 0.078
0.255 0.171 0.079
0.260 0.177 0.081
0.259 0.180 0.081
0.253 0.179 0.079
0.251 0.181 0.079
0.251 0.184 0.079
0.252 0.188 0.080
0.251 0.191 0.080
0.251 0.194 0.080
0.251 0.198 0.080
0.250 0.200 0.080
0.248 0.202 0.080
0.247 0.205 0.080
0.243 0.204 0.079
0.233 0.203 0.077
0.237 0.210 0.078
0.213 0.193 0.071
0.217 0.199 0.072
0.214 0.200 0.072
0.211 0.200 0.071
0.203 0.196 0.069
0.204 0.200 0.069
0.204 0.204 0.070
0.206 0.210 0.071
0.202 0.209 0.070
0.200 0.211 0.070
0.197 0.211 0.069
0.198 0.215 0.070
0.196 0.217 0.070
0.196 0.220 0.070
0.196 0.223 0.070
0.199 0.231 0.072
0.202 0.239 0.074
0.202 0.243 0.074
0.202 0.246 0.075
0.203 0.251 0.075
0.200 0.252 0.075
0.195 0.250 0.074
0.193 0.251 0.073
0.189 0.249 0.072
0.184 0.245 0.070
0.100 -0.137 0.039
0.102 -0.138 0.039
0.102 -0.137 0.039
0.103 -0.135 0.039
0.103 -0.134 0.039
0.104 -0.133 0.040
0.104 -0.132 0.040
0.103 -0.129 0.039
0.104 -0.128 0.039
0.105 -0.127 0.039
0.104 -0.124 0.038
0.104 -0.122 0.038
0.104 -0.120 0.038
0.104 -0.119 0.038
0.104 -0.118 0.038
0.110 -0.122 0.040
0.108 -0.118 0.039
0.110 -0.118 0.039
0.101 -0.107 0.036
0.112 -0.117 0.040
0.113 -0.116 0.040
0.116 -0.117 0.040
0.122 -0.121 0.042
0.260 -0.251 0.090
0.255 -0.242 0.087
0.259 -0.242 0.088
0.258 -0.238 0.088
0.263 -0.238 0.089
0.266 -0.237 0.089
0.268 -0.235 0.090
0.263 -0.227 0.088
0.262 -0.223 0.087
0.263 -0.220 0.087
0.264 -0.217 0.087
0.262 -0.212 0.086
0.257 -0.204 0.084
0.212 -0.163 0.069
0.206 -0.156 0.067
0.205 -0.153 0.066
0.206 -0.151 0.066
0.206 -0.148 0.066
0.205 -0.145 0.065
0.204 -0.142 0.065
0.205 -0.140 0.065
0.203 -0.136 0.064
0.201 -0.132 0.063
0.194 -0.125 0.061
0.175 -0.111 0.055
0.173 -0.108 0.054
0.173 -0.106 0.054
0.210 -0.124 0.065
0.211 -0.122 0.065
0.214 -0.121 0.066
0.214 -0.119 0.066
0.213 -0.116 0.065
0.210 -0.112 0.064
0.209 -0.110 0.064
0.209 -0.107 0.064
0.210 -0.105 0.064
0.212 -0.104 0.064
0.212 -0.102 0.064
0.208 -0.098 0.063
0.206 -0.095 0.062
0.210 -0.095 0.063
0.210 -0.093 0.063
0.209 -0.090 0.063
0.211 -0.088 0.063
0.207 -0.085 0.062
0.206 -0.082 0.062
0.205 -0.080 0.061
0.207 -0.079 0.062
0.210 -0.078 0.062
0.212 -0.076 0.063
0.220 -0.077 0.065
0.214 -0.073 0.063
0.210 -0.070 0.062
0.227 -0.073 0.067
0.229 -0.071 0.067
0.235 -0.071 0.069
0.245 -0.071 0.072
0.236 -0.067 0.069
0.210 -0.055 0.062
0.201 -0.051 0.059
0.199 -0.049 0.058
0.199 -0.047 0.058
0.200 -0.045 0.058
0.201 -0.044 0.059
0.202 -0.042 0.059
0.204 -0.040 0.059
0.207 -0.039 0.060
0.207 -0.037 0.060
0.208 -0.035 0.060
0.212 -0.034 0.061
0.213 -0.032 0.062
0.222 -0.031 0.064
0.267 -0.033 0.077
0.279 -0.032 0.081
0.279 -0.029 0.081
0.277 -0.027 0.080
0.276 -0.024 0.080
0.275 -0.021 0.080
0.275 -0.019 0.080
0.276 -0.016 0.080
0.279 -0.014 0.081
0.278 -0.011 0.080
0.277 -0.009 0.080
0.278 -0.006 0.080
0.277 -0.004 0.080
0.278 -0.001 0.080
0.277 0.001 0.080
0.277 0.004 0.080
0.279 0.006 0.081
0.283 0.009 0.082
0.282 0.012 0.082
0.287 0.014 0.083
0.278 0.017 0.080
0.277 0.019 0.080
0.279 0.022 0.081
0.274 0.024 0.079
0.269 0.026 0.078
0.272 0.029 0.079
0.279 0.032 0.081
0.282 0.035 0.082
0.288 0.038 0.084
0.291 0.041 0.084
0.287 0.044 0.084
0.285 0.046 0.083
0.283 0.048 0.082
0.285 0.051 0.083
0.289 0.055 0.084
0.289 0.057 0.084
0.286 0.059 0.083
0.276 0.060 0.081
0.270 0.061 0.079
0.251 0.059 0.074
0.244 0.060 0.071
0.232 0.059 0.068
0.249 0.066 0.073
0.254 0.070 0.075
0.262 0.074 0.077
0.273 0.080 0.081
0.282 0.086 0.084
0.287 0.090 0.085
0.289 0.093 0.086
0.287 0.096 0.085
0.271 0.093 0.081
0.263 0.093 0.078
0.260 0.095 0.078
0.262 0.098 0.078
0.261 0.100 0.078
0.262 0.103 0.079
0.250 0.101 0.075
0.259 0.107 0.078
0.265 0.112 0.080
0.253 0.110 0.076
0.252 0.112 0.076
0.253 0.115 0.077
0.254 0.118 0.077
0.257 0.122 0.078
0.259 0.126 0.079
0.261 0.130 0.080
0.258 0.131 0.079
0.258 0.134 0.079
0.259 0.137 0.080
0.256 0.139 0.079
0.253 0.140 0.078
0.250 0.141 0.078
0.248 0.143 0.077
0.247 0.145 0.077
0.245 0.147 0.077
0.245 0.149 0.077
0.245 0.153 0.077
0.246 0.156 0.078
0.249 0.161 0.079
0.251 0.165 0.080
0.256 0.172 0.082
0.256 0.175 0.082
0.253 0.176 0.081
0.250 0.177 0.081
0.248 0.179 0.080
0.247 0.182 0.080
0.248 0.186 0.081
0.249 0.190 0.082
0.250 0.194 0.082
0.252 0.198 0.083
0.251 0.201 0.083
0.248 0.203 0.083
0.244 0.202 0.082
0.224 0.190 0.076
0.215 0.185 0.073
0.212 0.185 0.072
0.210 0.187 0.072
0.209 0.189 0.072
0.208 0.192 0.072
0.215 0.201 0.074
0.209 0.199 0.073
0.205 0.198 0.072
0.203 0.200 0.072
0.204 0.204 0.072
0.204 0.208 0.073
0.202 0.209 0.072
0.204 0.215 0.074
0.207 0.222 0.075
0.199 0.217 0.073
0.203 0.224 0.075
0.203 0.228 0.075
0.196 0.224 0.073
0.196 0.229 0.074
0.200 0.236 0.075
0.200 0.241 0.076
0.200 0.244 0.076
0.201 0.249 0.077
0.201 0.253 0.078
0.197 0.252 0.077
0.192 0.250 0.075
0.190 0.251 0.075
0.179 0.240 0.071
0.102 -0.138 0.041
0.103 -0.137 0.041
0.103 -0.135 0.041
0.103 -0.134 0.041
0.104 -0.133 0.041
0.105 -0.134 0.041
0.104 -0.130 0.040
0.104 -0.128 0.040
0.105 -0.128 0.041
0.105 -0.125 0.040
0.104 -0.122 0.040
0.104 -0.121 0.039
0.104 -0.119 0.039
0.107 -0.121 0.040
0.113 -0.126 0.042
0.104 -0.114 0.039
0.104 -0.112 0.038
0.100 -0.106 0.037
0.111 -0.116 0.041
0.120 -0.123 0.043
0.116 -0.117 0.042
0.117 -0.117 0.042
0.118 -0.116 0.042
0.251 -0.239 0.089
0.251 -0.235 0.088
0.256 -0.236 0.090
0.258 -0.234 0.090
0.262 -0.234 0.091
0.261 -0.229 0.090
0.258 -0.223 0.089
0.258 -0.220 0.089
0.260 -0.218 0.089
0.260 -0.214 0.089
0.258 -0.209 0.088
0.257 -0.204 0.087
0.224 -0.176 0.076
0.218 -0.168 0.073
0.207 -0.157 0.069
0.203 -0.151 0.067
0.204 -0.149 0.068
0.205 -0.147 0.068
0.203 -0.144 0.067
0.202 -0.140 0.066
0.202 -0.138 0.066
0.202 -0.136 0.066
0.193 -0.127 0.063
0.182 -0.118 0.059
0.176 -0.112 0.057
0.175 -0.109 0.057
0.198 -0.122 0.064
0.203 -0.122 0.065
0.208 -0.123 0.067
0.212 -0.123 0.068
0.214 -0.122 0.068
0.216 -0.120 0.069
0.214 -0.117 0.068
0.213 -0.114 0.067
0.211 -0.111 0.066
0.208 -0.107 0.066
0.206 -0.104 0.065
0.212 -0.104 0.066
0.211 -0.102 0.066
0.208 -0.098 0.065
0.206 -0.095 0.064
0.209 -0.094 0.065
0.211 -0.093 0.065
0.206 -0.089 0.064
0.210 -0.088 0.065
0.203 -0.083 0.063
0.206 -0.082 0.063
0.209 -0.082 0.064
0.206 -0.078 0.063
0.211 -0.078 0.065
0.214 -0.077 0.066
0.218 -0.077 0.067
0.218 -0.074 0.067
0.219 -0.073 0.067
0.227 -0.073 0.069
0.234 -0.073 0.071
0.238 -0.072 0.072
0.241 -0.070 0.073
0.246 -0.070 0.075
0.254 -0.069 0.077
0.274 -0.072 0.083
0.275 -0.070 0.083
0.271 -0.066 0.082
0.264 -0.062 0.080
0.214 -0.044 0.064
0.212 -0.042 0.064
0.207 -0.039 0.062
0.207 -0.037 0.062
0.207 -0.035 0.062
0.207 -0.033 0.062
0.209 -0.032 0.063
0.211 -0.030 0.063
0.212 -0.028 0.064
0.214 -0.026 0.064
0.215 -0.025 0.064
0.232 -0.024 0.069
0.270 -0.023 0.081
0.271 -0.021 0.081
0.270 -0.019 0.081
0.273 -0.016 0.082
0.273 -0.014 0.082
0.273 -0.011 0.082
0.273 -0.009 0.081
0.272 -0.006 0.081
0.272 -0.004 0.081
0.269 -0.001 0.080
0.272 0.001 0.081
0.273 0.004 0.081
0.275 0.006 0.082
0.285 0.009 0.085
0.287 0.012 0.086
0.285 0.014 0.085
0.282 0.017 0.084
0.275 0.019 0.082
0.268 0.021 0.080
0.268 0.023 0.080
0.270 0.026 0.081
0.271 0.029 0.081
0.269 0.031 0.081
0.280 0.035 0.084
0.285 0.038 0.086
0.287 0.041 0.086
0.286 0.043 0.086
0.283 0.046 0.085
0.284 0.048 0.085
0.287 0.052 0.086
0.283 0.054 0.085
0.284 0.056 0.086
0.279 0.058 0.084
0.266 0.058 0.080
0.248 0.056 0.075
0.237 0.056 0.072
0.225 0.055 0.068
0.236 0.060 0.072
0.239 0.064 0.073
0.246 0.068 0.075
0.261 0.074 0.080
0.271 0.080 0.083
0.282 0.086 0.086
0.280 0.088 0.086
0.277 0.090 0.085
0.272 0.091 0.083
0.245 0.084 0.075
0.243 0.086 0.075
0.244 0.089 0.075
0.250 0.093 0.077
0.253 0.097 0.078
0.246 0.097 0.076
0.241 0.097 0.075
0.244 0.101 0.076
0.255 0.108 0.079
0.247 0.108 0.077
0.247 0.110 0.077
0.250 0.114 0.078
0.252 0.118 0.079
0.251 0.120 0.079
0.250 0.122 0.079
0.252 0.126 0.080
0.251 0.128 0.080
0.251 0.131 0.080
0.251 0.134 0.080
0.250 0.136 0.080
0.247 0.137 0.079
0.248 0.140 0.080
0.249 0.143 0.080
0.247 0.145 0.080
0.245 0.147 0.079
0.245 0.150 0.080
0.245 0.153 0.080
0.245 0.156 0.080
0.244 0.158 0.080
0.245 0.162 0.081
0.250 0.168 0.083
0.250 0.171 0.083
0.246 0.171 0.082
0.247 0.176 0.082
