VERSION .7
FIELDS x y z
SIZE 4 4 4
TYPE F F F
COUNT 1 1 1
WIDTH     2517
HEIGHT 1
VIEWPOINT 0 0 0 1 0 0 0
POINTS     2517
DATA ascii
0.212 -0.144 -0.011
0.217 -0.144 -0.011
0.216 -0.141 -0.011
0.216 -0.139 -0.011
0.215 -0.136 -0.011
0.217 -0.135 -0.011
0.215 -0.131 -0.011
0.217 -0.130 -0.011
0.220 -0.130 -0.011
0.223 -0.129 -0.011
0.224 -0.127 -0.011
0.215 -0.120 -0.011
0.211 -0.115 -0.011
0.209 -0.111 -0.011
0.209 -0.110 -0.011
0.212 -0.109 -0.011
0.213 -0.107 -0.011
0.213 -0.105 -0.011
0.217 -0.104 -0.011
0.219 -0.103 -0.011
0.223 -0.103 -0.011
0.225 -0.102 -0.011
0.225 -0.099 -0.011
0.226 -0.098 -0.011
0.226 -0.095 -0.011
0.219 -0.090 -0.011
0.218 -0.088 -0.011
0.214 -0.084 -0.011
0.211 -0.081 -0.010
0.214 -0.080 -0.011
0.237 -0.086 -0.012
0.244 -0.086 -0.012
0.243 -0.084 -0.012
0.246 -0.082 -0.012
0.249 -0.081 -0.012
0.251 -0.079 -0.012
0.256 -0.078 -0.013
0.262 -0.078 -0.013
0.271 -0.078 -0.013
0.384 -0.107 -0.019
0.396 -0.106 -0.019
0.406 -0.105 -0.020
0.411 -0.103 -0.020
0.421 -0.101 -0.021
0.430 -0.100 -0.021
0.429 -0.095 -0.021
0.407 -0.087 -0.020
0.394 -0.080 -0.019
0.380 -0.074 -0.018
0.376 -0.070 -0.018
0.290 -0.051 -0.014
0.288 -0.048 -0.014
0.288 -0.045 -0.014
0.293 -0.044 -0.014
0.297 -0.042 -0.014
0.292 -0.038 -0.014
0.281 -0.034 -0.014
0.283 -0.032 -0.014
0.289 -0.030 -0.014
0.295 -0.028 -0.014
0.292 -0.025 -0.014
0.294 -0.023 -0.014
0.304 -0.021 -0.015
0.308 -0.018 -0.015
0.307 -0.015 -0.015
0.310 -0.013 -0.015
0.302 -0.007 -0.015
0.303 -0.004 -0.015
0.305 -0.001 -0.015
0.307 0.001 -0.015
0.310 0.004 -0.015
0.311 0.007 -0.015
0.315 0.010 -0.015
0.315 0.013 -0.015
0.316 0.016 -0.015
0.316 0.018 -0.015
0.318 0.021 -0.015
0.322 0.025 -0.016
0.322 0.027 -0.016
0.321 0.030 -0.016
0.320 0.033 -0.016
0.320 0.036 -0.016
0.321 0.039 -0.016
0.322 0.042 -0.016
0.324 0.045 -0.016
0.321 0.048 -0.016
0.321 0.051 -0.016
0.321 0.054 -0.016
0.322 0.057 -0.016
0.321 0.060 -0.016
0.320 0.062 -0.016
0.319 0.065 -0.016
0.318 0.068 -0.016
0.317 0.071 -0.015
0.317 0.074 -0.015
0.317 0.076 -0.015
0.315 0.079 -0.015
0.315 0.082 -0.015
0.315 0.085 -0.015
0.321 0.089 -0.016
0.315 0.091 -0.015
0.317 0.094 -0.016
0.334 0.103 -0.016
0.332 0.105 -0.016
0.317 0.103 -0.016
0.310 0.104 -0.015
0.315 0.109 -0.016
0.340 0.121 -0.017
0.340 0.124 -0.017
0.334 0.126 -0.017
0.326 0.126 -0.016
0.341 0.211 -0.018
0.324 0.204 -0.017
0.328 0.211 -0.017
0.430 0.476 -0.025
0.505 0.587 -0.030
0.510 0.602 -0.030
0.505 0.606 -0.030
0.490 0.598 -0.029
0.435 0.548 -0.026
0.424 0.543 -0.026
0.438 0.569 -0.027
0.167 -0.226 -0.008
0.172 -0.231 -0.008
0.169 -0.223 -0.008
0.165 -0.216 -0.008
0.169 -0.217 -0.008
0.170 -0.216 -0.008
0.178 -0.223 -0.008
0.192 -0.236 -0.009
0.200 -0.243 -0.009
0.212 -0.253 -0.010
0.214 -0.252 -0.010
0.211 -0.245 -0.010
0.214 -0.245 -0.010
0.208 -0.234 -0.010
0.258 -0.217 -0.011
0.266 -0.220 -0.011
0.275 -0.224 -0.012
0.277 -0.222 -0.012
0.211 -0.164 -0.009
0.206 -0.157 -0.009
0.208 -0.156 -0.009
0.208 -0.154 -0.009
0.209 -0.151 -0.009
0.214 -0.153 -0.009
0.213 -0.150 -0.009
0.211 -0.146 -0.009
0.210 -0.142 -0.009
0.212 -0.142 -0.009
0.219 -0.144 -0.009
0.217 -0.140 -0.009
0.216 -0.137 -0.009
0.217 -0.135 -0.009
0.218 -0.133 -0.009
0.221 -0.133 -0.009
0.216 -0.127 -0.009
0.225 -0.130 -0.009
0.221 -0.125 -0.009
0.214 -0.119 -0.009
0.206 -0.112 -0.008
0.202 -0.108 -0.008
0.208 -0.109 -0.009
0.206 -0.106 -0.008
0.206 -0.104 -0.008
0.205 -0.101 -0.008
0.207 -0.100 -0.008
0.213 -0.101 -0.009
0.222 -0.103 -0.009
0.224 -0.101 -0.009
0.224 -0.099 -0.009
0.223 -0.096 -0.009
0.225 -0.095 -0.009
0.218 -0.090 -0.009
0.217 -0.087 -0.009
0.217 -0.085 -0.009
0.214 -0.082 -0.009
0.210 -0.078 -0.008
0.229 -0.083 -0.009
0.240 -0.085 -0.010
0.241 -0.083 -0.010
0.243 -0.081 -0.010
0.240 -0.078 -0.010
0.245 -0.077 -0.010
0.253 -0.077 -0.010
0.264 -0.078 -0.011
0.269 -0.077 -0.011
0.385 -0.107 -0.015
0.399 -0.107 -0.016
0.409 -0.106 -0.016
0.415 -0.104 -0.016
0.417 -0.100 -0.017
0.431 -0.100 -0.017
0.429 -0.095 -0.017
0.385 -0.078 -0.015
0.384 -0.075 -0.015
0.382 -0.071 -0.015
0.289 -0.051 -0.011
0.286 -0.048 -0.011
0.286 -0.045 -0.011
0.291 -0.043 -0.011
0.295 -0.041 -0.012
0.294 -0.038 -0.012
0.285 -0.035 -0.011
0.281 -0.032 -0.011
0.291 -0.030 -0.011
0.299 -0.028 -0.012
0.303 -0.026 -0.012
0.301 -0.023 -0.012
0.304 -0.021 -0.012
0.317 -0.019 -0.012
0.307 -0.015 -0.012
0.307 -0.012 -0.012
0.312 -0.010 -0.012
0.305 -0.007 -0.012
0.302 -0.004 -0.012
0.303 -0.001 -0.012
0.306 0.001 -0.012
0.308 0.004 -0.012
0.311 0.007 -0.012
0.312 0.010 -0.012
0.314 0.013 -0.012
0.314 0.015 -0.012
0.315 0.018 -0.012
0.315 0.021 -0.012
0.319 0.024 -0.013
0.320 0.027 -0.013
0.320 0.030 -0.013
0.321 0.033 -0.013
0.323 0.036 -0.013
0.323 0.039 -0.013
0.321 0.042 -0.013
0.320 0.045 -0.013
0.320 0.048 -0.013
0.320 0.051 -0.013
0.320 0.053 -0.013
0.320 0.056 -0.013
0.320 0.059 -0.013
0.319 0.062 -0.013
0.318 0.065 -0.013
0.317 0.068 -0.013
0.317 0.070 -0.013
0.316 0.073 -0.013
0.316 0.076 -0.013
0.315 0.079 -0.013
0.315 0.082 -0.013
0.330 0.089 -0.013
0.324 0.090 -0.013
0.319 0.092 -0.013
0.324 0.096 -0.013
0.330 0.101 -0.013
0.322 0.102 -0.013
0.320 0.105 -0.013
0.305 0.102 -0.012
0.327 0.113 -0.013
0.335 0.119 -0.013
0.325 0.122 -0.013
0.320 0.123 -0.013
0.331 0.131 -0.013
0.355 0.144 -0.014
0.361 0.154 -0.015
0.364 0.159 -0.015
0.352 0.168 -0.014
0.348 0.173 -0.014
0.334 0.173 -0.014
0.329 0.192 -0.014
0.331 0.198 -0.014
0.332 0.202 -0.014
0.329 0.204 -0.014
0.326 0.205 -0.014
0.319 0.205 -0.013
0.316 0.207 -0.013
0.312 0.208 -0.013
0.309 0.210 -0.013
0.308 0.213 -0.013
0.309 0.217 -0.013
0.305 0.218 -0.013
0.306 0.223 -0.013
1.363 1.321 -0.062
1.352 1.332 -0.061
0.497 0.558 -0.023
0.498 0.569 -0.023
0.503 0.584 -0.024
0.510 0.602 -0.024
0.506 0.607 -0.024
0.492 0.600 -0.024
0.431 0.543 -0.021
0.421 0.539 -0.020
0.465 0.604 -0.023
0.166 -0.229 -0.006
0.165 -0.225 -0.006
0.166 -0.222 -0.006
0.167 -0.220 -0.006
0.169 -0.221 -0.006
0.175 -0.226 -0.006
0.177 -0.224 -0.006
0.181 -0.227 -0.006
0.198 -0.244 -0.007
0.206 -0.250 -0.007
0.204 -0.245 -0.007
0.193 -0.228 -0.007
0.195 -0.227 -0.007
0.198 -0.226 -0.007
0.200 -0.225 -0.007
0.202 -0.224 -0.007
0.203 -0.222 -0.007
0.205 -0.221 -0.007
0.207 -0.219 -0.007
0.210 -0.220 -0.007
0.212 -0.218 -0.007
0.214 -0.216 -0.007
0.215 -0.215 -0.007
0.217 -0.214 -0.007
0.221 -0.213 -0.007
0.224 -0.213 -0.008
0.227 -0.213 -0.008
0.230 -0.212 -0.008
0.233 -0.212 -0.008
0.235 -0.210 -0.008
0.237 -0.209 -0.008
0.239 -0.208 -0.008
0.244 -0.208 -0.008
0.246 -0.207 -0.008
0.247 -0.205 -0.008
0.248 -0.202 -0.008
0.251 -0.201 -0.008
0.217 -0.168 -0.007
0.210 -0.161 -0.007
0.201 -0.151 -0.007
0.201 -0.148 -0.007
0.206 -0.150 -0.007
0.211 -0.151 -0.007
0.212 -0.149 -0.007
0.209 -0.145 -0.007
0.208 -0.141 -0.007
0.208 -0.138 -0.007
0.211 -0.138 -0.007
0.215 -0.138 -0.007
0.218 -0.138 -0.007
0.222 -0.138 -0.007
0.220 -0.134 -0.007
0.219 -0.131 -0.007
0.221 -0.130 -0.007
0.215 -0.124 -0.007
0.215 -0.122 -0.007
0.213 -0.119 -0.007
0.210 -0.115 -0.007
0.208 -0.111 -0.007
0.211 -0.110 -0.007
0.210 -0.108 -0.007
0.206 -0.104 -0.006
0.214 -0.105 -0.007
0.209 -0.101 -0.007
0.211 -0.100 -0.007
0.217 -0.100 -0.007
0.227 -0.103 -0.007
0.217 -0.096 -0.007
0.224 -0.097 -0.007
0.225 -0.095 -0.007
0.224 -0.092 -0.007
0.217 -0.087 -0.007
0.217 -0.085 -0.007
0.215 -0.082 -0.007
0.215 -0.080 -0.007
0.230 -0.084 -0.007
0.237 -0.084 -0.007
0.244 -0.084 -0.008
0.245 -0.082 -0.008
0.242 -0.079 -0.007
0.246 -0.077 -0.008
0.258 -0.079 -0.008
0.267 -0.079 -0.008
0.383 -0.106 -0.012
0.400 -0.107 -0.012
0.414 -0.107 -0.013
0.418 -0.104 -0.013
0.421 -0.101 -0.013
0.427 -0.099 -0.013
0.432 -0.096 -0.013
0.385 -0.078 -0.012
0.382 -0.074 -0.012
0.374 -0.069 -0.011
0.294 -0.052 -0.009
0.287 -0.048 -0.009
0.286 -0.045 -0.009
0.289 -0.043 -0.009
0.293 -0.041 -0.009
0.295 -0.039 -0.009
0.296 -0.036 -0.009
0.280 -0.032 -0.009
0.286 -0.030 -0.009
0.300 -0.028 -0.009
0.306 -0.026 -0.009
0.312 -0.024 -0.009
0.318 -0.022 -0.010
0.321 -0.019 -0.010
0.316 -0.016 -0.010
0.298 -0.012 -0.009
0.298 -0.009 -0.009
0.304 -0.007 -0.009
0.303 -0.004 -0.009
0.302 -0.001 -0.009
0.304 0.001 -0.009
0.307 0.004 -0.009
0.309 0.007 -0.009
0.311 0.010 -0.009
0.312 0.013 -0.009
0.314 0.015 -0.010
0.314 0.018 -0.010
0.316 0.021 -0.010
0.317 0.024 -0.010
0.319 0.027 -0.010
0.319 0.030 -0.010
0.321 0.033 -0.010
0.319 0.036 -0.010
0.320 0.039 -0.010
0.320 0.042 -0.010
0.320 0.045 -0.010
0.320 0.048 -0.010
0.319 0.050 -0.010
0.319 0.053 -0.010
0.319 0.056 -0.010
0.319 0.059 -0.010
0.318 0.062 -0.010
0.316 0.064 -0.010
0.316 0.067 -0.010
0.316 0.070 -0.010
0.315 0.073 -0.010
0.315 0.076 -0.010
0.315 0.079 -0.010
0.314 0.082 -0.010
0.334 0.090 -0.010
0.327 0.091 -0.010
0.323 0.093 -0.010
0.319 0.095 -0.010
0.313 0.096 -0.010
0.316 0.100 -0.010
0.306 0.100 -0.009
0.325 0.109 -0.010
0.328 0.113 -0.010
0.327 0.116 -0.010
0.329 0.120 -0.010
0.327 0.123 -0.010
0.326 0.126 -0.010
0.338 0.134 -0.011
0.343 0.139 -0.011
0.347 0.144 -0.011
0.357 0.152 -0.011
0.368 0.160 -0.012
0.328 0.146 -0.010
0.334 0.166 -0.011
0.332 0.172 -0.010
0.326 0.180 -0.010
0.328 0.184 -0.010
0.330 0.189 -0.011
0.331 0.193 -0.011
0.329 0.196 -0.011
0.323 0.196 -0.010
0.323 0.200 -0.010
0.321 0.203 -0.010
0.318 0.205 -0.010
0.316 0.206 -0.010
0.314 0.209 -0.010
0.310 0.210 -0.010
0.309 0.213 -0.010
0.309 0.217 -0.010
0.304 0.217 -0.010
0.302 0.220 -0.010
1.328 1.089 -0.044
1.318 1.099 -0.044
1.305 1.107 -0.044
1.308 1.128 -0.044
1.313 1.152 -0.044
1.314 1.172 -0.045
1.321 1.198 -0.045
1.337 1.233 -0.046
1.332 1.248 -0.046
1.351 1.288 -0.046
1.359 1.317 -0.047
1.347 1.326 -0.047
1.342 1.343 -0.047
1.347 1.371 -0.047
0.509 0.591 -0.018
0.508 0.600 -0.018
0.505 0.605 -0.018
0.458 0.595 -0.017
0.153 -0.211 -0.004
0.163 -0.222 -0.004
0.165 -0.221 -0.004
0.166 -0.220 -0.004
0.171 -0.223 -0.004
0.179 -0.230 -0.004
0.182 -0.231 -0.004
0.189 -0.236 -0.005
0.198 -0.244 -0.005
0.200 -0.243 -0.005
0.192 -0.230 -0.005
0.193 -0.228 -0.005
0.195 -0.227 -0.005
0.197 -0.226 -0.005
0.200 -0.225 -0.005
0.202 -0.224 -0.005
0.203 -0.222 -0.005
0.205 -0.221 -0.005
0.207 -0.220 -0.005
0.210 -0.219 -0.005
0.212 -0.218 -0.005
0.213 -0.216 -0.005
0.215 -0.215 -0.005
0.218 -0.214 -0.005
0.220 -0.213 -0.005
0.224 -0.214 -0.005
0.227 -0.213 -0.005
0.230 -0.212 -0.005
0.232 -0.211 -0.005
0.235 -0.211 -0.005
0.238 -0.210 -0.005
0.241 -0.209 -0.006
0.243 -0.208 -0.006
0.246 -0.207 -0.006
0.247 -0.205 -0.006
0.248 -0.202 -0.006
0.244 -0.195 -0.006
0.232 -0.183 -0.005
0.224 -0.174 -0.005
0.216 -0.165 -0.005
0.207 -0.155 -0.005
0.203 -0.150 -0.005
0.209 -0.152 -0.005
0.215 -0.153 -0.005
0.216 -0.152 -0.005
0.208 -0.143 -0.005
0.205 -0.139 -0.005
0.206 -0.137 -0.005
0.207 -0.136 -0.005
0.215 -0.139 -0.005
0.223 -0.141 -0.005
0.227 -0.141 -0.005
0.223 -0.136 -0.005
0.218 -0.131 -0.005
0.218 -0.128 -0.005
0.216 -0.125 -0.005
0.214 -0.121 -0.005
0.215 -0.119 -0.005
0.213 -0.116 -0.005
0.208 -0.111 -0.005
0.205 -0.107 -0.005
0.210 -0.108 -0.005
0.210 -0.106 -0.005
0.214 -0.105 -0.005
0.214 -0.103 -0.005
0.213 -0.101 -0.005
0.216 -0.100 -0.005
0.215 -0.097 -0.005
0.224 -0.099 -0.005
0.221 -0.096 -0.005
0.225 -0.095 -0.005
0.225 -0.093 -0.005
0.220 -0.088 -0.005
0.218 -0.085 -0.005
0.214 -0.082 -0.005
0.205 -0.077 -0.004
0.237 -0.086 -0.005
0.246 -0.087 -0.005
0.243 -0.084 -0.005
0.247 -0.082 -0.005
0.250 -0.081 -0.005
0.262 -0.082 -0.006
0.263 -0.081 -0.006
0.272 -0.081 -0.006
0.384 -0.107 -0.008
0.399 -0.107 -0.009
0.405 -0.105 -0.009
0.415 -0.104 -0.009
0.422 -0.101 -0.009
0.434 -0.100 -0.009
0.426 -0.095 -0.009
0.400 -0.085 -0.009
0.387 -0.079 -0.008
0.379 -0.074 -0.008
0.295 -0.052 -0.006
0.287 -0.048 -0.006
0.287 -0.045 -0.006
0.288 -0.043 -0.006
0.291 -0.041 -0.006
0.294 -0.038 -0.006
0.292 -0.035 -0.006
0.283 -0.032 -0.006
0.284 -0.029 -0.006
0.292 -0.028 -0.006
0.304 -0.026 -0.007
0.316 -0.024 -0.007
0.323 -0.022 -0.007
0.323 -0.019 -0.007
0.319 -0.016 -0.007
0.307 -0.012 -0.007
0.297 -0.009 -0.006
0.303 -0.007 -0.006
0.307 -0.004 -0.007
0.302 -0.001 -0.006
0.303 0.001 -0.006
0.304 0.004 -0.006
0.306 0.007 -0.007
0.308 0.010 -0.007
0.310 0.012 -0.007
0.311 0.015 -0.007
0.314 0.018 -0.007
0.313 0.021 -0.007
0.315 0.024 -0.007
0.317 0.027 -0.007
0.318 0.030 -0.007
0.318 0.033 -0.007
0.317 0.036 -0.007
0.318 0.039 -0.007
0.318 0.042 -0.007
0.319 0.045 -0.007
0.318 0.047 -0.007
0.319 0.050 -0.007
0.318 0.053 -0.007
0.318 0.056 -0.007
0.318 0.059 -0.007
0.316 0.062 -0.007
0.315 0.064 -0.007
0.315 0.067 -0.007
0.315 0.070 -0.007
0.315 0.073 -0.007
0.314 0.076 -0.007
0.313 0.078 -0.007
0.321 0.086 -0.007
0.331 0.092 -0.007
0.325 0.094 -0.007
0.309 0.092 -0.007
0.310 0.095 -0.007
0.313 0.099 -0.007
0.326 0.106 -0.007
0.326 0.109 -0.007
0.320 0.111 -0.007
0.333 0.118 -0.007
0.335 0.122 -0.007
0.329 0.123 -0.007
0.336 0.129 -0.007
0.346 0.137 -0.008
0.350 0.142 -0.008
0.348 0.145 -0.008
0.351 0.149 -0.008
0.356 0.155 -0.008
0.340 0.152 -0.007
0.309 0.144 -0.007
0.331 0.161 -0.007
0.335 0.167 -0.007
0.333 0.169 -0.007
0.323 0.168 -0.007
0.327 0.173 -0.007
0.337 0.186 -0.007
0.333 0.187 -0.007
0.333 0.191 -0.007
0.331 0.194 -0.007
0.326 0.194 -0.007
0.324 0.197 -0.007
0.322 0.199 -0.007
0.321 0.202 -0.007
0.318 0.204 -0.007
0.317 0.207 -0.007
0.315 0.210 -0.007
0.311 0.211 -0.007
0.310 0.214 -0.007
0.309 0.217 -0.007
0.299 0.214 -0.007
1.317 1.062 -0.030
1.309 1.074 -0.030
1.310 1.093 -0.030
1.304 1.106 -0.030
1.307 1.127 -0.030
1.318 1.156 -0.031
1.321 1.178 -0.031
1.319 1.195 -0.031
1.314 1.211 -0.031
1.336 1.273 -0.032
1.347 1.326 -0.032
1.337 1.339 -0.032
1.351 1.376 -0.032
1.351 1.398 -0.032
0.494 0.537 -0.012
0.457 0.505 -0.011
0.456 0.512 -0.011
0.505 0.587 -0.012
0.509 0.601 -0.012
0.504 0.605 -0.012
0.491 0.599 -0.012
0.163 -0.224 -0.002
0.164 -0.223 -0.002
0.166 -0.222 -0.002
0.169 -0.223 -0.002
0.176 -0.229 -0.002
0.181 -0.233 -0.002
0.186 -0.235 -0.002
0.192 -0.240 -0.002
0.195 -0.240 -0.002
0.190 -0.231 -0.002
0.191 -0.229 -0.002
0.193 -0.228 -0.002
0.195 -0.227 -0.002
0.197 -0.226 -0.002
0.200 -0.225 -0.003
0.202 -0.225 -0.003
0.204 -0.223 -0.003
0.205 -0.221 -0.003
0.208 -0.220 -0.003
0.210 -0.220 -0.003
0.212 -0.218 -0.003
0.214 -0.217 -0.003
0.216 -0.216 -0.003
0.218 -0.215 -0.003
0.221 -0.214 -0.003
0.224 -0.214 -0.003
0.228 -0.214 -0.003
0.230 -0.212 -0.003
0.232 -0.211 -0.003
0.235 -0.210 -0.003
0.238 -0.210 -0.003
0.241 -0.209 -0.003
0.244 -0.208 -0.003
0.246 -0.207 -0.003
0.248 -0.205 -0.003
0.248 -0.202 -0.003
0.241 -0.193 -0.003
0.235 -0.185 -0.003
0.224 -0.173 -0.003
0.217 -0.166 -0.003
0.213 -0.160 -0.003
0.209 -0.154 -0.003
0.212 -0.154 -0.003
0.218 -0.156 -0.003
0.218 -0.153 -0.003
0.212 -0.147 -0.003
0.206 -0.140 -0.003
0.205 -0.137 -0.003
0.215 -0.141 -0.003
0.218 -0.140 -0.003
0.224 -0.142 -0.003
0.229 -0.142 -0.003
0.225 -0.138 -0.003
0.220 -0.132 -0.003
0.218 -0.128 -0.003
0.220 -0.127 -0.003
0.220 -0.125 -0.003
0.218 -0.121 -0.003
0.217 -0.118 -0.003
0.203 -0.108 -0.003
0.202 -0.106 -0.003
0.207 -0.106 -0.003
0.213 -0.107 -0.003
0.201 -0.099 -0.003
0.204 -0.098 -0.003
0.208 -0.098 -0.003
0.210 -0.097 -0.003
0.214 -0.097 -0.003
0.215 -0.095 -0.003
0.225 -0.097 -0.003
0.224 -0.094 -0.003
0.222 -0.091 -0.003
0.222 -0.089 -0.003
0.213 -0.084 -0.003
0.218 -0.083 -0.003
0.209 -0.078 -0.003
0.231 -0.084 -0.003
0.237 -0.084 -0.003
0.236 -0.081 -0.003
0.235 -0.079 -0.003
0.246 -0.080 -0.003
0.258 -0.081 -0.003
0.264 -0.081 -0.003
0.269 -0.080 -0.003
0.379 -0.105 -0.005
0.395 -0.106 -0.005
0.401 -0.104 -0.005
0.409 -0.102 -0.005
0.419 -0.101 -0.005
0.429 -0.099 -0.005
0.429 -0.095 -0.005
0.397 -0.084 -0.005
0.385 -0.078 -0.005
0.378 -0.073 -0.005
0.290 -0.051 -0.004
0.289 -0.048 -0.004
0.286 -0.045 -0.004
0.285 -0.042 -0.004
0.289 -0.040 -0.004
0.293 -0.038 -0.004
0.287 -0.035 -0.004
0.285 -0.032 -0.004
0.284 -0.029 -0.004
0.290 -0.027 -0.004
0.298 -0.025 -0.004
0.306 -0.023 -0.004
0.314 -0.021 -0.004
0.316 -0.019 -0.004
0.314 -0.016 -0.004
0.312 -0.013 -0.004
0.306 -0.010 -0.004
0.304 -0.007 -0.004
0.308 -0.004 -0.004
0.311 -0.001 -0.004
0.301 0.001 -0.004
0.302 0.004 -0.004
0.304 0.007 -0.004
0.307 0.010 -0.004
0.308 0.012 -0.004
0.309 0.015 -0.004
0.309 0.018 -0.004
0.311 0.021 -0.004
0.313 0.024 -0.004
0.314 0.027 -0.004
0.316 0.030 -0.004
0.316 0.033 -0.004
0.316 0.035 -0.004
0.316 0.038 -0.004
0.315 0.041 -0.004
0.315 0.044 -0.004
0.319 0.047 -0.004
0.315 0.050 -0.004
0.316 0.053 -0.004
0.317 0.056 -0.004
0.316 0.059 -0.004
0.315 0.061 -0.004
0.314 0.064 -0.004
0.314 0.067 -0.004
0.315 0.070 -0.004
0.314 0.073 -0.004
0.313 0.075 -0.004
0.312 0.078 -0.004
0.317 0.082 -0.004
0.332 0.089 -0.004
0.334 0.093 -0.004
0.332 0.096 -0.004
0.316 0.094 -0.004
0.314 0.097 -0.004
0.319 0.101 -0.004
0.328 0.107 -0.004
0.320 0.108 -0.004
0.327 0.113 -0.004
0.336 0.119 -0.004
0.338 0.124 -0.004
0.329 0.124 -0.004
0.333 0.128 -0.004
0.344 0.136 -0.004
0.350 0.142 -0.004
0.339 0.141 -0.004
0.337 0.143 -0.004
0.344 0.150 -0.004
0.334 0.149 -0.004
0.326 0.148 -0.004
0.328 0.156 -0.004
0.335 0.163 -0.004
0.334 0.166 -0.004
0.324 0.172 -0.004
0.333 0.184 -0.004
0.339 0.191 -0.004
0.329 0.189 -0.004
0.329 0.193 -0.004
0.327 0.195 -0.004
0.325 0.197 -0.004
0.323 0.200 -0.004
0.321 0.202 -0.004
0.319 0.205 -0.004
0.318 0.208 -0.004
0.315 0.210 -0.004
0.305 0.207 -0.004
0.311 0.215 -0.004
0.310 0.218 -0.004
1.337 1.042 -0.017
1.323 1.049 -0.017
1.303 1.050 -0.017
1.306 1.071 -0.017
1.304 1.088 -0.017
1.308 1.109 -0.017
1.310 1.130 -0.017
1.323 1.160 -0.017
1.327 1.183 -0.017
1.315 1.212 -0.017
1.324 1.241 -0.017
1.330 1.267 -0.017
1.337 1.295 -0.017
1.342 1.322 -0.017
1.351 1.353 -0.017
1.344 1.368 -0.017
1.341 1.387 -0.017
1.333 1.403 -0.017
0.457 0.505 -0.006
0.449 0.504 -0.006
0.455 0.519 -0.006
0.506 0.598 -0.006
0.503 0.604 -0.006
0.328 0.426 -0.004
0.166 -0.228 -0.000
0.167 -0.227 -0.000
0.171 -0.230 -0.000
0.174 -0.230 -0.000
0.180 -0.234 -0.000
0.184 -0.237 -0.000
0.187 -0.238 -0.000
0.190 -0.237 -0.000
0.188 -0.232 -0.000
0.189 -0.230 -0.000
0.191 -0.229 -0.000
0.193 -0.228 -0.000
0.195 -0.227 -0.000
0.198 -0.226 -0.000
0.200 -0.225 -0.000
0.202 -0.224 -0.000
0.204 -0.223 -0.000
0.206 -0.221 -0.000
0.208 -0.221 -0.000
0.210 -0.219 -0.000
0.211 -0.218 -0.000
0.215 -0.218 -0.000
0.216 -0.216 -0.000
0.219 -0.215 -0.000
0.222 -0.215 -0.000
0.225 -0.214 -0.000
0.227 -0.213 -0.000
0.229 -0.212 -0.001
0.232 -0.211 -0.001
0.234 -0.210 -0.001
0.237 -0.209 -0.001
0.241 -0.209 -0.001
0.244 -0.208 -0.001
0.246 -0.207 -0.001
0.247 -0.205 -0.001
0.249 -0.202 -0.001
0.244 -0.195 -0.001
0.230 -0.181 -0.001
0.217 -0.168 -0.001
0.216 -0.165 -0.001
0.215 -0.161 -0.001
0.209 -0.155 -0.001
0.210 -0.152 -0.001
0.216 -0.154 -0.001
0.213 -0.149 -0.001
0.211 -0.146 -0.001
0.207 -0.141 -0.001
0.204 -0.136 -0.001
0.215 -0.141 -0.001
0.217 -0.140 -0.001
0.218 -0.138 -0.001
0.221 -0.137 -0.001
0.218 -0.133 -0.001
0.219 -0.131 -0.001
0.223 -0.131 -0.001
0.223 -0.129 -0.001
0.224 -0.127 -0.001
0.224 -0.124 -0.001
0.217 -0.118 -0.001
0.215 -0.115 -0.001
0.209 -0.109 -0.001
0.209 -0.107 -0.001
0.218 -0.109 -0.001
0.217 -0.107 -0.001
0.204 -0.099 -0.001
0.208 -0.098 -0.001
0.213 -0.098 -0.001
0.215 -0.097 -0.001
0.222 -0.098 -0.001
0.225 -0.097 -0.001
0.224 -0.095 -0.001
0.224 -0.092 -0.001
0.219 -0.088 -0.001
0.221 -0.087 -0.001
0.219 -0.084 -0.001
0.218 -0.081 -0.001
0.226 -0.082 -0.001
0.234 -0.083 -0.001
0.236 -0.081 -0.001
0.235 -0.078 -0.001
0.238 -0.077 -0.001
0.255 -0.080 -0.001
0.262 -0.080 -0.001
0.264 -0.078 -0.001
0.266 -0.076 -0.001
0.373 -0.104 -0.001
0.384 -0.103 -0.001
0.402 -0.104 -0.001
0.416 -0.104 -0.001
0.424 -0.102 -0.001
0.430 -0.099 -0.001
0.428 -0.095 -0.001
0.389 -0.079 -0.001
0.379 -0.074 -0.001
0.367 -0.068 -0.001
0.290 -0.051 -0.001
0.288 -0.048 -0.001
0.285 -0.045 -0.001
0.285 -0.042 -0.001
0.287 -0.040 -0.001
0.285 -0.037 -0.001
0.291 -0.035 -0.001
0.286 -0.032 -0.001
0.285 -0.029 -0.001
0.286 -0.027 -0.001
0.295 -0.025 -0.001
0.301 -0.023 -0.001
0.307 -0.021 -0.001
0.316 -0.019 -0.001
0.313 -0.016 -0.001
0.313 -0.013 -0.001
0.311 -0.010 -0.001
0.303 -0.007 -0.001
0.304 -0.004 -0.001
0.309 -0.001 -0.001
0.313 0.001 -0.001
0.301 0.004 -0.001
0.304 0.007 -0.001
0.305 0.010 -0.001
0.307 0.012 -0.001
0.307 0.015 -0.001
0.309 0.018 -0.001
0.310 0.021 -0.001
0.312 0.024 -0.001
0.313 0.027 -0.001
0.314 0.030 -0.001
0.314 0.032 -0.001
0.315 0.035 -0.001
0.314 0.038 -0.001
0.314 0.041 -0.001
0.313 0.044 -0.001
0.314 0.047 -0.001
0.316 0.050 -0.001
0.316 0.053 -0.001
0.316 0.056 -0.001
0.315 0.058 -0.001
0.314 0.061 -0.001
0.313 0.064 -0.001
0.313 0.067 -0.001
0.314 0.070 -0.001
0.313 0.073 -0.001
0.312 0.075 -0.001
0.317 0.079 -0.001
0.325 0.084 -0.001
0.329 0.089 -0.001
0.334 0.093 -0.001
0.331 0.095 -0.001
0.322 0.096 -0.001
0.317 0.097 -0.001
0.321 0.102 -0.001
0.323 0.106 -0.001
0.331 0.111 -0.001
0.335 0.116 -0.001
0.339 0.120 -0.001
0.346 0.127 -0.001
0.328 0.123 -0.001
0.322 0.124 -0.001
0.337 0.133 -0.001
0.344 0.150 -0.001
0.338 0.165 -0.001
0.328 0.163 -0.001
0.325 0.165 -0.001
0.340 0.184 -0.001
0.343 0.189 -0.001
0.328 0.188 -0.001
0.323 0.189 -0.001
0.329 0.196 -0.001
0.326 0.198 -0.001
0.323 0.200 -0.001
0.321 0.203 -0.001
0.319 0.205 -0.001
0.317 0.208 -0.001
0.315 0.210 -0.001
0.312 0.212 -0.001
0.312 0.215 -0.001
0.311 0.219 -0.001
1.337 1.042 -0.004
1.324 1.050 -0.003
1.320 1.064 -0.003
1.319 1.081 -0.003
1.316 1.098 -0.003
1.312 1.113 -0.003
1.320 1.138 -0.003
1.322 1.159 -0.003
1.329 1.185 -0.003
1.343 1.368 -0.003
1.334 1.403 -0.002
0.487 0.529 -0.001
0.486 0.537 -0.001
0.447 0.502 -0.001
0.445 0.508 -0.001
0.499 0.589 -0.001
0.494 0.593 -0.001
0.363 0.449 -0.000
0.356 0.448 -0.000
0.354 0.453 -0.000
0.355 0.461 -0.000
0.161 -0.221 0.002
0.168 -0.228 0.002
0.173 -0.232 0.002
0.178 -0.235 0.002
0.181 -0.236 0.002
0.184 -0.237 0.002
0.187 -0.238 0.002
0.186 -0.233 0.002
0.186 -0.230 0.002
0.189 -0.230 0.002
0.191 -0.229 0.002
0.193 -0.228 0.002
0.195 -0.227 0.002
0.198 -0.226 0.002
0.200 -0.225 0.002
0.201 -0.224 0.002
0.203 -0.222 0.002
0.205 -0.221 0.002
0.207 -0.220 0.002
0.210 -0.219 0.002
0.212 -0.218 0.002
0.213 -0.216 0.002
0.216 -0.216 0.002
0.219 -0.215 0.002
0.222 -0.215 0.002
0.224 -0.214 0.002
0.227 -0.213 0.002
0.227 -0.210 0.002
0.230 -0.210 0.002
0.234 -0.210 0.002
0.237 -0.209 0.002
0.240 -0.208 0.002
0.243 -0.208 0.002
0.246 -0.207 0.002
0.248 -0.205 0.002
0.248 -0.202 0.002
0.252 -0.202 0.002
0.212 -0.165 0.002
0.214 -0.163 0.002
0.216 -0.162 0.002
0.215 -0.159 0.002
0.212 -0.154 0.002
0.210 -0.150 0.001
0.213 -0.149 0.002
0.213 -0.147 0.001
0.212 -0.144 0.001
0.213 -0.142 0.001
0.199 -0.130 0.001
0.213 -0.137 0.001
0.214 -0.136 0.001
0.210 -0.131 0.001
0.209 -0.128 0.001
0.220 -0.132 0.001
0.223 -0.131 0.001
0.221 -0.128 0.001
0.222 -0.126 0.001
0.220 -0.122 0.001
0.218 -0.119 0.001
0.213 -0.114 0.001
0.203 -0.106 0.001
0.208 -0.107 0.001
0.209 -0.105 0.001
0.207 -0.102 0.001
0.208 -0.100 0.001
0.212 -0.100 0.001
0.221 -0.102 0.001
0.218 -0.099 0.001
0.218 -0.097 0.001
0.222 -0.096 0.001
0.223 -0.094 0.001
0.223 -0.092 0.001
0.223 -0.090 0.001
0.222 -0.087 0.001
0.216 -0.083 0.001
0.203 -0.076 0.001
0.231 -0.084 0.001
0.245 -0.087 0.001
0.247 -0.085 0.001
0.247 -0.082 0.001
0.248 -0.080 0.001
0.254 -0.080 0.001
0.264 -0.081 0.002
0.267 -0.079 0.002
0.264 -0.076 0.002
0.399 -0.107 0.002
0.405 -0.105 0.002
0.418 -0.104 0.002
0.428 -0.103 0.002
0.433 -0.100 0.002
0.431 -0.096 0.002
0.415 -0.088 0.002
0.398 -0.081 0.002
0.384 -0.075 0.002
0.368 -0.068 0.002
0.294 -0.052 0.002
0.287 -0.048 0.002
0.287 -0.045 0.002
0.286 -0.043 0.002
0.290 -0.040 0.002
0.291 -0.038 0.002
0.291 -0.035 0.002
0.290 -0.033 0.002
0.286 -0.030 0.002
0.285 -0.027 0.002
0.290 -0.025 0.002
0.296 -0.023 0.002
0.302 -0.020 0.002
0.310 -0.018 0.002
0.315 -0.016 0.002
0.307 -0.012 0.002
0.307 -0.010 0.002
0.309 -0.007 0.002
0.294 -0.004 0.002
0.306 -0.001 0.002
0.313 0.001 0.002
0.313 0.004 0.002
0.303 0.007 0.002
0.304 0.009 0.002
0.305 0.012 0.002
0.306 0.015 0.002
0.308 0.018 0.002
0.310 0.021 0.002
0.311 0.024 0.002
0.311 0.027 0.002
0.312 0.029 0.002
0.313 0.032 0.002
0.313 0.035 0.002
0.313 0.038 0.002
0.314 0.041 0.002
0.313 0.044 0.002
0.313 0.046 0.002
0.314 0.050 0.002
0.315 0.053 0.002
0.314 0.055 0.002
0.313 0.058 0.002
0.313 0.061 0.002
0.313 0.064 0.002
0.312 0.067 0.002
0.312 0.069 0.002
0.313 0.072 0.002
0.325 0.078 0.002
0.334 0.084 0.002
0.324 0.084 0.002
0.325 0.088 0.002
0.324 0.090 0.002
0.327 0.094 0.002
0.324 0.096 0.002
0.324 0.100 0.002
0.321 0.102 0.002
0.338 0.110 0.002
0.336 0.113 0.002
0.340 0.118 0.002
0.344 0.122 0.002
0.338 0.123 0.002
0.329 0.124 0.002
0.318 0.122 0.002
0.331 0.131 0.002
0.345 0.140 0.002
0.342 0.142 0.002
0.348 0.148 0.002
0.367 0.160 0.002
0.375 0.167 0.002
0.344 0.164 0.002
0.334 0.163 0.002
0.332 0.165 0.002
0.331 0.168 0.002
0.328 0.170 0.002
0.332 0.176 0.002
0.338 0.183 0.002
0.337 0.186 0.002
0.340 0.191 0.002
0.326 0.187 0.002
0.331 0.193 0.002
0.328 0.195 0.002
0.325 0.198 0.002
0.324 0.201 0.002
0.320 0.202 0.002
0.318 0.205 0.002
0.316 0.207 0.002
0.313 0.209 0.002
0.312 0.211 0.002
0.311 0.215 0.002
0.311 0.218 0.002
0.296 0.212 0.002
1.347 1.050 0.010
1.318 1.045 0.010
1.318 1.063 0.010
1.325 1.087 0.010
1.322 1.102 0.010
1.319 1.118 0.010
1.323 1.141 0.011
1.331 1.167 0.011
1.346 1.221 0.011
1.312 1.209 0.011
1.323 1.240 0.011
1.346 1.393 0.012
1.346 1.416 0.013
0.446 0.502 0.004
0.367 0.433 0.004
0.360 0.432 0.004
0.357 0.436 0.004
0.358 0.443 0.004
0.355 0.447 0.004
0.352 0.450 0.004
0.354 0.460 0.004
0.161 -0.222 0.004
0.168 -0.229 0.004
0.175 -0.234 0.004
0.179 -0.237 0.004
0.182 -0.237 0.004
0.186 -0.239 0.004
0.185 -0.234 0.004
0.186 -0.233 0.004
0.187 -0.231 0.004
0.188 -0.229 0.004
0.192 -0.229 0.004
0.193 -0.228 0.004
0.195 -0.227 0.004
0.197 -0.226 0.004
0.199 -0.225 0.004
0.201 -0.223 0.004
0.203 -0.222 0.004
0.205 -0.221 0.004
0.207 -0.220 0.004
0.210 -0.220 0.004
0.212 -0.219 0.004
0.214 -0.217 0.004
0.216 -0.215 0.004
0.218 -0.215 0.004
0.221 -0.214 0.004
0.224 -0.213 0.004
0.225 -0.212 0.004
0.228 -0.211 0.004
0.230 -0.209 0.004
0.234 -0.209 0.004
0.237 -0.209 0.004
0.240 -0.208 0.004
0.243 -0.208 0.004
0.246 -0.207 0.004
0.247 -0.205 0.004
0.249 -0.203 0.004
0.251 -0.201 0.004
0.243 -0.192 0.004
0.210 -0.163 0.004
0.210 -0.160 0.004
0.214 -0.161 0.004
0.217 -0.160 0.004
0.217 -0.157 0.004
0.212 -0.151 0.004
0.212 -0.149 0.004
0.216 -0.149 0.004
0.216 -0.146 0.004
0.213 -0.142 0.004
0.213 -0.139 0.004
0.201 -0.129 0.003
0.210 -0.133 0.003
0.217 -0.135 0.004
0.223 -0.136 0.004
0.226 -0.135 0.004
0.218 -0.128 0.004
0.218 -0.126 0.004
0.217 -0.123 0.003
0.218 -0.121 0.003
0.217 -0.118 0.003
0.215 -0.115 0.003
0.205 -0.108 0.003
0.200 -0.103 0.003
0.211 -0.106 0.003
0.203 -0.100 0.003
0.206 -0.099 0.003
0.202 -0.096 0.003
0.203 -0.094 0.003
0.214 -0.097 0.003
0.219 -0.097 0.003
0.221 -0.096 0.003
0.223 -0.094 0.003
0.222 -0.092 0.003
0.224 -0.090 0.003
0.216 -0.085 0.003
0.220 -0.084 0.003
0.219 -0.082 0.003
0.232 -0.084 0.004
0.239 -0.085 0.004
0.246 -0.085 0.004
0.249 -0.083 0.004
0.250 -0.081 0.004
0.252 -0.080 0.004
0.261 -0.080 0.004
0.270 -0.080 0.004
0.272 -0.078 0.004
0.400 -0.107 0.006
0.406 -0.105 0.006
0.418 -0.104 0.006
0.426 -0.102 0.006
0.433 -0.100 0.006
0.430 -0.095 0.006
0.413 -0.088 0.006
0.400 -0.081 0.006
0.390 -0.076 0.006
0.297 -0.052 0.004
0.289 -0.048 0.004
0.286 -0.045 0.004
0.290 -0.043 0.004
0.288 -0.040 0.004
0.289 -0.038 0.004
0.290 -0.035 0.004
0.292 -0.033 0.004
0.289 -0.030 0.004
0.285 -0.027 0.004
0.288 -0.025 0.004
0.292 -0.022 0.004
0.300 -0.020 0.004
0.310 -0.018 0.005
0.313 -0.016 0.005
0.308 -0.013 0.004
0.303 -0.010 0.004
0.306 -0.007 0.004
0.309 -0.004 0.004
0.307 -0.001 0.004
0.312 0.001 0.005
0.314 0.004 0.005
0.316 0.007 0.005
0.303 0.009 0.004
0.303 0.012 0.004
0.304 0.015 0.004
0.306 0.018 0.004
0.307 0.021 0.004
0.309 0.024 0.004
0.309 0.026 0.005
0.310 0.029 0.005
0.310 0.032 0.005
0.311 0.035 0.005
0.312 0.038 0.005
0.313 0.041 0.005
0.313 0.044 0.005
0.312 0.046 0.005
0.312 0.049 0.005
0.313 0.052 0.005
0.313 0.055 0.005
0.312 0.058 0.005
0.311 0.060 0.005
0.312 0.064 0.005
0.312 0.067 0.005
0.313 0.070 0.005
0.320 0.074 0.005
0.323 0.078 0.005
0.327 0.082 0.005
0.322 0.084 0.005
0.318 0.086 0.005
0.318 0.088 0.005
0.325 0.094 0.005
0.321 0.096 0.005
0.325 0.100 0.005
0.332 0.105 0.005
0.334 0.109 0.005
0.333 0.112 0.005
0.339 0.117 0.005
0.341 0.121 0.005
0.320 0.117 0.005
0.314 0.118 0.005
0.328 0.126 0.005
0.333 0.132 0.005
0.346 0.140 0.005
0.356 0.148 0.005
0.364 0.155 0.006
0.363 0.158 0.006
0.357 0.159 0.006
0.361 0.164 0.006
0.345 0.165 0.005
0.346 0.168 0.005
0.347 0.173 0.005
0.346 0.176 0.005
0.317 0.168 0.005
0.320 0.173 0.005
0.336 0.185 0.005
0.335 0.189 0.005
0.332 0.191 0.005
0.327 0.191 0.005
0.326 0.195 0.005
0.323 0.196 0.005
0.321 0.198 0.005
0.319 0.201 0.005
0.317 0.204 0.005
0.316 0.207 0.005
0.313 0.208 0.005
0.311 0.211 0.005
0.310 0.214 0.005
0.308 0.216 0.005
0.301 0.215 0.005
1.323 1.031 0.023
1.325 1.051 0.024
1.314 1.060 0.024
1.327 1.107 0.024
1.318 1.118 0.024
1.333 1.150 0.025
1.337 1.173 0.025
1.344 1.198 0.025
1.322 1.239 0.025
1.344 1.302 0.026
0.363 0.415 0.008
0.357 0.415 0.008
0.357 0.422 0.008
0.358 0.430 0.008
0.358 0.437 0.008
0.355 0.440 0.008
0.349 0.440 0.008
0.348 0.445 0.008
0.176 -0.242 0.006
0.176 -0.239 0.006
0.182 -0.244 0.006
0.179 -0.237 0.006
0.181 -0.236 0.006
0.182 -0.234 0.006
0.184 -0.234 0.006
0.186 -0.233 0.006
0.188 -0.231 0.006
0.189 -0.230 0.006
0.191 -0.229 0.006
0.193 -0.227 0.006
0.195 -0.226 0.006
0.197 -0.225 0.006
0.199 -0.224 0.006
0.201 -0.224 0.006
0.203 -0.223 0.006
0.205 -0.221 0.006
0.208 -0.221 0.006
0.211 -0.220 0.007
0.213 -0.219 0.007
0.214 -0.217 0.007
0.215 -0.215 0.007
0.217 -0.214 0.007
0.220 -0.213 0.007
0.223 -0.213 0.007
0.226 -0.212 0.007
0.228 -0.211 0.007
0.231 -0.210 0.007
0.235 -0.211 0.007
0.237 -0.209 0.007
0.240 -0.208 0.007
0.243 -0.207 0.007
0.245 -0.206 0.007
0.247 -0.204 0.007
0.249 -0.202 0.007
0.248 -0.199 0.007
0.241 -0.190 0.007
0.218 -0.169 0.006
0.207 -0.158 0.006
0.209 -0.157 0.006
0.215 -0.159 0.006
0.213 -0.154 0.006
0.212 -0.151 0.006
0.212 -0.149 0.006
0.215 -0.148 0.006
0.212 -0.144 0.006
0.209 -0.140 0.006
0.206 -0.135 0.005
0.210 -0.135 0.005
0.206 -0.131 0.005
0.211 -0.131 0.005
0.215 -0.131 0.006
0.214 -0.128 0.006
0.214 -0.126 0.006
0.214 -0.123 0.005
0.215 -0.122 0.005
0.216 -0.120 0.006
0.216 -0.118 0.005
0.215 -0.115 0.005
0.214 -0.112 0.005
0.215 -0.110 0.005
0.213 -0.107 0.005
0.211 -0.104 0.005
0.210 -0.101 0.005
0.211 -0.100 0.005
0.211 -0.097 0.005
0.210 -0.095 0.005
0.221 -0.098 0.005
0.227 -0.098 0.006
0.226 -0.095 0.006
0.225 -0.093 0.006
0.216 -0.087 0.005
0.217 -0.085 0.005
0.216 -0.083 0.005
0.223 -0.083 0.005
0.231 -0.084 0.006
0.237 -0.084 0.006
0.239 -0.082 0.006
0.245 -0.082 0.006
0.244 -0.079 0.006
0.246 -0.078 0.006
0.255 -0.078 0.006
0.269 -0.080 0.006
0.278 -0.080 0.007
0.395 -0.106 0.009
0.403 -0.104 0.010
0.412 -0.103 0.010
0.420 -0.101 0.010
0.426 -0.098 0.010
0.422 -0.094 0.010
0.408 -0.087 0.010
0.406 -0.083 0.010
0.369 -0.072 0.009
0.362 -0.067 0.009
0.299 -0.053 0.007
0.289 -0.048 0.007
0.290 -0.046 0.007
0.287 -0.043 0.007
0.286 -0.040 0.007
0.285 -0.037 0.007
0.286 -0.035 0.007
0.291 -0.033 0.007
0.298 -0.031 0.007
0.287 -0.027 0.007
0.287 -0.025 0.007
0.291 -0.022 0.007
0.293 -0.020 0.007
0.304 -0.018 0.007
0.313 -0.016 0.007
0.309 -0.013 0.007
0.306 -0.010 0.007
0.316 -0.007 0.007
0.316 -0.004 0.007
0.318 -0.002 0.007
0.313 0.001 0.007
0.308 0.004 0.007
0.309 0.007 0.007
0.312 0.010 0.007
0.302 0.012 0.007
0.303 0.015 0.007
0.306 0.018 0.007
0.305 0.020 0.007
0.305 0.023 0.007
0.309 0.026 0.007
0.306 0.029 0.007
0.308 0.032 0.007
0.310 0.035 0.007
0.310 0.038 0.007
0.312 0.041 0.007
0.311 0.043 0.007
0.311 0.046 0.007
0.312 0.049 0.007
0.311 0.052 0.007
0.311 0.055 0.007
0.311 0.058 0.007
0.310 0.060 0.007
0.310 0.063 0.007
0.315 0.067 0.008
0.323 0.072 0.008
0.319 0.074 0.008
0.317 0.076 0.008
0.320 0.080 0.008
0.322 0.084 0.008
0.318 0.086 0.008
0.325 0.091 0.008
0.326 0.094 0.008
0.321 0.096 0.008
0.330 0.102 0.008
0.336 0.106 0.008
0.334 0.109 0.008
0.320 0.108 0.008
0.328 0.114 0.008
0.324 0.115 0.008
0.323 0.118 0.008
0.315 0.118 0.008
0.322 0.124 0.008
0.331 0.131 0.008
0.346 0.140 0.009
0.356 0.148 0.009
0.366 0.156 0.009
0.361 0.157 0.009
0.352 0.157 0.009
0.338 0.165 0.009
0.354 0.176 0.009
0.301 0.160 0.008
0.315 0.171 0.008
0.336 0.189 0.009
0.331 0.190 0.009
0.328 0.192 0.009
0.326 0.194 0.008
0.323 0.196 0.008
0.321 0.199 0.008
0.320 0.202 0.008
0.317 0.204 0.008
0.315 0.206 0.008
0.314 0.209 0.008
0.311 0.211 0.008
0.309 0.214 0.008
0.309 0.217 0.008
0.306 0.219 0.008
0.355 0.393 0.011
0.359 0.403 0.012
0.356 0.407 0.012
0.358 0.416 0.012
0.365 0.453 0.013
0.353 0.445 0.012
0.347 0.451 0.012
0.168 -0.232 0.008
0.180 -0.245 0.009
0.181 -0.243 0.009
0.179 -0.237 0.008
0.180 -0.235 0.008
0.182 -0.234 0.008
0.183 -0.233 0.008
0.186 -0.233 0.008
0.188 -0.232 0.009
0.189 -0.230 0.008
0.191 -0.228 0.008
0.192 -0.227 0.009
0.195 -0.226 0.009
0.197 -0.226 0.009
0.199 -0.224 0.009
0.201 -0.224 0.009
0.203 -0.223 0.009
0.205 -0.222 0.009
0.208 -0.220 0.009
0.209 -0.219 0.009
0.212 -0.218 0.009
0.214 -0.217 0.009
0.215 -0.215 0.009
0.217 -0.214 0.009
0.221 -0.214 0.009
0.223 -0.213 0.009
0.226 -0.212 0.009
0.229 -0.212 0.009
0.232 -0.211 0.009
0.235 -0.210 0.009
0.237 -0.209 0.009
0.240 -0.208 0.009
0.242 -0.207 0.009
0.244 -0.205 0.009
0.246 -0.204 0.009
0.248 -0.202 0.009
0.247 -0.198 0.009
0.241 -0.190 0.009
0.229 -0.178 0.009
0.219 -0.168 0.008
0.216 -0.162 0.008
0.213 -0.157 0.008
0.213 -0.155 0.008
0.213 -0.152 0.008
0.215 -0.151 0.008
0.210 -0.145 0.008
0.209 -0.142 0.008
0.206 -0.137 0.007
0.206 -0.135 0.007
0.206 -0.133 0.007
0.208 -0.132 0.007
0.208 -0.129 0.007
0.210 -0.128 0.007
0.209 -0.125 0.007
0.210 -0.124 0.007
0.216 -0.125 0.008
0.217 -0.123 0.008
0.216 -0.120 0.008
0.212 -0.115 0.007
0.212 -0.114 0.007
0.202 -0.106 0.007
0.201 -0.103 0.007
0.202 -0.102 0.007
0.213 -0.105 0.007
0.206 -0.099 0.007
0.208 -0.098 0.007
0.204 -0.094 0.007
0.206 -0.093 0.007
0.223 -0.099 0.008
0.227 -0.098 0.008
0.228 -0.096 0.008
0.226 -0.093 0.008
0.216 -0.087 0.007
0.216 -0.085 0.007
0.213 -0.082 0.007
0.204 -0.076 0.007
0.221 -0.080 0.007
0.252 -0.089 0.008
0.249 -0.086 0.008
0.242 -0.081 0.008
0.242 -0.079 0.008
0.237 -0.075 0.008
0.255 -0.078 0.008
0.265 -0.079 0.009
0.280 -0.080 0.009
0.379 -0.105 0.013
0.394 -0.106 0.013
0.404 -0.105 0.013
0.412 -0.103 0.014
0.417 -0.100 0.014
0.416 -0.096 0.014
0.401 -0.089 0.013
0.418 -0.089 0.014
0.385 -0.078 0.013
0.378 -0.074 0.012
0.289 -0.048 0.009
0.285 -0.045 0.009
0.287 -0.043 0.009
0.285 -0.040 0.009
0.283 -0.037 0.009
0.286 -0.035 0.009
0.291 -0.033 0.009
0.300 -0.031 0.010
0.292 -0.028 0.010
0.288 -0.025 0.009
0.290 -0.022 0.009
0.292 -0.020 0.009
0.296 -0.017 0.010
0.303 -0.015 0.010
0.312 -0.013 0.010
0.307 -0.010 0.010
0.305 -0.007 0.010
0.317 -0.004 0.010
0.317 -0.002 0.010
0.313 0.001 0.010
0.304 0.004 0.010
0.299 0.007 0.010
0.306 0.010 0.010
0.312 0.013 0.010
0.316 0.016 0.010
0.307 0.018 0.010
0.302 0.020 0.010
0.304 0.023 0.010
0.305 0.026 0.010
0.304 0.029 0.010
0.305 0.032 0.010
0.308 0.035 0.010
0.308 0.037 0.010
0.308 0.040 0.010
0.309 0.043 0.010
0.309 0.046 0.010
0.309 0.049 0.010
0.307 0.051 0.010
0.308 0.054 0.010
0.308 0.057 0.010
0.312 0.061 0.010
0.317 0.065 0.010
0.318 0.068 0.010
0.317 0.070 0.010
0.312 0.072 0.010
0.313 0.076 0.010
0.317 0.079 0.010
0.319 0.083 0.011
0.329 0.089 0.011
0.327 0.091 0.011
0.321 0.093 0.011
0.316 0.094 0.011
0.330 0.101 0.011
0.342 0.108 0.011
0.327 0.107 0.011
0.337 0.113 0.011
0.328 0.114 0.011
0.327 0.116 0.011
0.326 0.119 0.011
0.325 0.122 0.011
0.316 0.122 0.011
0.330 0.130 0.011
0.371 0.158 0.013
0.380 0.170 0.013
0.328 0.153 0.011
0.332 0.159 0.011
0.353 0.176 0.012
0.348 0.177 0.012
0.315 0.167 0.011
0.312 0.169 0.011
0.331 0.183 0.012
0.332 0.187 0.012
0.329 0.189 0.012
0.328 0.192 0.012
0.327 0.195 0.012
0.325 0.197 0.012
0.320 0.198 0.012
0.320 0.202 0.012
0.318 0.205 0.012
0.316 0.207 0.011
0.313 0.209 0.011
0.312 0.212 0.011
0.310 0.214 0.011
0.309 0.217 0.011
0.312 0.223 0.012
0.413 0.334 0.016
0.434 0.450 0.018
0.431 0.454 0.018
0.368 0.400 0.016
0.361 0.399 0.016
0.362 0.407 0.016
0.366 0.419 0.016
0.495 0.585 0.022
0.489 0.588 0.022
0.477 0.582 0.022
0.362 0.456 0.017
0.361 0.462 0.017
0.375 0.488 0.018
0.170 -0.234 0.010
0.178 -0.242 0.011
0.179 -0.239 0.011
0.179 -0.236 0.010
0.180 -0.234 0.010
0.181 -0.233 0.010
0.183 -0.233 0.011
0.186 -0.232 0.011
0.188 -0.232 0.011
0.189 -0.230 0.011
0.191 -0.228 0.011
0.193 -0.228 0.011
0.195 -0.227 0.011
0.197 -0.226 0.011
0.198 -0.224 0.011
0.201 -0.223 0.011
0.203 -0.223 0.011
0.206 -0.222 0.011
0.207 -0.220 0.011
0.209 -0.218 0.011
0.210 -0.217 0.011
0.213 -0.216 0.011
0.216 -0.216 0.011
0.219 -0.215 0.011
0.221 -0.215 0.011
0.224 -0.214 0.011
0.226 -0.212 0.011
0.229 -0.211 0.011
0.232 -0.211 0.012
0.234 -0.210 0.012
0.237 -0.209 0.012
0.240 -0.208 0.012
0.243 -0.207 0.012
0.244 -0.206 0.012
0.246 -0.204 0.012
0.248 -0.202 0.012
0.248 -0.199 0.012
0.239 -0.189 0.011
0.224 -0.174 0.011
0.218 -0.167 0.010
0.215 -0.161 0.010
0.215 -0.159 0.010
0.215 -0.156 0.010
0.217 -0.155 0.010
0.215 -0.151 0.010
0.213 -0.147 0.010
0.204 -0.139 0.009
0.218 -0.146 0.010
0.210 -0.138 0.010
0.208 -0.134 0.009
0.207 -0.131 0.009
0.209 -0.130 0.009
0.211 -0.129 0.010
0.209 -0.125 0.009
0.212 -0.125 0.010
0.220 -0.127 0.010
0.221 -0.125 0.010
0.213 -0.119 0.009
0.215 -0.117 0.010
0.212 -0.114 0.009
0.211 -0.110 0.009
0.201 -0.103 0.009
0.204 -0.103 0.009
0.210 -0.104 0.009
0.214 -0.103 0.009
0.203 -0.096 0.009
0.204 -0.094 0.009
0.207 -0.093 0.009
0.216 -0.095 0.009
0.226 -0.098 0.010
0.226 -0.095 0.010
0.225 -0.093 0.010
0.226 -0.091 0.010
0.220 -0.086 0.009
0.221 -0.084 0.009
0.208 -0.078 0.009
0.220 -0.080 0.009
0.221 -0.078 0.009
0.229 -0.079 0.010
0.240 -0.080 0.010
0.246 -0.080 0.010
0.250 -0.079 0.011
0.250 -0.076 0.011
0.260 -0.077 0.011
0.274 -0.079 0.012
0.402 -0.108 0.017
0.409 -0.106 0.017
0.414 -0.103 0.017
0.420 -0.101 0.018
0.415 -0.096 0.017
0.397 -0.088 0.017
0.390 -0.083 0.016
0.383 -0.078 0.016
0.378 -0.074 0.016
0.366 -0.068 0.015
0.285 -0.048 0.012
0.285 -0.045 0.012
0.286 -0.043 0.012
0.285 -0.040 0.012
0.285 -0.037 0.012
0.289 -0.035 0.012
0.294 -0.033 0.012
0.291 -0.030 0.012
0.297 -0.028 0.012
0.292 -0.025 0.012
0.290 -0.022 0.012
0.290 -0.020 0.012
0.290 -0.017 0.012
0.290 -0.014 0.012
0.298 -0.012 0.012
0.302 -0.010 0.013
0.299 -0.007 0.012
0.303 -0.004 0.013
0.319 -0.002 0.013
0.313 0.001 0.013
0.301 0.004 0.012
0.294 0.007 0.012
0.303 0.009 0.013
0.314 0.013 0.013
0.315 0.015 0.013
0.316 0.018 0.013
0.315 0.021 0.013
0.308 0.023 0.013
0.302 0.026 0.013
0.303 0.029 0.013
0.304 0.031 0.013
0.307 0.034 0.013
0.307 0.037 0.013
0.306 0.040 0.013
0.307 0.043 0.013
0.307 0.046 0.013
0.306 0.048 0.013
0.307 0.051 0.013
0.316 0.056 0.013
0.318 0.059 0.013
0.316 0.061 0.013
0.313 0.064 0.013
0.314 0.067 0.013
0.313 0.070 0.013
0.311 0.072 0.013
0.313 0.076 0.013
0.319 0.080 0.013
0.320 0.083 0.014
0.320 0.086 0.014
0.319 0.089 0.013
0.310 0.089 0.013
0.311 0.093 0.013
0.311 0.096 0.013
0.323 0.102 0.014
0.342 0.112 0.015
0.334 0.112 0.014
0.331 0.115 0.014
0.319 0.113 0.014
0.323 0.118 0.014
0.315 0.118 0.014
0.312 0.120 0.013
0.313 0.124 0.014
0.401 0.175 0.017
0.394 0.176 0.017
0.392 0.179 0.017
0.383 0.179 0.017
0.385 0.184 0.017
0.381 0.186 0.017
0.361 0.180 0.016
0.364 0.185 0.016
0.364 0.189 0.016
0.349 0.185 0.016
0.323 0.178 0.015
0.330 0.186 0.015
0.327 0.188 0.015
0.328 0.192 0.015
0.328 0.195 0.015
0.325 0.198 0.015
0.321 0.199 0.015
0.319 0.201 0.015
0.318 0.204 0.015
0.316 0.207 0.015
0.313 0.209 0.015
0.310 0.211 0.014
0.309 0.214 0.014
0.308 0.217 0.014
0.317 0.227 0.015
0.344 0.251 0.016
0.426 0.343 0.021
0.427 0.351 0.021
0.441 0.374 0.022
0.447 0.419 0.023
0.447 0.427 0.023
0.448 0.435 0.023
0.449 0.443 0.023
0.448 0.449 0.024
0.445 0.453 0.024
0.445 0.461 0.024
0.438 0.462 0.024
0.372 0.405 0.020
0.371 0.410 0.020
0.495 0.585 0.028
0.487 0.586 0.028
0.474 0.579 0.027
0.167 -0.230 0.012
0.176 -0.239 0.013
0.176 -0.237 0.013
0.178 -0.236 0.013
0.179 -0.234 0.013
0.181 -0.234 0.013
0.183 -0.232 0.013
0.186 -0.232 0.013
0.188 -0.231 0.013
0.189 -0.230 0.013
0.191 -0.229 0.013
0.193 -0.228 0.013
0.195 -0.227 0.013
0.196 -0.225 0.013
0.198 -0.224 0.013
0.200 -0.223 0.013
0.203 -0.223 0.013
0.206 -0.222 0.013
0.207 -0.220 0.013
0.209 -0.219 0.013
0.211 -0.217 0.013
0.213 -0.216 0.013
0.216 -0.216 0.013
0.219 -0.215 0.014
0.222 -0.215 0.014
0.224 -0.214 0.014
0.226 -0.213 0.014
0.228 -0.211 0.014
0.230 -0.210 0.014
0.233 -0.209 0.014
0.237 -0.209 0.014
0.240 -0.209 0.014
0.243 -0.207 0.014
0.246 -0.207 0.014
0.248 -0.205 0.015
0.249 -0.203 0.015
0.251 -0.201 0.015
0.214 -0.166 0.012
0.210 -0.160 0.012
0.211 -0.158 0.012
0.215 -0.159 0.012
0.219 -0.159 0.012
0.217 -0.155 0.012
0.216 -0.152 0.012
0.216 -0.149 0.012
0.216 -0.146 0.012
0.210 -0.140 0.012
0.211 -0.138 0.012
0.209 -0.135 0.012
0.208 -0.132 0.011
0.208 -0.129 0.011
0.208 -0.127 0.011
0.209 -0.125 0.011
0.214 -0.126 0.012
0.218 -0.126 0.012
0.205 -0.116 0.011
0.216 -0.120 0.012
0.216 -0.118 0.012
0.217 -0.116 0.012
0.215 -0.113 0.012
0.216 -0.111 0.012
0.219 -0.110 0.012
0.220 -0.108 0.012
0.219 -0.105 0.012
0.217 -0.102 0.011
0.216 -0.100 0.011
0.213 -0.096 0.011
0.217 -0.096 0.011
0.221 -0.096 0.012
0.224 -0.095 0.012
0.224 -0.092 0.012
0.222 -0.089 0.012
0.223 -0.088 0.012
0.217 -0.083 0.011
0.219 -0.082 0.011
0.219 -0.080 0.011
0.227 -0.080 0.012
0.233 -0.080 0.012
0.236 -0.079 0.012
0.246 -0.080 0.013
0.250 -0.079 0.013
0.249 -0.076 0.013
0.258 -0.077 0.013
0.266 -0.076 0.014
0.409 -0.110 0.021
0.409 -0.106 0.021
0.419 -0.105 0.021
0.426 -0.102 0.022
0.421 -0.097 0.021
0.400 -0.089 0.020
0.386 -0.082 0.020
0.390 -0.079 0.020
0.375 -0.073 0.019
0.285 -0.048 0.014
0.288 -0.046 0.015
0.286 -0.043 0.014
0.286 -0.040 0.014
0.287 -0.038 0.015
0.289 -0.035 0.015
0.291 -0.033 0.015
0.291 -0.030 0.015
0.290 -0.027 0.015
0.293 -0.025 0.015
0.292 -0.022 0.015
0.290 -0.020 0.015
0.286 -0.017 0.014
0.284 -0.014 0.014
0.292 -0.012 0.015
0.292 -0.009 0.015
0.289 -0.007 0.015
0.303 -0.004 0.015
0.313 -0.001 0.016
0.312 0.001 0.016
0.297 0.004 0.015
0.294 0.007 0.015
0.297 0.009 0.015
0.302 0.012 0.015
0.311 0.015 0.016
0.308 0.018 0.016
0.313 0.021 0.016
0.314 0.024 0.016
0.312 0.027 0.016
0.317 0.030 0.016
0.316 0.033 0.016
0.317 0.036 0.016
0.316 0.038 0.016
0.318 0.042 0.016
0.322 0.045 0.016
0.323 0.048 0.016
0.322 0.051 0.016
0.321 0.054 0.016
0.317 0.056 0.016
0.313 0.058 0.016
0.313 0.061 0.016
0.312 0.064 0.016
0.314 0.067 0.016
0.308 0.068 0.016
0.310 0.072 0.016
0.319 0.077 0.016
0.322 0.081 0.017
0.318 0.083 0.016
0.312 0.084 0.016
0.308 0.086 0.016
0.306 0.088 0.016
0.308 0.092 0.016
0.310 0.095 0.016
0.317 0.100 0.016
0.331 0.108 0.017
0.334 0.112 0.017
0.320 0.111 0.017
0.316 0.113 0.016
0.309 0.113 0.016
0.307 0.115 0.016
0.312 0.120 0.016
0.326 0.129 0.017
0.420 0.175 0.022
0.420 0.179 0.022
0.405 0.176 0.021
0.399 0.178 0.021
0.395 0.180 0.021
0.397 0.185 0.021
0.380 0.181 0.020
0.370 0.181 0.020
0.367 0.183 0.020
0.361 0.184 0.019
0.361 0.188 0.020
0.355 0.188 0.019
0.346 0.187 0.019
0.336 0.185 0.018
0.322 0.182 0.018
0.328 0.189 0.018
0.330 0.193 0.018
0.327 0.195 0.018
0.325 0.197 0.018
0.321 0.199 0.018
0.319 0.201 0.018
0.317 0.204 0.018
0.314 0.206 0.018
0.312 0.208 0.018
0.310 0.210 0.017
0.308 0.213 0.017
0.306 0.215 0.017
0.316 0.226 0.018
0.308 0.236 0.018
0.308 0.241 0.018
0.433 0.350 0.026
0.436 0.358 0.026
0.438 0.372 0.026
0.441 0.414 0.027
0.447 0.426 0.028
0.448 0.434 0.028
0.448 0.442 0.028
0.451 0.452 0.029
0.450 0.459 0.029
0.442 0.459 0.028
0.379 0.413 0.025
0.426 0.472 0.028
0.416 0.469 0.028
0.414 0.474 0.028
0.330 0.430 0.024
0.175 -0.241 0.015
0.178 -0.242 0.015
0.176 -0.236 0.015
0.178 -0.235 0.015
0.180 -0.235 0.015
0.182 -0.234 0.015
0.186 -0.236 0.015
0.186 -0.233 0.015
0.188 -0.232 0.015
0.189 -0.230 0.015
0.191 -0.229 0.015
0.192 -0.227 0.015
0.194 -0.226 0.015
0.196 -0.224 0.015
0.198 -0.223 0.015
0.200 -0.223 0.015
0.203 -0.223 0.015
0.206 -0.222 0.016
0.207 -0.220 0.016
0.209 -0.219 0.016
0.211 -0.218 0.016
0.213 -0.217 0.016
0.215 -0.215 0.016
0.218 -0.214 0.016
0.220 -0.214 0.016
0.224 -0.214 0.016
0.226 -0.213 0.016
0.228 -0.211 0.016
0.230 -0.209 0.016
0.233 -0.209 0.016
0.236 -0.208 0.017
0.240 -0.208 0.017
0.242 -0.207 0.017
0.246 -0.207 0.017
0.248 -0.206 0.017
0.250 -0.204 0.017
0.254 -0.204 0.017
0.210 -0.163 0.014
0.207 -0.158 0.014
0.207 -0.156 0.014
0.213 -0.158 0.014
0.215 -0.156 0.014
0.220 -0.158 0.015
0.221 -0.155 0.015
0.212 -0.147 0.014
0.211 -0.144 0.014
0.211 -0.141 0.014
0.209 -0.137 0.014
0.210 -0.135 0.014
0.211 -0.134 0.014
0.198 -0.123 0.013
0.209 -0.128 0.013
0.210 -0.126 0.013
0.210 -0.124 0.013
0.211 -0.122 0.013
0.210 -0.119 0.013
0.212 -0.118 0.013
0.215 -0.117 0.014
0.218 -0.117 0.014
0.216 -0.113 0.014
0.216 -0.111 0.014
0.201 -0.101 0.013
0.207 -0.102 0.013
0.202 -0.098 0.013
0.214 -0.101 0.013
0.204 -0.094 0.013
0.204 -0.092 0.013
0.209 -0.093 0.013
0.220 -0.095 0.014
0.224 -0.094 0.014
0.224 -0.092 0.014
0.219 -0.088 0.013
0.218 -0.086 0.013
0.216 -0.083 0.013
0.207 -0.077 0.013
0.215 -0.078 0.013
0.234 -0.083 0.014
0.237 -0.082 0.014
0.240 -0.080 0.015
0.243 -0.079 0.015
0.249 -0.079 0.015
0.254 -0.078 0.015
0.258 -0.076 0.016
0.264 -0.076 0.016
0.405 -0.109 0.024
0.407 -0.106 0.025
0.414 -0.104 0.025
0.433 -0.104 0.026
0.430 -0.099 0.026
0.398 -0.088 0.024
0.385 -0.082 0.023
0.381 -0.078 0.023
0.373 -0.072 0.022
0.359 -0.066 0.021
0.287 -0.048 0.017
0.287 -0.045 0.017
0.289 -0.043 0.017
0.288 -0.040 0.017
0.288 -0.038 0.017
0.290 -0.035 0.017
0.290 -0.033 0.017
0.291 -0.030 0.017
0.291 -0.028 0.017
0.293 -0.025 0.017
0.295 -0.023 0.018
0.291 -0.020 0.017
0.285 -0.017 0.017
0.285 -0.014 0.017
0.295 -0.012 0.018
0.293 -0.009 0.017
0.290 -0.007 0.017
0.299 -0.004 0.018
0.311 -0.001 0.018
0.304 0.001 0.018
0.300 0.004 0.018
0.293 0.006 0.017
0.290 0.009 0.017
0.289 0.012 0.017
0.291 0.014 0.017
0.298 0.017 0.018
0.307 0.021 0.018
0.312 0.024 0.019
0.310 0.026 0.018
0.313 0.030 0.019
0.322 0.033 0.019
0.318 0.036 0.019
0.313 0.038 0.019
0.317 0.041 0.019
0.325 0.045 0.019
0.325 0.048 0.019
0.322 0.051 0.019
0.318 0.053 0.019
0.317 0.056 0.019
0.312 0.058 0.019
0.309 0.060 0.019
0.320 0.065 0.019
0.318 0.068 0.019
0.308 0.069 0.019
0.310 0.072 0.019
0.322 0.078 0.019
0.320 0.080 0.019
0.310 0.080 0.019
0.308 0.083 0.019
0.309 0.086 0.019
0.312 0.090 0.019
0.318 0.095 0.019
0.319 0.098 0.019
0.321 0.102 0.020
0.324 0.106 0.020
0.324 0.109 0.020
0.318 0.110 0.020
0.309 0.110 0.019
0.304 0.111 0.019
0.306 0.115 0.019
0.315 0.121 0.019
0.424 0.176 0.026
0.424 0.181 0.026
0.415 0.181 0.026
0.400 0.179 0.025
0.399 0.182 0.025
0.392 0.183 0.025
0.375 0.179 0.024
0.373 0.182 0.023
0.366 0.182 0.023
0.360 0.183 0.023
0.351 0.182 0.022
0.348 0.185 0.022
0.342 0.185 0.022
0.336 0.185 0.022
0.329 0.185 0.021
0.327 0.188 0.021
0.327 0.192 0.021
0.326 0.195 0.021
0.321 0.195 0.021
0.320 0.198 0.021
0.319 0.201 0.021
0.316 0.203 0.021
0.311 0.203 0.020
0.308 0.206 0.020
0.309 0.210 0.021
0.307 0.212 0.020
0.304 0.214 0.020
0.301 0.216 0.020
0.298 0.217 0.020
0.295 0.219 0.020
0.296 0.223 0.020
0.297 0.228 0.020
0.296 0.231 0.020
0.294 0.234 0.020
0.276 0.247 0.020
0.278 0.252 0.020
0.444 0.431 0.033
0.443 0.437 0.033
0.393 0.408 0.030
0.424 0.470 0.033
0.385 0.433 0.030
0.303 0.394 0.025
0.180 -0.248 0.017
0.179 -0.244 0.017
0.177 -0.238 0.017
0.178 -0.236 0.017
0.180 -0.235 0.017
0.182 -0.235 0.017
0.185 -0.235 0.017
0.186 -0.233 0.017
0.187 -0.231 0.017
0.189 -0.230 0.017
0.191 -0.229 0.017
0.192 -0.227 0.017
0.194 -0.225 0.017
0.195 -0.224 0.017
0.197 -0.223 0.017
0.200 -0.222 0.017
0.203 -0.222 0.018
0.205 -0.222 0.018
0.207 -0.220 0.018
0.208 -0.218 0.018
0.211 -0.217 0.018
0.213 -0.217 0.018
0.216 -0.216 0.018
0.218 -0.214 0.018
0.220 -0.214 0.018
0.224 -0.214 0.019
0.227 -0.213 0.019
0.228 -0.211 0.019
0.230 -0.210 0.019
0.233 -0.209 0.019
0.236 -0.209 0.019
0.239 -0.208 0.019
0.243 -0.208 0.019
0.246 -0.207 0.020
0.249 -0.206 0.020
0.250 -0.204 0.020
0.250 -0.201 0.020
0.239 -0.189 0.019
0.220 -0.171 0.017
0.212 -0.162 0.016
0.211 -0.158 0.016
0.202 -0.149 0.016
