VERSION .7
FIELDS x y z
SIZE 4 4 4
TYPE F F F
COUNT 1 1 1
WIDTH     2586
HEIGHT 1
VIEWPOINT 0 0 0 1 0 0 0
POINTS     2586
DATA ascii
0.274 0.292 0.058
0.244 0.273 0.053
0.252 0.287 0.055
0.283 0.333 0.062
0.288 0.345 0.064
0.290 0.353 0.065
0.293 0.361 0.066
0.291 0.366 0.066
0.287 0.366 0.065
0.284 0.368 0.065
0.284 0.374 0.066
0.108 -0.150 0.026
0.109 -0.149 0.026
0.116 -0.156 0.028
0.128 -0.170 0.030
0.273 -0.330 0.063
0.285 -0.340 0.065
0.287 -0.338 0.065
0.288 -0.334 0.065
0.290 -0.331 0.065
0.290 -0.326 0.065
0.291 -0.322 0.065
0.292 -0.318 0.064
0.292 -0.314 0.064
0.292 -0.309 0.064
0.293 -0.305 0.064
0.295 -0.303 0.064
0.293 -0.296 0.063
0.292 -0.290 0.062
0.291 -0.285 0.062
0.288 -0.278 0.061
0.288 -0.273 0.061
0.289 -0.270 0.061
0.288 -0.265 0.060
0.289 -0.261 0.060
0.289 -0.257 0.060
0.288 -0.253 0.059
0.287 -0.248 0.059
0.286 -0.243 0.058
0.284 -0.237 0.058
0.281 -0.231 0.057
0.278 -0.225 0.056
0.267 -0.212 0.054
0.220 -0.170 0.044
0.209 -0.159 0.042
0.204 -0.152 0.040
0.198 -0.145 0.039
0.200 -0.144 0.039
0.202 -0.143 0.040
0.199 -0.139 0.039
0.200 -0.137 0.039
0.207 -0.139 0.040
0.214 -0.142 0.041
0.218 -0.142 0.042
0.217 -0.138 0.042
0.214 -0.134 0.041
0.211 -0.130 0.040
0.204 -0.123 0.039
0.205 -0.121 0.039
0.209 -0.122 0.040
0.207 -0.118 0.039
0.206 -0.115 0.039
0.205 -0.113 0.039
0.203 -0.109 0.038
0.211 -0.112 0.040
0.205 -0.106 0.038
0.206 -0.104 0.038
0.203 -0.101 0.038
0.208 -0.101 0.039
0.208 -0.099 0.039
0.205 -0.095 0.038
0.209 -0.095 0.039
0.209 -0.093 0.039
0.209 -0.091 0.039
0.219 -0.093 0.040
0.209 -0.087 0.038
0.211 -0.086 0.039
0.211 -0.083 0.039
0.213 -0.082 0.039
0.220 -0.083 0.040
0.218 -0.080 0.040
0.221 -0.079 0.040
0.222 -0.077 0.040
0.224 -0.075 0.041
0.223 -0.073 0.040
0.230 -0.073 0.042
0.235 -0.073 0.043
0.241 -0.072 0.044
0.250 -0.072 0.045
0.267 -0.075 0.048
0.383 -0.100 0.069
0.387 -0.097 0.069
0.384 -0.093 0.069
0.376 -0.087 0.067
0.370 -0.083 0.066
0.376 -0.080 0.067
0.370 -0.076 0.066
0.316 -0.059 0.056
0.304 -0.054 0.054
0.284 -0.048 0.051
0.282 -0.045 0.050
0.282 -0.042 0.050
0.283 -0.040 0.050
0.284 -0.037 0.050
0.284 -0.035 0.050
0.286 -0.032 0.051
0.287 -0.030 0.051
0.287 -0.027 0.051
0.286 -0.025 0.051
0.286 -0.022 0.051
0.285 -0.019 0.051
0.287 -0.017 0.051
0.288 -0.014 0.051
0.286 -0.012 0.051
0.286 -0.009 0.051
0.287 -0.007 0.051
0.288 -0.004 0.051
0.289 -0.001 0.051
0.290 0.001 0.051
0.291 0.004 0.052
0.288 0.006 0.051
0.284 0.009 0.050
0.281 0.011 0.050
0.288 0.014 0.051
0.293 0.017 0.052
0.297 0.020 0.053
0.294 0.023 0.052
0.295 0.025 0.052
0.294 0.028 0.052
0.290 0.030 0.052
0.281 0.032 0.050
0.294 0.036 0.052
0.293 0.038 0.052
0.296 0.042 0.053
0.297 0.044 0.053
0.298 0.047 0.053
0.299 0.050 0.053
0.297 0.053 0.053
0.288 0.054 0.052
0.290 0.057 0.052
0.305 0.063 0.055
0.278 0.060 0.050
0.290 0.065 0.052
0.288 0.067 0.052
0.297 0.072 0.053
0.299 0.075 0.054
0.294 0.077 0.053
0.292 0.079 0.053
0.307 0.086 0.055
0.308 0.089 0.056
0.299 0.090 0.054
0.286 0.089 0.052
0.267 0.085 0.048
0.264 0.087 0.048
0.273 0.092 0.050
0.270 0.094 0.049
0.276 0.099 0.050
0.288 0.106 0.053
0.294 0.111 0.054
0.290 0.113 0.053
0.296 0.118 0.054
0.312 0.127 0.058
0.316 0.132 0.058
0.335 0.143 0.062
0.348 0.153 0.065
0.353 0.159 0.066
0.355 0.163 0.066
0.360 0.169 0.067
0.359 0.173 0.067
0.354 0.174 0.066
0.349 0.175 0.066
0.346 0.178 0.065
0.343 0.180 0.065
0.339 0.181 0.064
0.327 0.179 0.062
0.325 0.181 0.062
0.321 0.182 0.061
0.315 0.182 0.060
0.308 0.182 0.059
0.304 0.183 0.058
0.300 0.184 0.058
0.295 0.184 0.057
0.291 0.185 0.056
0.287 0.186 0.056
0.281 0.186 0.055
0.275 0.185 0.054
0.271 0.186 0.053
0.266 0.185 0.053
0.264 0.187 0.052
0.262 0.190 0.052
0.261 0.192 0.052
0.260 0.195 0.052
0.259 0.197 0.052
0.259 0.201 0.052
0.259 0.204 0.053
0.260 0.209 0.053
0.259 0.211 0.053
0.257 0.214 0.053
0.258 0.218 0.053
0.258 0.222 0.054
0.257 0.225 0.054
0.256 0.228 0.054
0.256 0.231 0.054
0.256 0.235 0.054
0.255 0.238 0.054
0.255 0.242 0.055
0.254 0.245 0.055
0.253 0.249 0.055
0.252 0.252 0.055
0.262 0.266 0.057
0.262 0.270 0.058
0.270 0.283 0.060
0.258 0.275 0.057
0.248 0.269 0.056
0.245 0.271 0.055
0.246 0.276 0.056
0.249 0.284 0.057
0.277 0.321 0.064
0.280 0.329 0.065
0.283 0.339 0.066
0.289 0.351 0.068
0.291 0.359 0.069
0.289 0.363 0.069
0.285 0.363 0.068
0.280 0.363 0.068
0.281 0.370 0.068
0.105 -0.146 0.027
0.106 -0.146 0.027
0.106 -0.144 0.027
0.107 -0.144 0.027
0.108 -0.142 0.027
0.109 -0.141 0.027
0.117 -0.150 0.029
0.287 -0.333 0.068
0.288 -0.329 0.068
0.289 -0.325 0.068
0.289 -0.321 0.068
0.291 -0.317 0.068
0.292 -0.314 0.068
0.293 -0.310 0.067
0.293 -0.306 0.067
0.295 -0.303 0.067
0.295 -0.298 0.067
0.293 -0.292 0.066
0.290 -0.285 0.065
0.289 -0.279 0.064
0.289 -0.275 0.064
0.288 -0.270 0.064
0.288 -0.266 0.063
0.288 -0.261 0.063
0.287 -0.256 0.062
0.286 -0.251 0.062
0.287 -0.248 0.062
0.286 -0.243 0.061
0.285 -0.238 0.061
0.282 -0.232 0.060
0.281 -0.227 0.060
0.215 -0.166 0.045
0.206 -0.156 0.043
0.201 -0.150 0.042
0.199 -0.146 0.041
0.198 -0.143 0.041
0.197 -0.140 0.041
0.195 -0.136 0.040
0.196 -0.135 0.040
0.205 -0.138 0.042
0.210 -0.139 0.043
0.214 -0.139 0.043
0.216 -0.138 0.044
0.216 -0.136 0.044
0.214 -0.132 0.043
0.205 -0.124 0.041
0.205 -0.122 0.041
0.205 -0.120 0.041
0.204 -0.116 0.041
0.205 -0.115 0.041
0.207 -0.114 0.041
0.205 -0.110 0.040
0.205 -0.109 0.041
0.206 -0.107 0.040
0.207 -0.105 0.041
0.208 -0.104 0.041
0.210 -0.102 0.041
0.209 -0.100 0.041
0.206 -0.096 0.040
0.206 -0.094 0.040
0.208 -0.093 0.040
0.204 -0.089 0.040
0.206 -0.088 0.040
0.198 -0.082 0.038
0.211 -0.085 0.041
0.206 -0.082 0.040
0.209 -0.081 0.040
0.224 -0.084 0.043
0.225 -0.082 0.043
0.220 -0.078 0.042
0.223 -0.077 0.043
0.222 -0.075 0.042
0.223 -0.073 0.042
0.223 -0.071 0.042
0.248 -0.076 0.047
0.244 -0.073 0.046
0.248 -0.072 0.047
0.255 -0.071 0.048
0.370 -0.100 0.070
0.380 -0.099 0.072
0.385 -0.097 0.073
0.378 -0.092 0.071
0.372 -0.087 0.070
0.367 -0.082 0.069
0.364 -0.078 0.068
0.367 -0.075 0.069
0.292 -0.052 0.055
0.285 -0.048 0.053
0.282 -0.045 0.053
0.286 -0.043 0.053
0.285 -0.040 0.053
0.285 -0.038 0.053
0.284 -0.035 0.053
0.285 -0.032 0.053
0.286 -0.030 0.053
0.284 -0.027 0.053
0.281 -0.024 0.053
0.281 -0.022 0.052
0.283 -0.019 0.053
0.288 -0.017 0.054
0.288 -0.014 0.054
0.288 -0.012 0.054
0.287 -0.009 0.054
0.288 -0.007 0.054
0.282 -0.004 0.053
0.288 -0.001 0.054
0.292 0.001 0.055
0.294 0.004 0.055
0.290 0.007 0.054
0.288 0.009 0.054
0.284 0.012 0.053
0.290 0.014 0.054
0.298 0.017 0.056
0.299 0.020 0.056
0.293 0.023 0.055
0.293 0.025 0.055
0.291 0.028 0.054
0.289 0.030 0.054
0.292 0.033 0.055
0.294 0.036 0.055
0.295 0.039 0.055
0.296 0.042 0.056
0.298 0.045 0.056
0.299 0.048 0.056
0.300 0.050 0.056
0.294 0.052 0.055
0.285 0.053 0.054
0.305 0.060 0.057
0.310 0.064 0.058
0.288 0.062 0.054
0.275 0.062 0.052
0.283 0.066 0.054
0.283 0.069 0.054
0.286 0.072 0.054
0.293 0.077 0.056
0.294 0.080 0.056
0.305 0.086 0.058
0.306 0.089 0.058
0.304 0.091 0.058
0.296 0.092 0.056
0.282 0.090 0.054
0.282 0.093 0.054
0.284 0.096 0.054
0.281 0.098 0.054
0.271 0.097 0.052
0.267 0.098 0.051
0.284 0.107 0.055
0.289 0.112 0.056
0.299 0.119 0.058
0.311 0.127 0.060
0.323 0.136 0.063
0.326 0.140 0.063
0.331 0.145 0.064
0.337 0.152 0.066
0.345 0.159 0.068
0.349 0.164 0.068
0.349 0.168 0.069
0.346 0.170 0.068
0.345 0.174 0.068
0.339 0.174 0.067
0.333 0.174 0.066
0.334 0.179 0.067
0.330 0.180 0.066
0.322 0.179 0.064
0.319 0.181 0.064
0.316 0.183 0.063
0.306 0.181 0.062
0.302 0.182 0.061
0.299 0.184 0.061
0.293 0.183 0.060
0.288 0.184 0.059
0.284 0.184 0.058
0.280 0.185 0.058
0.275 0.185 0.057
0.269 0.185 0.056
0.265 0.185 0.055
0.263 0.187 0.055
0.262 0.190 0.055
0.261 0.192 0.055
0.261 0.195 0.055
0.260 0.198 0.055
0.259 0.201 0.055
0.259 0.204 0.055
0.259 0.208 0.056
0.260 0.212 0.056
0.258 0.214 0.056
0.258 0.218 0.056
0.257 0.221 0.056
0.257 0.224 0.056
0.257 0.228 0.057
0.256 0.231 0.057
0.255 0.234 0.057
0.254 0.238 0.057
0.254 0.242 0.057
0.254 0.246 0.058
0.254 0.249 0.058
0.252 0.252 0.058
0.259 0.263 0.060
0.252 0.260 0.058
0.253 0.266 0.059
0.249 0.266 0.059
0.248 0.269 0.058
0.247 0.273 0.059
0.251 0.281 0.060
0.273 0.317 0.066
0.277 0.326 0.068
0.283 0.339 0.070
0.285 0.348 0.071
0.287 0.355 0.071
0.277 0.353 0.070
0.228 0.301 0.058
0.105 -0.146 0.028
0.106 -0.145 0.028
0.107 -0.145 0.028
0.107 -0.143 0.028
0.107 -0.141 0.028
0.108 -0.140 0.028
0.107 -0.138 0.028
0.105 -0.134 0.027
0.109 -0.136 0.028
0.121 -0.148 0.031
0.122 -0.149 0.031
0.133 -0.159 0.034
0.142 -0.168 0.036
0.287 -0.323 0.071
0.288 -0.320 0.071
0.289 -0.316 0.070
0.291 -0.313 0.071
0.291 -0.309 0.070
0.292 -0.305 0.070
0.294 -0.302 0.070
0.295 -0.299 0.070
0.291 -0.290 0.069
0.291 -0.286 0.068
0.291 -0.281 0.068
0.290 -0.276 0.067
0.288 -0.270 0.067
0.289 -0.266 0.067
0.286 -0.260 0.066
0.286 -0.255 0.065
0.286 -0.252 0.065
0.286 -0.247 0.065
0.284 -0.241 0.064
0.284 -0.238 0.064
0.285 -0.235 0.064
0.284 -0.231 0.063
0.204 -0.155 0.045
0.200 -0.150 0.044
0.201 -0.148 0.044
0.198 -0.143 0.043
0.197 -0.140 0.043
0.197 -0.137 0.042
0.200 -0.137 0.043
0.204 -0.137 0.044
0.206 -0.137 0.044
0.206 -0.134 0.044
0.214 -0.137 0.045
0.219 -0.137 0.046
0.216 -0.133 0.046
0.212 -0.128 0.045
0.204 -0.121 0.043
0.201 -0.117 0.042
0.202 -0.116 0.042
0.208 -0.117 0.043
0.209 -0.115 0.043
0.209 -0.113 0.043
0.205 -0.109 0.042
0.207 -0.107 0.043
0.207 -0.105 0.043
0.211 -0.105 0.043
0.211 -0.103 0.043
0.211 -0.101 0.043
0.208 -0.097 0.043
0.203 -0.092 0.041
0.206 -0.092 0.042
0.208 -0.091 0.042
0.197 -0.084 0.040
0.210 -0.087 0.043
0.199 -0.081 0.040
0.209 -0.083 0.042
0.208 -0.080 0.042
0.207 -0.078 0.042
0.219 -0.078 0.044
0.220 -0.076 0.044
0.224 -0.076 0.045
0.224 -0.074 0.045
0.229 -0.073 0.046
0.240 -0.074 0.048
0.248 -0.074 0.049
0.251 -0.073 0.050
0.252 -0.071 0.050
0.374 -0.098 0.074
0.375 -0.094 0.074
0.372 -0.090 0.074
0.368 -0.086 0.073
0.360 -0.081 0.071
0.358 -0.077 0.071
0.355 -0.073 0.070
0.347 -0.068 0.068
0.307 -0.057 0.060
0.295 -0.052 0.058
0.284 -0.048 0.056
0.282 -0.045 0.055
0.282 -0.042 0.055
0.284 -0.040 0.056
0.283 -0.037 0.056
0.283 -0.035 0.055
0.286 -0.032 0.056
0.286 -0.030 0.056
0.283 -0.027 0.055
0.280 -0.024 0.055
0.280 -0.022 0.055
0.281 -0.019 0.055
0.285 -0.017 0.056
0.287 -0.014 0.056
0.288 -0.012 0.056
0.287 -0.009 0.056
0.284 -0.006 0.056
0.281 -0.004 0.055
0.282 -0.001 0.055
0.293 0.001 0.057
0.293 0.004 0.057
0.291 0.007 0.057
0.295 0.009 0.058
0.301 0.012 0.059
0.296 0.015 0.058
0.295 0.017 0.058
0.296 0.020 0.058
0.295 0.023 0.058
0.294 0.025 0.058
0.292 0.028 0.057
0.298 0.031 0.058
0.299 0.034 0.059
0.297 0.036 0.058
0.297 0.039 0.058
0.300 0.042 0.059
0.301 0.045 0.059
0.296 0.047 0.058
0.297 0.050 0.059
0.290 0.052 0.057
0.280 0.052 0.055
0.297 0.058 0.059
0.304 0.063 0.060
0.294 0.063 0.058
0.280 0.063 0.055
0.277 0.065 0.055
0.274 0.067 0.054
0.284 0.072 0.057
0.282 0.074 0.056
0.291 0.079 0.058
0.296 0.083 0.059
0.301 0.087 0.060
0.297 0.089 0.059
0.292 0.091 0.059
0.296 0.095 0.059
0.294 0.097 0.059
0.293 0.099 0.059
0.288 0.101 0.058
0.279 0.100 0.056
0.269 0.099 0.054
0.257 0.097 0.052
0.319 0.130 0.065
0.322 0.135 0.066
0.323 0.139 0.066
0.323 0.142 0.066
0.319 0.144 0.065
0.323 0.149 0.066
0.332 0.156 0.068
0.338 0.163 0.070
0.336 0.165 0.070
0.329 0.166 0.068
0.329 0.169 0.068
0.329 0.173 0.069
0.325 0.174 0.068
0.325 0.178 0.068
0.319 0.178 0.067
0.316 0.180 0.067
0.312 0.181 0.066
0.305 0.181 0.065
0.301 0.182 0.064
0.296 0.182 0.063
0.290 0.182 0.062
0.286 0.183 0.061
0.282 0.184 0.061
0.279 0.185 0.060
0.276 0.186 0.060
0.268 0.184 0.058
0.264 0.185 0.058
0.263 0.187 0.057
0.262 0.190 0.057
0.261 0.192 0.058
0.260 0.195 0.058
0.260 0.198 0.058
0.260 0.202 0.058
0.259 0.205 0.058
0.258 0.207 0.058
0.260 0.212 0.059
0.259 0.215 0.059
0.257 0.218 0.059
0.257 0.221 0.059
0.256 0.224 0.059
0.257 0.228 0.059
0.256 0.231 0.059
0.254 0.234 0.059
0.253 0.237 0.060
0.254 0.242 0.060
0.254 0.246 0.060
0.254 0.250 0.061
0.253 0.253 0.061
0.248 0.253 0.060
0.252 0.261 0.061
0.246 0.258 0.060
0.253 0.271 0.062
0.253 0.275 0.063
0.252 0.279 0.063
0.249 0.280 0.062
0.265 0.308 0.068
0.273 0.322 0.070
0.278 0.333 0.072
0.203 0.255 0.053
0.195 0.249 0.052
0.191 0.249 0.051
0.191 0.253 0.051
0.114 -0.159 0.032
0.110 -0.151 0.031
0.112 -0.152 0.031
0.111 -0.149 0.031
0.112 -0.148 0.031
0.113 -0.148 0.031
0.115 -0.148 0.031
0.115 -0.146 0.031
0.113 -0.141 0.030
0.120 -0.148 0.032
0.115 -0.140 0.031
0.122 -0.146 0.032
0.132 -0.155 0.035
0.287 -0.314 0.073
0.288 -0.311 0.073
0.289 -0.307 0.073
0.291 -0.304 0.073
0.292 -0.300 0.073
0.290 -0.294 0.072
0.290 -0.290 0.072
0.291 -0.286 0.072
0.291 -0.282 0.071
0.291 -0.277 0.071
0.291 -0.272 0.070
0.289 -0.267 0.070
0.288 -0.262 0.069
0.286 -0.256 0.068
0.286 -0.252 0.068
0.286 -0.248 0.068
0.284 -0.242 0.067
0.284 -0.238 0.067
0.285 -0.235 0.067
0.285 -0.232 0.067
0.271 -0.216 0.063
0.261 -0.205 0.060
0.202 -0.154 0.046
0.202 -0.151 0.046
0.204 -0.150 0.046
0.208 -0.150 0.047
0.201 -0.143 0.045
0.198 -0.138 0.045
0.199 -0.137 0.045
0.202 -0.136 0.045
0.201 -0.133 0.045
0.204 -0.133 0.045
0.211 -0.135 0.047
0.217 -0.137 0.048
0.219 -0.135 0.048
0.210 -0.127 0.046
0.205 -0.122 0.045
0.202 -0.118 0.044
0.204 -0.117 0.045
0.207 -0.116 0.045
0.209 -0.115 0.045
0.207 -0.112 0.045
0.206 -0.109 0.045
0.205 -0.107 0.044
0.210 -0.107 0.045
0.213 -0.106 0.046
0.211 -0.103 0.045
0.211 -0.100 0.045
0.211 -0.099 0.045
0.208 -0.095 0.044
0.208 -0.093 0.044
0.209 -0.091 0.045
0.208 -0.089 0.044
0.209 -0.087 0.044
0.212 -0.086 0.045
0.208 -0.083 0.044
0.213 -0.082 0.045
0.211 -0.080 0.045
0.220 -0.081 0.046
0.217 -0.077 0.046
0.218 -0.076 0.046
0.222 -0.075 0.046
0.225 -0.074 0.047
0.230 -0.073 0.048
0.238 -0.073 0.050
0.246 -0.074 0.051
0.252 -0.073 0.052
0.262 -0.073 0.055
0.343 -0.093 0.071
0.354 -0.092 0.073
0.359 -0.091 0.075
0.364 -0.088 0.075
0.363 -0.085 0.075
0.356 -0.080 0.074
0.354 -0.076 0.073
0.351 -0.072 0.072
0.346 -0.068 0.071
0.327 -0.061 0.067
0.321 -0.057 0.066
0.289 -0.049 0.060
0.282 -0.045 0.058
0.279 -0.042 0.057
0.279 -0.039 0.057
0.277 -0.037 0.057
0.283 -0.035 0.058
0.286 -0.033 0.059
0.286 -0.030 0.059
0.284 -0.027 0.058
0.282 -0.024 0.058
0.281 -0.022 0.058
0.282 -0.019 0.058
0.284 -0.017 0.058
0.286 -0.014 0.059
0.286 -0.012 0.059
0.285 -0.009 0.058
0.284 -0.006 0.058
0.285 -0.004 0.058
0.289 -0.001 0.059
0.288 0.001 0.059
0.286 0.004 0.059
0.291 0.007 0.060
0.300 0.009 0.061
0.299 0.012 0.061
0.296 0.015 0.061
0.291 0.017 0.060
0.296 0.020 0.061
0.297 0.023 0.061
0.295 0.025 0.061
0.299 0.028 0.061
0.300 0.031 0.062
0.303 0.034 0.062
0.302 0.037 0.062
0.296 0.039 0.061
0.301 0.042 0.062
0.290 0.044 0.060
0.294 0.047 0.061
0.291 0.049 0.060
0.284 0.051 0.059
0.288 0.054 0.060
0.290 0.057 0.060
0.292 0.060 0.060
0.284 0.061 0.059
0.278 0.062 0.058
0.274 0.064 0.057
0.286 0.070 0.059
0.272 0.069 0.057
0.286 0.075 0.060
0.285 0.078 0.060
0.293 0.082 0.061
0.291 0.085 0.061
0.287 0.086 0.060
0.283 0.088 0.059
0.290 0.093 0.061
0.298 0.098 0.063
0.294 0.100 0.062
0.291 0.102 0.061
0.284 0.102 0.060
0.266 0.098 0.056
0.261 0.099 0.055
0.262 0.102 0.056
0.316 0.130 0.067
0.320 0.134 0.068
0.321 0.138 0.069
0.320 0.141 0.069
0.315 0.142 0.068
0.316 0.146 0.068
0.319 0.150 0.069
0.322 0.155 0.070
0.322 0.159 0.070
0.324 0.163 0.070
0.324 0.167 0.071
0.324 0.170 0.071
0.321 0.172 0.070
0.319 0.175 0.070
0.314 0.175 0.069
0.310 0.177 0.068
0.309 0.180 0.068
0.305 0.181 0.068
0.302 0.182 0.067
0.296 0.182 0.066
0.290 0.182 0.065
0.286 0.183 0.064
0.282 0.184 0.064
0.279 0.185 0.063
0.274 0.185 0.062
0.267 0.184 0.061
0.264 0.185 0.060
0.261 0.186 0.060
0.261 0.189 0.060
0.261 0.192 0.060
0.260 0.195 0.060
0.260 0.199 0.060
0.260 0.202 0.061
0.258 0.204 0.061
0.259 0.208 0.061
0.259 0.212 0.061
0.258 0.215 0.061
0.257 0.218 0.061
0.257 0.221 0.062
0.256 0.225 0.062
0.255 0.227 0.062
0.255 0.231 0.062
0.254 0.234 0.062
0.253 0.237 0.062
0.252 0.240 0.062
0.255 0.247 0.063
0.254 0.251 0.064
0.248 0.248 0.062
0.246 0.251 0.062
0.237 0.246 0.061
0.246 0.259 0.063
0.253 0.271 0.065
0.255 0.278 0.066
0.242 0.268 0.063
0.240 0.270 0.063
0.207 0.245 0.056
0.202 0.247 0.055
0.198 0.246 0.054
0.193 0.244 0.053
0.190 0.243 0.053
0.185 0.241 0.052
0.173 0.229 0.049
0.109 -0.152 0.032
0.110 -0.151 0.032
0.111 -0.151 0.032
0.114 -0.153 0.033
0.114 -0.151 0.033
0.113 -0.147 0.032
0.113 -0.146 0.032
0.112 -0.143 0.032
0.114 -0.142 0.032
0.113 -0.140 0.032
0.119 -0.145 0.033
0.120 -0.144 0.033
0.118 -0.137 0.032
0.131 -0.150 0.035
0.135 -0.152 0.036
0.288 -0.306 0.076
0.287 -0.300 0.075
0.286 -0.295 0.075
0.288 -0.292 0.075
0.287 -0.287 0.074
0.288 -0.284 0.074
0.290 -0.281 0.074
0.291 -0.277 0.074
0.290 -0.272 0.073
0.289 -0.267 0.073
0.289 -0.262 0.072
0.286 -0.256 0.072
0.286 -0.252 0.071
0.285 -0.247 0.071
0.285 -0.243 0.070
0.285 -0.239 0.070
0.285 -0.236 0.070
0.283 -0.230 0.069
0.275 -0.220 0.067
0.263 -0.207 0.064
0.201 -0.153 0.048
0.197 -0.148 0.047
0.205 -0.151 0.049
0.205 -0.148 0.049
0.202 -0.144 0.048
0.197 -0.138 0.047
0.197 -0.135 0.046
0.198 -0.134 0.046
0.199 -0.132 0.047
0.202 -0.132 0.047
0.205 -0.132 0.048
0.212 -0.133 0.049
0.211 -0.130 0.049
0.206 -0.125 0.047
0.203 -0.121 0.047
0.203 -0.119 0.047
0.202 -0.116 0.046
0.204 -0.115 0.047
0.204 -0.112 0.046
0.206 -0.111 0.047
0.206 -0.109 0.047
0.206 -0.107 0.047
0.205 -0.104 0.046
0.206 -0.103 0.046
0.212 -0.103 0.048
0.210 -0.100 0.047
0.206 -0.096 0.046
0.202 -0.092 0.045
0.201 -0.090 0.045
0.205 -0.090 0.046
0.206 -0.088 0.046
0.203 -0.085 0.045
0.210 -0.085 0.046
0.202 -0.080 0.045
0.207 -0.080 0.046
0.205 -0.077 0.045
0.207 -0.076 0.046
0.212 -0.076 0.046
0.216 -0.075 0.047
0.219 -0.074 0.048
0.223 -0.073 0.049
0.228 -0.073 0.050
0.233 -0.072 0.051
0.242 -0.072 0.053
0.248 -0.072 0.054
0.265 -0.074 0.058
0.334 -0.091 0.073
0.347 -0.091 0.075
0.350 -0.088 0.076
0.346 -0.084 0.075
0.348 -0.081 0.075
0.357 -0.080 0.077
0.346 -0.074 0.075
0.341 -0.070 0.074
0.338 -0.066 0.073
0.334 -0.062 0.072
0.321 -0.057 0.069
0.283 -0.045 0.061
0.280 -0.042 0.060
0.274 -0.039 0.059
0.278 -0.037 0.060
0.283 -0.035 0.061
0.282 -0.032 0.061
0.283 -0.030 0.061
0.285 -0.027 0.061
0.282 -0.024 0.060
0.282 -0.022 0.060
0.281 -0.019 0.060
0.284 -0.017 0.061
0.285 -0.014 0.061
0.285 -0.012 0.061
0.282 -0.009 0.060
0.285 -0.007 0.061
0.289 -0.004 0.062
0.289 -0.001 0.062
0.285 0.001 0.061
0.283 0.004 0.061
0.286 0.006 0.061
0.294 0.009 0.063
0.293 0.012 0.063
0.283 0.014 0.061
0.286 0.017 0.061
0.291 0.020 0.063
0.292 0.023 0.063
0.288 0.025 0.062
0.286 0.027 0.061
0.296 0.031 0.064
0.295 0.034 0.064
0.293 0.036 0.063
0.291 0.038 0.063
0.288 0.041 0.062
0.284 0.043 0.061
0.288 0.046 0.062
0.290 0.049 0.063
0.298 0.053 0.064
0.293 0.055 0.063
0.291 0.057 0.063
0.287 0.059 0.062
0.279 0.060 0.061
0.274 0.062 0.059
0.274 0.064 0.060
0.283 0.069 0.061
0.284 0.075 0.062
0.285 0.077 0.062
0.284 0.080 0.062
0.288 0.084 0.063
0.279 0.084 0.061
0.280 0.087 0.061
0.284 0.091 0.062
0.298 0.099 0.066
0.296 0.101 0.065
0.291 0.102 0.064
0.289 0.104 0.064
0.290 0.107 0.064
0.285 0.108 0.063
0.280 0.109 0.062
0.268 0.107 0.060
0.261 0.107 0.058
0.312 0.131 0.070
0.321 0.138 0.072
0.317 0.140 0.071
0.317 0.143 0.071
0.319 0.147 0.072
0.315 0.149 0.071
0.312 0.151 0.071
0.313 0.155 0.071
0.312 0.157 0.071
0.318 0.163 0.072
0.315 0.165 0.072
0.317 0.170 0.072
0.317 0.174 0.073
0.310 0.173 0.071
0.308 0.175 0.071
0.305 0.177 0.071
0.305 0.181 0.071
0.302 0.182 0.070
0.299 0.184 0.070
0.293 0.184 0.069
0.287 0.183 0.067
0.282 0.183 0.066
0.278 0.184 0.066
0.273 0.185 0.065
0.268 0.185 0.064
0.265 0.185 0.063
0.261 0.186 0.063
0.261 0.190 0.063
0.261 0.192 0.063
0.260 0.196 0.063
0.259 0.199 0.063
0.259 0.201 0.063
0.259 0.205 0.063
0.258 0.208 0.064
0.258 0.212 0.064
0.258 0.215 0.064
0.257 0.218 0.064
0.256 0.221 0.064
0.255 0.224 0.064
0.254 0.227 0.064
0.254 0.231 0.065
0.255 0.235 0.065
0.253 0.237 0.065
0.251 0.239 0.065
0.252 0.244 0.065
0.246 0.243 0.064
0.245 0.246 0.064
0.236 0.241 0.062
0.232 0.241 0.062
0.219 0.235 0.059
0.210 0.236 0.058
0.203 0.233 0.056
0.196 0.228 0.055
0.196 0.232 0.055
0.194 0.233 0.055
0.193 0.236 0.055
0.190 0.236 0.054
0.189 0.238 0.054
0.238 0.315 0.070
0.100 -0.139 0.030
0.098 -0.135 0.030
0.098 -0.134 0.030
0.099 -0.133 0.030
0.099 -0.131 0.030
0.099 -0.130 0.030
0.100 -0.129 0.030
0.100 -0.127 0.029
0.100 -0.125 0.029
0.100 -0.124 0.029
0.101 -0.123 0.029
0.102 -0.122 0.029
0.102 -0.121 0.029
0.112 -0.131 0.032
0.120 -0.138 0.034
0.127 -0.144 0.036
0.124 -0.138 0.035
0.123 -0.135 0.034
0.277 -0.291 0.076
0.280 -0.289 0.076
0.279 -0.284 0.076
0.281 -0.282 0.076
0.284 -0.280 0.076
0.287 -0.278 0.077
0.282 -0.269 0.075
0.286 -0.269 0.076
0.287 -0.266 0.076
0.287 -0.262 0.075
0.286 -0.256 0.075
0.285 -0.252 0.074
0.284 -0.247 0.074
0.285 -0.244 0.073
0.286 -0.241 0.073
0.285 -0.236 0.073
0.283 -0.230 0.072
0.277 -0.222 0.070
0.197 -0.150 0.049
0.198 -0.148 0.049
0.202 -0.149 0.050
0.202 -0.146 0.050
0.201 -0.143 0.050
0.200 -0.140 0.049
0.197 -0.136 0.048
0.199 -0.134 0.049
0.200 -0.133 0.049
0.203 -0.132 0.049
0.208 -0.133 0.050
0.206 -0.130 0.050
0.202 -0.125 0.049
0.200 -0.121 0.048
0.201 -0.120 0.048
0.202 -0.118 0.048
0.204 -0.117 0.049
0.199 -0.112 0.047
0.202 -0.111 0.048
0.206 -0.111 0.049
0.208 -0.110 0.049
0.176 -0.089 0.041
0.174 -0.087 0.041
0.174 -0.085 0.041
0.172 -0.082 0.040
0.172 -0.081 0.040
0.174 -0.079 0.040
0.175 -0.078 0.041
0.175 -0.077 0.041
0.176 -0.075 0.041
0.179 -0.075 0.041
0.181 -0.074 0.042
0.183 -0.073 0.042
0.191 -0.074 0.044
0.208 -0.078 0.048
0.210 -0.077 0.048
0.214 -0.077 0.049
0.214 -0.074 0.049
0.220 -0.075 0.050
0.226 -0.074 0.052
0.228 -0.073 0.052
0.230 -0.071 0.052
0.234 -0.070 0.053
0.248 -0.072 0.056
0.253 -0.071 0.057
0.342 -0.090 0.077
0.341 -0.086 0.077
0.337 -0.082 0.076
0.336 -0.078 0.076
0.336 -0.075 0.076
0.336 -0.072 0.076
0.334 -0.069 0.075
0.329 -0.065 0.074
0.324 -0.061 0.073
0.311 -0.055 0.070
0.297 -0.050 0.067
0.284 -0.045 0.064
0.277 -0.042 0.062
0.276 -0.039 0.062
0.279 -0.037 0.063
0.283 -0.035 0.063
0.282 -0.032 0.063
0.278 -0.029 0.062
0.281 -0.027 0.063
0.283 -0.024 0.063
0.282 -0.022 0.063
0.283 -0.019 0.063
0.287 -0.017 0.064
0.290 -0.014 0.065
0.286 -0.012 0.064
0.281 -0.009 0.063
0.282 -0.006 0.063
0.289 -0.004 0.065
0.289 -0.001 0.065
0.283 0.001 0.063
0.282 0.004 0.063
0.285 0.006 0.064
0.293 0.009 0.065
0.285 0.012 0.064
0.285 0.014 0.064
0.286 0.017 0.064
0.289 0.020 0.065
0.287 0.022 0.064
0.284 0.024 0.064
0.285 0.027 0.064
0.289 0.030 0.065
0.285 0.032 0.064
0.280 0.034 0.063
0.281 0.037 0.063
0.283 0.040 0.064
0.279 0.042 0.063
0.287 0.046 0.064
0.298 0.050 0.067
0.296 0.053 0.067
0.292 0.055 0.066
0.289 0.057 0.065
0.287 0.059 0.065
0.285 0.061 0.064
0.280 0.063 0.063
0.276 0.065 0.063
0.268 0.065 0.061
0.285 0.075 0.065
0.287 0.078 0.065
0.283 0.080 0.065
0.280 0.082 0.064
0.281 0.085 0.064
0.284 0.088 0.065
0.288 0.092 0.066
0.294 0.097 0.067
0.294 0.100 0.068
0.295 0.103 0.068
0.299 0.108 0.069
0.300 0.111 0.069
0.295 0.112 0.068
0.292 0.114 0.068
0.287 0.115 0.067
0.273 0.112 0.063
0.257 0.108 0.060
0.306 0.132 0.071
0.301 0.133 0.070
0.313 0.141 0.073
0.317 0.146 0.074
0.314 0.148 0.074
0.310 0.150 0.073
0.307 0.152 0.073
0.310 0.156 0.073
0.306 0.158 0.073
0.307 0.162 0.073
0.304 0.163 0.073
0.306 0.168 0.073
0.307 0.172 0.074
0.302 0.172 0.073
0.301 0.175 0.073
0.301 0.179 0.073
0.299 0.181 0.073
0.295 0.182 0.072
0.291 0.183 0.071
0.284 0.182 0.070
0.280 0.183 0.069
0.277 0.184 0.068
0.273 0.185 0.068
0.268 0.184 0.066
0.265 0.186 0.066
0.262 0.187 0.065
0.260 0.189 0.065
0.261 0.193 0.066
0.260 0.196 0.066
0.259 0.198 0.066
0.258 0.201 0.066
0.258 0.205 0.066
0.258 0.208 0.066
0.257 0.211 0.066
0.256 0.214 0.067
0.255 0.217 0.066
0.254 0.219 0.066
0.254 0.223 0.067
0.252 0.226 0.067
0.254 0.231 0.068
0.254 0.234 0.068
0.250 0.235 0.067
0.245 0.234 0.066
0.233 0.227 0.063
0.234 0.231 0.064
0.234 0.235 0.064
0.230 0.235 0.064
0.214 0.226 0.060
0.215 0.231 0.061
0.201 0.220 0.057
0.200 0.222 0.057
0.201 0.227 0.058
0.199 0.228 0.057
0.192 0.224 0.056
0.189 0.225 0.055
0.193 0.233 0.057
0.194 0.238 0.058
0.249 0.330 0.076
0.098 -0.136 0.031
0.099 -0.135 0.031
0.100 -0.135 0.031
0.099 -0.132 0.031
0.099 -0.130 0.031
0.100 -0.129 0.031
0.099 -0.127 0.030
0.100 -0.126 0.031
0.101 -0.125 0.031
0.102 -0.124 0.031
0.102 -0.123 0.031
0.102 -0.121 0.030
0.101 -0.118 0.030
0.102 -0.117 0.030
0.103 -0.116 0.030
0.120 -0.134 0.035
0.119 -0.131 0.035
0.118 -0.128 0.034
0.269 -0.278 0.076
0.273 -0.278 0.077
0.275 -0.275 0.077
0.276 -0.273 0.077
0.279 -0.271 0.078
0.280 -0.268 0.078
0.277 -0.261 0.076
0.278 -0.257 0.076
0.281 -0.256 0.077
0.284 -0.255 0.077
0.285 -0.251 0.077
0.283 -0.246 0.076
0.283 -0.242 0.076
0.286 -0.241 0.076
0.286 -0.237 0.076
0.281 -0.229 0.074
0.277 -0.222 0.073
0.266 -0.210 0.070
0.201 -0.154 0.053
0.197 -0.148 0.051
0.198 -0.146 0.051
0.198 -0.144 0.051
0.200 -0.143 0.052
0.204 -0.143 0.052
0.206 -0.142 0.053
0.200 -0.135 0.051
0.204 -0.136 0.052
0.207 -0.135 0.052
0.207 -0.133 0.052
0.208 -0.131 0.052
0.196 -0.121 0.049
0.199 -0.121 0.050
0.203 -0.121 0.051
0.206 -0.120 0.051
0.213 -0.122 0.053
0.170 -0.092 0.042
0.168 -0.089 0.041
0.170 -0.088 0.042
0.171 -0.087 0.042
0.172 -0.082 0.042
0.173 -0.081 0.042
0.174 -0.080 0.042
0.175 -0.078 0.042
0.175 -0.077 0.042
0.176 -0.075 0.043
0.178 -0.074 0.043
0.179 -0.073 0.043
0.180 -0.071 0.043
0.180 -0.070 0.043
0.181 -0.068 0.043
0.185 -0.068 0.044
0.187 -0.067 0.045
0.210 -0.073 0.050
0.226 -0.076 0.054
0.224 -0.074 0.053
0.228 -0.073 0.054
0.233 -0.072 0.055
0.237 -0.071 0.056
0.237 -0.069 0.056
0.246 -0.069 0.058
0.324 -0.085 0.076
0.333 -0.084 0.078
0.330 -0.080 0.078
0.325 -0.076 0.076
0.324 -0.073 0.076
0.324 -0.070 0.076
0.322 -0.066 0.076
0.321 -0.063 0.075
0.316 -0.059 0.074
0.308 -0.055 0.072
0.290 -0.049 0.068
0.279 -0.045 0.065
0.277 -0.042 0.065
0.278 -0.039 0.065
0.279 -0.037 0.065
0.281 -0.035 0.066
0.279 -0.032 0.065
0.279 -0.029 0.065
0.279 -0.027 0.065
0.281 -0.024 0.066
0.283 -0.022 0.066
0.286 -0.020 0.067
0.289 -0.017 0.067
0.288 -0.014 0.067
0.283 -0.012 0.066
0.281 -0.009 0.065
0.283 -0.006 0.066
0.289 -0.004 0.067
0.289 -0.001 0.067
0.288 0.001 0.067
0.281 0.004 0.065
0.274 0.006 0.064
0.282 0.009 0.066
0.292 0.012 0.068
0.290 0.014 0.068
0.282 0.017 0.066
0.280 0.019 0.065
0.279 0.022 0.065
0.280 0.024 0.065
0.285 0.027 0.067
0.286 0.030 0.067
0.274 0.031 0.064
0.271 0.033 0.063
0.277 0.037 0.065
0.282 0.040 0.066
0.283 0.043 0.066
0.289 0.046 0.068
0.294 0.050 0.069
0.295 0.053 0.069
0.287 0.054 0.067
0.282 0.056 0.066
0.286 0.059 0.067
0.288 0.062 0.068
0.287 0.065 0.068
0.287 0.067 0.068
0.288 0.070 0.068
0.283 0.072 0.067
0.282 0.074 0.067
0.282 0.077 0.067
0.273 0.077 0.065
0.265 0.077 0.063
0.281 0.085 0.067
0.293 0.091 0.070
0.292 0.094 0.070
0.293 0.097 0.070
0.295 0.101 0.071
0.298 0.105 0.071
0.296 0.107 0.071
0.296 0.110 0.071
0.293 0.112 0.071
0.293 0.114 0.071
0.295 0.118 0.071
0.288 0.118 0.070
0.272 0.114 0.066
0.261 0.115 0.064
0.301 0.139 0.074
0.304 0.144 0.074
0.305 0.148 0.075
0.307 0.152 0.075
0.304 0.154 0.075
0.301 0.155 0.074
0.300 0.158 0.074
0.302 0.162 0.075
0.300 0.165 0.075
0.298 0.167 0.075
0.294 0.168 0.074
0.293 0.171 0.074
0.293 0.174 0.074
0.291 0.176 0.074
0.290 0.179 0.073
0.286 0.180 0.073
0.281 0.180 0.072
0.278 0.181 0.071
0.274 0.182 0.070
0.274 0.185 0.070
0.267 0.184 0.069
0.264 0.185 0.068
0.261 0.186 0.068
0.259 0.188 0.068
0.260 0.193 0.068
0.259 0.196 0.068
0.259 0.199 0.069
0.259 0.202 0.069
0.259 0.206 0.069
0.258 0.208 0.069
0.256 0.211 0.069
0.255 0.213 0.069
0.254 0.216 0.069
0.255 0.220 0.069
0.252 0.222 0.069
0.249 0.222 0.068
0.247 0.225 0.068
0.236 0.218 0.066
0.231 0.217 0.065
0.228 0.219 0.064
0.224 0.218 0.063
0.216 0.214 0.062
0.216 0.217 0.062
0.204 0.209 0.059
0.202 0.211 0.059
0.204 0.216 0.059
0.199 0.214 0.058
0.194 0.213 0.057
0.198 0.220 0.059
0.203 0.230 0.061
0.204 0.235 0.061
0.205 0.240 0.062
0.214 0.254 0.065
0.222 0.269 0.068
0.214 0.263 0.066
0.213 0.266 0.066
0.207 0.274 0.066
0.099 -0.136 0.032
0.100 -0.136 0.033
0.100 -0.135 0.033
0.102 -0.135 0.033
0.102 -0.133 0.033
0.101 -0.131 0.032
0.101 -0.129 0.032
0.102 -0.128 0.032
0.102 -0.127 0.032
0.103 -0.126 0.032
0.103 -0.123 0.032
0.102 -0.121 0.032
0.102 -0.120 0.032
0.102 -0.118 0.031
0.102 -0.116 0.031
0.102 -0.114 0.031
0.115 -0.127 0.035
0.113 -0.122 0.034
0.110 -0.117 0.033
0.266 -0.271 0.078
0.271 -0.272 0.079
0.273 -0.270 0.080
0.273 -0.266 0.079
0.275 -0.263 0.079
0.275 -0.259 0.079
0.275 -0.256 0.079
0.277 -0.253 0.079
0.281 -0.252 0.079
0.282 -0.249 0.079
0.281 -0.245 0.079
0.281 -0.241 0.078
0.283 -0.239 0.079
0.284 -0.236 0.079
0.279 -0.228 0.077
0.213 -0.165 0.058
0.201 -0.154 0.055
0.195 -0.146 0.053
0.193 -0.143 0.052
0.194 -0.141 0.052
0.198 -0.141 0.053
0.203 -0.142 0.054
0.203 -0.140 0.054
0.204 -0.139 0.054
0.206 -0.137 0.055
0.206 -0.135 0.054
0.206 -0.133 0.054
0.207 -0.131 0.054
0.206 -0.128 0.054
0.201 -0.122 0.052
0.206 -0.123 0.054
0.215 -0.126 0.056
0.179 -0.103 0.046
0.168 -0.095 0.043
0.168 -0.093 0.043
0.167 -0.091 0.043
0.168 -0.089 0.043
0.170 -0.088 0.043
0.171 -0.087 0.044
0.171 -0.086 0.044
0.172 -0.084 0.044
0.178 -0.085 0.045
0.182 -0.085 0.046
0.186 -0.085 0.047
0.193 -0.084 0.049
0.188 -0.080 0.047
0.185 -0.077 0.046
0.182 -0.074 0.045
0.180 -0.072 0.045
0.180 -0.070 0.045
0.181 -0.068 0.045
0.183 -0.067 0.046
0.186 -0.067 0.046
0.187 -0.065 0.046
0.191 -0.065 0.047
0.199 -0.066 0.049
0.229 -0.073 0.056
0.228 -0.071 0.056
0.237 -0.071 0.058
0.239 -0.070 0.059
0.243 -0.068 0.060
0.314 -0.082 0.077
0.322 -0.081 0.079
0.320 -0.078 0.078
0.312 -0.073 0.076
0.308 -0.069 0.075
0.311 -0.067 0.076
0.312 -0.064 0.076
0.312 -0.061 0.076
0.309 -0.058 0.075
0.306 -0.055 0.074
0.294 -0.050 0.072
0.278 -0.044 0.068
0.278 -0.042 0.068
0.277 -0.039 0.067
0.278 -0.037 0.068
0.277 -0.034 0.067
0.278 -0.032 0.068
0.277 -0.029 0.067
0.277 -0.027 0.067
0.275 -0.024 0.067
0.283 -0.022 0.068
0.285 -0.019 0.069
0.286 -0.017 0.069
0.282 -0.014 0.068
0.282 -0.012 0.068
0.284 -0.009 0.069
0.286 -0.007 0.069
0.287 -0.004 0.070
0.287 -0.001 0.069
0.287 0.001 0.069
0.275 0.004 0.066
0.280 0.006 0.068
0.280 0.009 0.068
0.285 0.012 0.069
0.281 0.014 0.068
0.272 0.016 0.066
0.268 0.018 0.065
0.277 0.021 0.067
0.281 0.024 0.068
0.287 0.027 0.070
0.285 0.030 0.069
0.273 0.031 0.066
0.267 0.033 0.065
0.277 0.037 0.067
0.282 0.040 0.069
0.285 0.043 0.069
0.286 0.046 0.070
0.290 0.049 0.071
0.292 0.052 0.071
0.288 0.054 0.070
0.287 0.057 0.070
0.289 0.060 0.071
0.292 0.063 0.072
0.293 0.066 0.072
0.291 0.068 0.071
0.285 0.070 0.070
0.281 0.071 0.069
0.281 0.074 0.069
0.274 0.075 0.068
0.262 0.074 0.065
0.253 0.074 0.063
0.254 0.077 0.063
0.290 0.091 0.072
0.291 0.094 0.072
0.290 0.096 0.072
0.292 0.100 0.073
0.294 0.103 0.073
0.295 0.106 0.074
0.290 0.107 0.072
0.287 0.109 0.072
0.290 0.114 0.073
0.285 0.114 0.072
0.280 0.115 0.071
0.286 0.121 0.072
0.282 0.122 0.071
0.268 0.118 0.068
0.286 0.132 0.073
0.295 0.140 0.075
0.293 0.142 0.075
0.295 0.146 0.076
0.298 0.150 0.076
0.295 0.153 0.076
0.290 0.153 0.075
0.296 0.159 0.076
0.297 0.163 0.077
0.291 0.163 0.076
0.289 0.165 0.075
0.288 0.168 0.075
0.287 0.171 0.075
0.286 0.174 0.075
0.282 0.174 0.074
0.280 0.176 0.074
0.278 0.179 0.074
0.274 0.179 0.073
0.271 0.180 0.072
0.271 0.184 0.073
0.269 0.186 0.072
0.264 0.186 0.071
0.262 0.187 0.071
0.262 0.191 0.071
0.260 0.193 0.071
0.259 0.196 0.071
0.259 0.199 0.071
0.259 0.202 0.071
0.259 0.206 0.072
0.259 0.209 0.072
0.255 0.210 0.071
0.254 0.213 0.071
0.257 0.219 0.072
0.255 0.221 0.072
0.251 0.221 0.071
0.248 0.222 0.071
0.240 0.219 0.069
0.231 0.214 0.067
0.226 0.213 0.066
0.224 0.215 0.066
0.221 0.216 0.065
0.212 0.210 0.063
0.204 0.206 0.061
0.201 0.207 0.060
0.201 0.209 0.061
0.202 0.215 0.061
0.199 0.215 0.061
0.200 0.219 0.061
0.205 0.229 0.063
0.216 0.245 0.067
0.216 0.249 0.068
0.212 0.248 0.067
0.212 0.252 0.067
0.212 0.257 0.068
0.208 0.256 0.067
0.200 0.250 0.065
0.198 0.251 0.064
0.200 0.258 0.066
0.203 0.266 0.067
0.203 0.270 0.067
0.099 -0.137 0.034
0.100 -0.136 0.034
0.101 -0.136 0.034
0.102 -0.135 0.034
0.102 -0.134 0.034
0.102 -0.132 0.034
0.102 -0.131 0.034
0.103 -0.129 0.034
0.102 -0.127 0.034
0.103 -0.125 0.033
0.103 -0.125 0.033
0.103 -0.123 0.033
0.103 -0.121 0.033
0.103 -0.118 0.033
0.103 -0.117 0.033
0.102 -0.114 0.032
0.103 -0.114 0.032
0.107 -0.116 0.033
0.106 -0.113 0.033
0.110 -0.115 0.034
0.266 -0.267 0.081
0.270 -0.267 0.082
0.272 -0.265 0.082
0.272 -0.261 0.081
0.274 -0.259 0.082
0.275 -0.256 0.082
0.276 -0.252 0.081
0.278 -0.250 0.082
0.278 -0.246 0.081
0.278 -0.242 0.081
0.278 -0.239 0.081
0.275 -0.232 0.079
0.271 -0.225 0.078
0.264 -0.216 0.076
0.253 -0.203 0.072
0.199 -0.152 0.056
0.195 -0.147 0.055
0.194 -0.144 0.054
0.196 -0.142 0.055
0.196 -0.140 0.055
0.198 -0.139 0.055
0.202 -0.140 0.056
0.205 -0.139 0.056
0.207 -0.138 0.057
0.206 -0.135 0.056
0.205 -0.132 0.056
0.207 -0.131 0.056
0.207 -0.129 0.056
0.202 -0.123 0.055
0.199 -0.119 0.054
0.170 -0.100 0.046
0.168 -0.097 0.045
0.168 -0.095 0.045
0.168 -0.093 0.045
0.169 -0.092 0.045
0.170 -0.090 0.045
0.171 -0.089 0.045
0.190 -0.097 0.050
0.203 -0.102 0.054
0.205 -0.101 0.054
0.207 -0.099 0.054
0.208 -0.098 0.055
0.208 -0.095 0.054
0.210 -0.094 0.055
0.196 -0.086 0.051
0.211 -0.091 0.055
0.208 -0.087 0.054
0.211 -0.086 0.055
0.207 -0.083 0.054
0.207 -0.080 0.054
0.192 -0.073 0.050
0.189 -0.070 0.049
0.186 -0.067 0.048
0.186 -0.065 0.048
0.186 -0.063 0.048
0.189 -0.062 0.049
0.190 -0.061 0.049
0.197 -0.061 0.050
0.226 -0.068 0.058
0.241 -0.070 0.062
0.246 -0.069 0.063
0.306 -0.080 0.078
0.305 -0.077 0.078
0.307 -0.075 0.078
0.306 -0.072 0.078
0.302 -0.068 0.077
0.304 -0.066 0.077
0.307 -0.063 0.078
0.300 -0.059 0.076
0.299 -0.056 0.076
0.299 -0.053 0.076
0.290 -0.049 0.073
0.281 -0.045 0.071
0.275 -0.042 0.070
0.274 -0.039 0.069
0.272 -0.036 0.069
0.275 -0.034 0.069
0.274 -0.031 0.069
0.275 -0.029 0.069
0.276 -0.026 0.069
0.273 -0.024 0.069
0.274 -0.021 0.069
0.281 -0.019 0.071
0.278 -0.016 0.070
0.278 -0.014 0.070
0.283 -0.012 0.071
0.288 -0.009 0.072
0.287 -0.007 0.072
0.288 -0.004 0.072
0.287 -0.001 0.072
0.284 0.001 0.071
0.286 0.004 0.072
0.284 0.006 0.071
0.282 0.009 0.071
0.270 0.011 0.068
0.264 0.013 0.066
0.258 0.015 0.065
0.267 0.018 0.067
0.280 0.022 0.071
0.284 0.025 0.072
0.287 0.028 0.072
0.279 0.029 0.070
0.273 0.034 0.069
0.282 0.037 0.071
0.281 0.040 0.071
0.282 0.043 0.071
0.283 0.045 0.072
0.287 0.049 0.073
0.286 0.051 0.072
0.289 0.054 0.073
0.289 0.057 0.073
0.295 0.061 0.075
0.297 0.064 0.076
0.296 0.067 0.075
0.284 0.067 0.072
0.276 0.068 0.071
0.273 0.069 0.070
0.264 0.070 0.067
0.245 0.069 0.063
0.240 0.070 0.062
0.247 0.075 0.063
0.287 0.092 0.074
0.287 0.095 0.074
0.288 0.098 0.074
0.290 0.102 0.075
0.290 0.105 0.075
0.289 0.107 0.075
0.279 0.106 0.072
0.280 0.109 0.073
0.285 0.114 0.074
0.284 0.117 0.074
0.286 0.121 0.075
0.286 0.124 0.075
0.284 0.126 0.075
0.278 0.126 0.073
0.243 0.113 0.064
0.245 0.116 0.065
0.264 0.128 0.070
0.272 0.135 0.072
0.283 0.143 0.075
0.283 0.146 0.076
0.283 0.150 0.076
0.286 0.154 0.077
0.285 0.157 0.077
0.285 0.160 0.077
0.284 0.162 0.077
0.283 0.165 0.077
0.283 0.169 0.077
0.280 0.170 0.076
0.276 0.171 0.076
0.275 0.174 0.076
0.275 0.177 0.076
0.271 0.177 0.075
0.268 0.179 0.074
0.270 0.183 0.075
0.268 0.186 0.075
0.265 0.186 0.074
0.262 0.188 0.074
0.261 0.190 0.074
0.260 0.193 0.074
0.259 0.196 0.074
0.258 0.198 0.074
0.256 0.200 0.073
0.255 0.203 0.074
0.256 0.208 0.074
0.254 0.209 0.074
0.252 0.211 0.074
0.251 0.214 0.074
0.248 0.215 0.073
0.248 0.219 0.074
0.244 0.219 0.073
0.237 0.217 0.071
0.229 0.213 0.069
0.218 0.206 0.066
0.229 0.220 0.070
0.221 0.216 0.068
0.213 0.212 0.066
0.207 0.209 0.064
0.207 0.212 0.064
0.206 0.215 0.065
0.207 0.220 0.065
0.206 0.223 0.065
0.204 0.224 0.065
0.200 0.224 0.064
0.204 0.232 0.066
0.208 0.240 0.068
0.207 0.243 0.068
0.206 0.246 0.068
0.203 0.246 0.067
0.202 0.249 0.067
0.194 0.242 0.065
0.193 0.246 0.065
0.193 0.249 0.066
0.195 0.256 0.067
0.197 0.262 0.068
0.099 -0.137 0.035
0.101 -0.137 0.035
0.101 -0.137 0.035
0.102 -0.135 0.035
0.102 -0.134 0.035
0.102 -0.132 0.035
0.102 -0.131 0.035
0.103 -0.129 0.035
0.102 -0.127 0.035
0.103 -0.126 0.035
0.103 -0.125 0.035
0.104 -0.123 0.035
0.103 -0.121 0.034
0.102 -0.118 0.034
0.103 -0.117 0.034
0.104 -0.116 0.034
0.104 -0.115 0.034
0.107 -0.116 0.034
0.107 -0.115 0.034
0.106 -0.112 0.034
0.114 -0.118 0.036
0.267 -0.265 0.084
0.269 -0.262 0.084
0.271 -0.261 0.084
0.273 -0.258 0.084
0.274 -0.255 0.084
0.274 -0.251 0.084
0.274 -0.247 0.083
0.273 -0.243 0.083
0.274 -0.239 0.083
0.272 -0.234 0.082
0.271 -0.229 0.081
0.270 -0.225 0.081
0.267 -0.219 0.079
0.262 -0.211 0.078
0.212 -0.165 0.062
0.203 -0.156 0.059
0.198 -0.149 0.058
0.199 -0.147 0.058
0.199 -0.145 0.058
0.199 -0.142 0.057
0.201 -0.142 0.058
0.204 -0.141 0.059
0.207 -0.141 0.059
0.209 -0.140 0.060
0.209 -0.137 0.059
0.207 -0.134 0.059
0.207 -0.131 0.058
0.211 -0.131 0.059
0.171 -0.102 0.048
0.168 -0.099 0.047
0.168 -0.097 0.047
0.168 -0.095 0.047
0.169 -0.094 0.047
0.208 -0.111 0.057
0.206 -0.108 0.057
0.200 -0.102 0.055
0.204 -0.102 0.056
0.206 -0.101 0.056
0.207 -0.099 0.056
0.208 -0.098 0.057
0.210 -0.097 0.057
0.210 -0.094 0.057
0.209 -0.092 0.057
0.202 -0.086 0.055
0.210 -0.088 0.057
0.208 -0.085 0.056
0.204 -0.081 0.055
0.208 -0.081 0.056
0.213 -0.081 0.057
0.212 -0.078 0.057
0.212 -0.076 0.057
0.194 -0.068 0.052
0.187 -0.064 0.050
0.188 -0.062 0.050
0.189 -0.061 0.050
0.190 -0.059 0.050
0.191 -0.057 0.051
0.192 -0.056 0.051
0.198 -0.056 0.052
0.289 -0.076 0.076
0.301 -0.076 0.079
0.304 -0.074 0.080
0.303 -0.071 0.080
0.297 -0.067 0.078
0.296 -0.064 0.078
0.301 -0.062 0.079
0.289 -0.057 0.076
0.288 -0.054 0.076
0.290 -0.052 0.076
0.286 -0.048 0.075
0.276 -0.044 0.072
0.273 -0.041 0.071
0.270 -0.038 0.071
0.271 -0.036 0.071
0.272 -0.034 0.071
0.275 -0.031 0.072
0.277 -0.029 0.072
0.277 -0.027 0.072
0.275 -0.024 0.072
0.273 -0.021 0.071
0.277 -0.019 0.072
0.276 -0.016 0.072
0.279 -0.014 0.073
0.285 -0.012 0.074
0.288 -0.009 0.075
0.286 -0.007 0.075
0.286 -0.004 0.075
0.285 -0.001 0.074
0.285 0.001 0.074
0.286 0.004 0.075
0.286 0.006 0.075
0.277 0.009 0.072
0.274 0.011 0.072
0.259 0.013 0.068
0.260 0.015 0.068
0.267 0.018 0.070
0.283 0.022 0.074
0.286 0.025 0.075
0.286 0.027 0.075
0.274 0.029 0.072
0.272 0.031 0.071
0.281 0.035 0.074
0.282 0.037 0.074
0.279 0.040 0.073
0.277 0.042 0.073
0.281 0.045 0.074
0.282 0.048 0.074
0.281 0.050 0.074
0.282 0.053 0.074
0.285 0.056 0.075
0.293 0.061 0.077
0.296 0.064 0.078
0.290 0.066 0.077
0.280 0.066 0.074
0.268 0.066 0.071
0.259 0.066 0.069
0.247 0.065 0.066
0.233 0.064 0.062
0.229 0.065 0.061
0.240 0.070 0.064
0.257 0.078 0.069
0.272 0.085 0.073
0.282 0.091 0.076
0.285 0.095 0.076
0.285 0.097 0.076
0.286 0.101 0.077
0.285 0.103 0.077
0.279 0.104 0.075
0.278 0.106 0.075
0.277 0.109 0.075
0.280 0.113 0.076
0.282 0.116 0.077
0.281 0.119 0.076
0.280 0.121 0.076
0.280 0.124 0.076
0.275 0.125 0.075
0.254 0.118 0.070
0.249 0.118 0.068
0.255 0.124 0.070
0.259 0.129 0.072
0.261 0.132 0.072
0.274 0.142 0.076
0.280 0.148 0.078
0.281 0.152 0.078
0.279 0.154 0.078
0.273 0.154 0.077
0.272 0.156 0.076
0.275 0.161 0.077
0.277 0.165 0.078
0.275 0.167 0.078
0.273 0.169 0.078
0.274 0.173 0.078
0.269 0.173 0.077
0.269 0.176 0.077
0.266 0.178 0.077
0.259 0.177 0.075
0.260 0.180 0.075
0.256 0.181 0.075
0.257 0.185 0.075
0.257 0.188 0.075
0.257 0.191 0.076
0.255 0.193 0.075
0.254 0.195 0.075
0.253 0.199 0.075
0.253 0.202 0.076
0.253 0.205 0.076
0.252 0.208 0.076
0.250 0.210 0.076
0.249 0.213 0.076
0.248 0.215 0.076
0.244 0.216 0.075
0.236 0.212 0.073
0.232 0.212 0.072
0.227 0.211 0.071
0.222 0.210 0.070
0.220 0.211 0.069
0.220 0.216 0.070
0.214 0.213 0.068
0.211 0.214 0.068
0.210 0.216 0.068
0.207 0.217 0.067
0.214 0.228 0.070
0.207 0.224 0.068
0.202 0.222 0.067
0.196 0.220 0.065
0.194 0.221 0.065
0.194 0.225 0.066
0.197 0.232 0.067
0.200 0.239 0.069
0.201 0.244 0.069
0.194 0.239 0.067
0.194 0.244 0.068
0.191 0.244 0.067
0.189 0.245 0.067
0.191 0.251 0.068
0.202 0.270 0.072
0.101 -0.138 0.037
0.101 -0.137 0.037
0.102 -0.135 0.037
0.101 -0.133 0.036
0.102 -0.132 0.036
0.102 -0.131 0.036
0.102 -0.129 0.036
0.103 -0.129 0.036
0.104 -0.127 0.036
0.103 -0.125 0.036
0.103 -0.123 0.036
0.103 -0.121 0.036
0.102 -0.118 0.035
0.103 -0.117 0.035
0.104 -0.117 0.035
0.105 -0.116 0.035
0.110 -0.120 0.037
0.110 -0.118 0.037
0.105 -0.111 0.035
0.109 -0.113 0.036
0.118 -0.121 0.039
0.264 -0.258 0.085
0.268 -0.258 0.086
0.272 -0.257 0.087
0.270 -0.252 0.086
0.269 -0.247 0.085
0.269 -0.243 0.085
0.271 -0.241 0.085
0.271 -0.237 0.085
0.271 -0.233 0.085
0.271 -0.229 0.084
0.271 -0.225 0.084
0.269 -0.220 0.083
0.266 -0.214 0.081
0.255 -0.202 0.078
0.205 -0.157 0.062
0.202 -0.153 0.061
0.201 -0.149 0.060
0.200 -0.146 0.060
0.204 -0.146 0.061
0.205 -0.145 0.061
0.207 -0.143 0.061
0.205 -0.139 0.061
0.209 -0.140 0.062
0.209 -0.138 0.062
0.208 -0.134 0.061
0.207 -0.131 0.061
0.171 -0.104 0.050
0.170 -0.102 0.049
0.171 -0.101 0.049
0.174 -0.100 0.050
0.208 -0.116 0.060
0.207 -0.112 0.059
0.203 -0.108 0.058
0.201 -0.105 0.057
0.203 -0.104 0.058
0.205 -0.103 0.058
0.208 -0.102 0.059
0.207 -0.100 0.059
0.208 -0.098 0.059
0.209 -0.096 0.059
0.210 -0.095 0.059
0.209 -0.092 0.059
0.199 -0.085 0.056
0.215 -0.090 0.060
0.203 -0.083 0.057
0.204 -0.081 0.057
0.208 -0.081 0.058
0.212 -0.080 0.059
0.212 -0.078 0.059
0.213 -0.076 0.059
0.218 -0.076 0.060
0.216 -0.073 0.060
0.212 -0.070 0.058
0.198 -0.063 0.055
0.190 -0.059 0.052
0.191 -0.058 0.053
0.193 -0.056 0.053
0.193 -0.054 0.053
0.194 -0.053 0.053
0.195 -0.051 0.053
0.209 -0.053 0.057
0.213 -0.052 0.058
0.290 -0.063 0.079
0.288 -0.060 0.079
0.285 -0.056 0.077
0.284 -0.053 0.077
0.286 -0.051 0.078
0.282 -0.048 0.077
0.271 -0.043 0.073
0.271 -0.041 0.073
0.272 -0.039 0.074
0.272 -0.036 0.074
0.273 -0.034 0.074
0.276 -0.032 0.075
0.278 -0.029 0.075
0.279 -0.027 0.075
0.277 -0.024 0.075
0.279 -0.022 0.075
0.274 -0.019 0.074
0.276 -0.016 0.075
0.280 -0.014 0.076
0.283 -0.012 0.077
0.287 -0.009 0.077
0.288 -0.007 0.078
0.283 -0.004 0.076
0.280 -0.001 0.076
0.284 0.001 0.077
0.285 0.004 0.077
0.284 0.006 0.077
0.283 0.009 0.077
0.272 0.011 0.074
0.269 0.014 0.073
0.259 0.015 0.070
0.252 0.017 0.068
0.262 0.020 0.071
0.275 0.024 0.074
0.274 0.026 0.074
0.265 0.028 0.072
0.273 0.031 0.074
0.278 0.034 0.075
0.281 0.037 0.076
0.279 0.040 0.076
0.276 0.042 0.075
0.275 0.044 0.075
0.277 0.047 0.075
0.278 0.050 0.076
0.280 0.053 0.076
0.281 0.056 0.077
0.282 0.058 0.077
0.286 0.062 0.078
0.284 0.064 0.078
0.277 0.065 0.076
0.266 0.065 0.073
0.243 0.062 0.067
0.234 0.062 0.064
0.225 0.062 0.062
0.227 0.064 0.063
0.253 0.074 0.070
0.267 0.081 0.074
0.277 0.087 0.077
0.284 0.092 0.079
0.284 0.095 0.079
0.279 0.095 0.077
0.278 0.098 0.077
0.278 0.101 0.077
0.277 0.103 0.077
0.276 0.106 0.077
0.276 0.108 0.077
0.274 0.110 0.077
0.273 0.113 0.077
0.274 0.116 0.077
0.274 0.119 0.077
0.266 0.118 0.075
0.261 0.119 0.074
0.259 0.121 0.074
0.263 0.125 0.075
0.263 0.128 0.075
0.257 0.128 0.073
0.256 0.130 0.073
0.258 0.134 0.074
0.269 0.142 0.077
0.273 0.147 0.079
0.270 0.149 0.078
0.266 0.150 0.077
0.263 0.151 0.077
0.266 0.156 0.078
0.271 0.162 0.079
0.272 0.165 0.080
0.269 0.167 0.079
0.266 0.168 0.078
0.253 0.163 0.075
0.252 0.166 0.075
0.256 0.171 0.076
0.255 0.174 0.076
0.251 0.174 0.076
0.252 0.178 0.076
0.251 0.180 0.076
0.252 0.184 0.076
0.252 0.188 0.077
0.252 0.191 0.077
0.251 0.194 0.077
0.251 0.197 0.077
0.251 0.200 0.078
0.247 0.201 0.077
0.249 0.206 0.078
0.249 0.209 0.078
0.250 0.214 0.079
0.248 0.216 0.079
0.240 0.213 0.077
0.228 0.205 0.073
0.225 0.206 0.072
0.222 0.207 0.072
0.220 0.208 0.071
0.214 0.207 0.070
0.209 0.205 0.069
0.207 0.206 0.068
0.208 0.210 0.069
0.206 0.212 0.069
0.200 0.210 0.067
0.205 0.218 0.069
0.203 0.220 0.069
0.200 0.221 0.069
0.198 0.223 0.069
0.197 0.224 0.068
0.190 0.221 0.067
0.190 0.224 0.067
0.194 0.232 0.069
0.193 0.235 0.069
0.194 0.239 0.070
0.191 0.240 0.069
0.188 0.240 0.068
0.186 0.241 0.068
0.189 0.248 0.070
0.191 0.255 0.071
0.101 -0.138 0.038
0.101 -0.137 0.038
0.102 -0.135 0.038
0.101 -0.134 0.038
0.102 -0.132 0.038
0.102 -0.131 0.038
0.104 -0.132 0.038
0.104 -0.129 0.038
0.104 -0.128 0.038
0.103 -0.125 0.037
0.103 -0.123 0.037
0.103 -0.122 0.037
0.104 -0.120 0.037
0.103 -0.118 0.036
0.104 -0.117 0.037
0.106 -0.118 0.037
0.111 -0.121 0.038
0.107 -0.115 0.037
0.104 -0.110 0.036
0.108 -0.112 0.037
0.109 -0.112 0.037
0.120 -0.121 0.041
0.257 -0.251 0.086
0.264 -0.254 0.088
0.267 -0.253 0.089
0.265 -0.248 0.088
0.266 -0.244 0.087
0.267 -0.241 0.087
0.269 -0.239 0.088
0.270 -0.236 0.088
0.270 -0.232 0.087
0.269 -0.228 0.086
0.267 -0.223 0.085
0.266 -0.219 0.085
0.265 -0.214 0.084
0.235 -0.183 0.074
0.223 -0.171 0.070
0.203 -0.153 0.063
0.201 -0.149 0.063
0.203 -0.148 0.063
0.205 -0.147 0.063
0.207 -0.146 0.064
0.206 -0.143 0.063
0.204 -0.139 0.063
0.203 -0.136 0.062
0.207 -0.136 0.063
0.206 -0.133 0.063
0.173 -0.108 0.052
0.171 -0.104 0.051
0.171 -0.102 0.051
0.179 -0.105 0.054
0.208 -0.120 0.062
0.206 -0.117 0.061
0.206 -0.115 0.061
0.204 -0.111 0.061
0.201 -0.107 0.059
0.200 -0.105 0.059
0.204 -0.104 0.060
0.208 -0.104 0.061
0.208 -0.102 0.061
0.209 -0.101 0.061
0.208 -0.098 0.061
0.209 -0.096 0.061
0.209 -0.094 0.061
0.210 -0.093 0.061
0.213 -0.092 0.062
0.199 -0.084 0.058
0.205 -0.084 0.059
0.205 -0.082 0.059
0.210 -0.082 0.060
0.210 -0.080 0.060
0.210 -0.078 0.060
0.211 -0.076 0.061
0.213 -0.075 0.061
0.214 -0.073 0.061
0.213 -0.070 0.061
0.232 -0.074 0.066
0.236 -0.073 0.067
0.199 -0.060 0.057
0.194 -0.057 0.055
0.194 -0.055 0.055
0.193 -0.053 0.055
0.194 -0.051 0.055
0.196 -0.050 0.055
0.196 -0.048 0.055
0.197 -0.046 0.056
0.200 -0.045 0.057
0.201 -0.044 0.057
0.211 -0.044 0.059
0.213 -0.042 0.060
0.269 -0.043 0.076
0.271 -0.041 0.076
0.269 -0.038 0.076
0.270 -0.036 0.076
0.272 -0.034 0.076
0.274 -0.031 0.077
0.275 -0.029 0.077
0.278 -0.027 0.078
0.278 -0.024 0.078
0.273 -0.021 0.076
0.271 -0.019 0.076
0.275 -0.016 0.077
0.278 -0.014 0.078
0.280 -0.012 0.078
0.282 -0.009 0.079
0.285 -0.007 0.080
0.277 -0.004 0.077
0.277 -0.001 0.077
0.281 0.001 0.079
0.281 0.004 0.079
0.281 0.006 0.079
0.285 0.009 0.080
0.283 0.012 0.079
0.264 0.013 0.074
0.255 0.015 0.072
0.250 0.017 0.070
0.255 0.020 0.071
0.259 0.023 0.073
0.262 0.025 0.074
0.269 0.028 0.075
0.272 0.031 0.076
0.275 0.034 0.077
0.277 0.037 0.078
0.278 0.040 0.078
0.275 0.042 0.077
0.272 0.044 0.077
0.275 0.047 0.078
0.275 0.049 0.078
0.278 0.052 0.078
0.278 0.055 0.079
0.278 0.058 0.079
0.278 0.060 0.079
0.278 0.063 0.079
0.271 0.064 0.077
0.260 0.064 0.074
0.248 0.063 0.070
0.233 0.062 0.066
0.230 0.063 0.065
0.242 0.069 0.069
0.255 0.075 0.073
0.269 0.082 0.077
0.278 0.087 0.080
0.285 0.092 0.082
0.282 0.094 0.081
0.275 0.094 0.079
0.270 0.095 0.078
0.271 0.098 0.078
0.273 0.102 0.079
0.274 0.105 0.079
0.268 0.105 0.078
0.265 0.107 0.077
0.269 0.111 0.078
0.269 0.114 0.078
0.263 0.114 0.077
0.257 0.114 0.075
0.256 0.116 0.075
0.258 0.120 0.076
0.261 0.124 0.077
0.260 0.127 0.077
0.258 0.128 0.076
0.257 0.130 0.076
0.257 0.134 0.077
0.258 0.137 0.077
0.262 0.142 0.078
0.262 0.145 0.078
0.257 0.145 0.077
0.254 0.146 0.077
0.253 0.148 0.076
0.249 0.149 0.075
0.246 0.150 0.075
0.245 0.152 0.075
0.250 0.159 0.077
0.250 0.162 0.077
0.251 0.165 0.077
0.254 0.170 0.078
0.252 0.172 0.078
0.249 0.173 0.077
0.249 0.176 0.078
0.249 0.179 0.078
0.250 0.184 0.079
0.251 0.187 0.079
0.249 0.189 0.079
0.249 0.192 0.079
0.250 0.196 0.080
0.247 0.198 0.079
0.246 0.200 0.079
0.245 0.203 0.079
0.247 0.208 0.080
0.247 0.212 0.081
0.241 0.210 0.079
0.225 0.199 0.074
0.218 0.196 0.072
0.218 0.200 0.073
0.217 0.202 0.073
0.211 0.200 0.071
0.206 0.199 0.070
0.200 0.197 0.068
0.199 0.199 0.068
0.202 0.205 0.070
0.203 0.209 0.070
0.200 0.210 0.070
0.198 0.211 0.069
0.199 0.216 0.070
0.196 0.217 0.070
0.198 0.223 0.071
0.197 0.225 0.071
0.190 0.221 0.069
0.186 0.219 0.068
0.189 0.227 0.069
0.191 0.233 0.071
0.191 0.237 0.071
0.192 0.241 0.072
0.193 0.246 0.073
0.185 0.240 0.070
0.186 0.244 0.071
0.193 0.258 0.074
0.101 -0.138 0.039
0.102 -0.138 0.039
0.102 -0.136 0.039
0.102 -0.134 0.039
0.101 -0.132 0.039
0.104 -0.134 0.040
0.104 -0.132 0.040
0.104 -0.129 0.039
0.104 -0.128 0.039
