VERSION .7
FIELDS x y z
SIZE 4 4 4
TYPE F F F
COUNT 1 1 1
WIDTH     2585
HEIGHT 1
VIEWPOINT 0 0 0 1 0 0 0
POINTS     2585
DATA ascii
0.206 -0.145 0.022
0.210 -0.145 0.022
0.211 -0.144 0.022
0.212 -0.142 0.022
0.213 -0.140 0.022
0.212 -0.137 0.022
0.209 -0.133 0.022
0.210 -0.131 0.022
0.214 -0.131 0.022
0.210 -0.126 0.022
0.203 -0.120 0.021
0.205 -0.119 0.021
0.207 -0.117 0.021
0.215 -0.120 0.022
0.215 -0.117 0.022
0.210 -0.113 0.021
0.213 -0.112 0.022
0.215 -0.111 0.022
0.214 -0.108 0.022
0.205 -0.101 0.021
0.208 -0.101 0.021
0.211 -0.100 0.021
0.219 -0.101 0.022
0.204 -0.093 0.020
0.210 -0.093 0.021
0.209 -0.090 0.021
0.216 -0.091 0.021
0.220 -0.091 0.022
0.220 -0.089 0.022
0.219 -0.086 0.022
0.225 -0.086 0.022
0.208 -0.078 0.020
0.215 -0.078 0.021
0.223 -0.079 0.022
0.226 -0.078 0.022
0.239 -0.080 0.023
0.238 -0.078 0.023
0.241 -0.076 0.023
0.252 -0.077 0.025
0.264 -0.078 0.026
0.279 -0.080 0.027
0.403 -0.108 0.039
0.409 -0.106 0.040
0.420 -0.105 0.041
0.425 -0.102 0.041
0.386 -0.082 0.037
0.400 -0.082 0.038
0.286 -0.048 0.028
0.288 -0.046 0.028
0.288 -0.043 0.028
0.287 -0.040 0.028
0.288 -0.038 0.028
0.292 -0.036 0.028
0.294 -0.033 0.028
0.294 -0.031 0.028
0.293 -0.028 0.028
0.296 -0.025 0.028
0.297 -0.023 0.028
0.300 -0.020 0.029
0.303 -0.018 0.029
0.308 -0.015 0.029
0.308 -0.013 0.029
0.304 -0.010 0.029
0.303 -0.007 0.029
0.305 -0.004 0.029
0.304 -0.001 0.029
0.302 0.001 0.029
0.301 0.004 0.029
0.306 0.007 0.029
0.309 0.010 0.030
0.310 0.012 0.030
0.313 0.015 0.030
0.324 0.019 0.031
0.313 0.021 0.030
0.293 0.022 0.028
0.295 0.025 0.028
0.299 0.028 0.029
0.296 0.031 0.028
0.313 0.035 0.030
0.312 0.038 0.030
0.316 0.041 0.030
0.317 0.044 0.030
0.314 0.047 0.030
0.300 0.048 0.029
0.286 0.048 0.027
0.295 0.052 0.028
0.323 0.060 0.031
0.334 0.065 0.032
0.316 0.065 0.031
0.314 0.067 0.030
0.322 0.072 0.031
0.324 0.075 0.031
0.307 0.074 0.030
0.301 0.076 0.029
0.309 0.081 0.030
0.321 0.087 0.031
0.328 0.091 0.032
0.325 0.094 0.032
0.322 0.096 0.031
0.322 0.099 0.031
0.326 0.104 0.032
0.334 0.109 0.033
0.343 0.116 0.034
0.336 0.117 0.033
0.324 0.116 0.032
0.322 0.118 0.032
0.324 0.122 0.032
0.322 0.124 0.032
0.334 0.132 0.033
0.427 0.178 0.042
0.422 0.180 0.042
0.413 0.180 0.041
0.408 0.182 0.041
0.401 0.183 0.040
0.391 0.183 0.039
0.381 0.182 0.038
0.373 0.182 0.038
0.366 0.183 0.037
0.360 0.184 0.037
0.354 0.184 0.036
0.344 0.183 0.035
0.339 0.184 0.035
0.335 0.185 0.034
0.322 0.182 0.033
0.320 0.184 0.033
0.315 0.185 0.033
0.309 0.185 0.032
0.304 0.185 0.032
0.300 0.186 0.031
0.294 0.186 0.031
0.291 0.187 0.031
0.286 0.188 0.030
0.280 0.187 0.030
0.276 0.188 0.029
0.268 0.186 0.029
0.266 0.187 0.028
0.264 0.189 0.028
0.263 0.192 0.028
0.263 0.195 0.028
0.262 0.198 0.028
0.262 0.202 0.029
0.261 0.204 0.029
0.259 0.206 0.029
0.259 0.210 0.029
0.260 0.214 0.029
0.260 0.217 0.029
0.258 0.220 0.029
0.259 0.224 0.029
0.258 0.227 0.029
0.258 0.231 0.029
0.256 0.233 0.029
0.257 0.237 0.030
0.256 0.241 0.030
0.256 0.245 0.030
0.256 0.249 0.030
0.254 0.251 0.030
0.404 0.420 0.048
0.406 0.430 0.049
0.358 0.391 0.044
0.356 0.395 0.044
0.324 0.397 0.042
0.311 0.388 0.040
0.304 0.384 0.040
0.301 0.387 0.040
0.300 0.392 0.040
0.175 -0.241 0.025
0.180 -0.245 0.026
0.181 -0.243 0.026
0.180 -0.238 0.026
0.180 -0.236 0.025
0.181 -0.234 0.025
0.183 -0.233 0.026
0.185 -0.232 0.026
0.187 -0.232 0.026
0.189 -0.231 0.026
0.190 -0.229 0.026
0.192 -0.227 0.026
0.194 -0.226 0.026
0.196 -0.225 0.026
0.198 -0.225 0.026
0.201 -0.224 0.027
0.202 -0.223 0.027
0.204 -0.221 0.027
0.206 -0.220 0.027
0.209 -0.219 0.027
0.211 -0.218 0.027
0.214 -0.218 0.027
0.216 -0.217 0.028
0.218 -0.215 0.028
0.221 -0.215 0.028
0.224 -0.214 0.028
0.226 -0.213 0.028
0.229 -0.212 0.028
0.232 -0.212 0.029
0.235 -0.211 0.029
0.238 -0.210 0.029
0.240 -0.209 0.029
0.242 -0.208 0.029
0.247 -0.208 0.030
0.247 -0.205 0.030
0.253 -0.207 0.030
0.254 -0.204 0.030
0.238 -0.189 0.028
0.228 -0.177 0.027
0.221 -0.169 0.026
0.214 -0.161 0.025
0.209 -0.155 0.024
0.205 -0.150 0.024
0.205 -0.147 0.024
0.205 -0.144 0.024
0.206 -0.142 0.024
0.212 -0.144 0.024
0.216 -0.145 0.025
0.213 -0.140 0.024
0.209 -0.135 0.024
0.206 -0.131 0.023
0.213 -0.132 0.024
0.212 -0.130 0.024
0.210 -0.126 0.024
0.205 -0.121 0.023
0.204 -0.118 0.023
0.209 -0.119 0.023
0.211 -0.118 0.024
0.212 -0.116 0.024
0.209 -0.112 0.023
0.213 -0.112 0.024
0.218 -0.112 0.024
0.216 -0.109 0.024
0.206 -0.102 0.023
0.210 -0.101 0.023
0.211 -0.100 0.023
0.218 -0.101 0.024
0.205 -0.093 0.022
0.210 -0.093 0.023
0.211 -0.091 0.023
0.212 -0.090 0.023
0.217 -0.090 0.024
0.219 -0.088 0.024
0.219 -0.086 0.024
0.219 -0.084 0.024
0.210 -0.078 0.023
0.212 -0.077 0.023
0.221 -0.078 0.024
0.231 -0.080 0.025
0.223 -0.075 0.024
0.234 -0.076 0.025
0.239 -0.076 0.026
0.253 -0.077 0.027
0.264 -0.079 0.028
0.269 -0.077 0.029
0.405 -0.109 0.043
0.411 -0.107 0.044
0.421 -0.105 0.045
0.421 -0.101 0.044
0.337 -0.075 0.036
0.396 -0.081 0.042
0.383 -0.075 0.040
0.371 -0.069 0.039
0.285 -0.048 0.030
0.286 -0.045 0.030
0.286 -0.043 0.030
0.287 -0.040 0.030
0.288 -0.038 0.030
0.291 -0.035 0.030
0.292 -0.033 0.031
0.292 -0.030 0.031
0.292 -0.028 0.031
0.292 -0.025 0.031
0.294 -0.023 0.031
0.297 -0.020 0.031
0.298 -0.017 0.031
0.300 -0.015 0.031
0.299 -0.012 0.031
0.301 -0.010 0.031
0.303 -0.007 0.032
0.311 -0.004 0.033
0.307 -0.001 0.032
0.301 0.001 0.031
0.301 0.004 0.031
0.308 0.007 0.032
0.308 0.010 0.032
0.308 0.012 0.032
0.312 0.015 0.033
0.315 0.018 0.033
0.307 0.021 0.032
0.286 0.022 0.030
0.288 0.025 0.030
0.309 0.029 0.032
0.303 0.031 0.032
0.301 0.034 0.032
0.312 0.038 0.033
0.310 0.041 0.033
0.302 0.042 0.032
0.298 0.044 0.031
0.300 0.048 0.032
0.313 0.052 0.033
0.297 0.053 0.031
0.312 0.058 0.033
0.321 0.063 0.034
0.311 0.063 0.033
0.310 0.066 0.033
0.325 0.073 0.034
0.317 0.074 0.034
0.306 0.074 0.032
0.304 0.076 0.032
0.320 0.083 0.034
0.323 0.087 0.034
0.312 0.087 0.033
0.312 0.090 0.033
0.321 0.096 0.034
0.320 0.099 0.034
0.323 0.103 0.035
0.336 0.110 0.036
0.336 0.113 0.036
0.331 0.115 0.036
0.340 0.121 0.037
0.335 0.123 0.036
0.322 0.121 0.035
0.317 0.123 0.034
0.323 0.128 0.035
0.360 0.146 0.039
0.367 0.153 0.040
0.409 0.179 0.045
0.406 0.181 0.045
0.400 0.183 0.044
0.389 0.182 0.043
0.381 0.182 0.042
0.372 0.182 0.041
0.367 0.183 0.041
0.360 0.183 0.040
0.352 0.183 0.039
0.345 0.183 0.038
0.339 0.184 0.038
0.334 0.185 0.038
0.325 0.183 0.037
0.318 0.183 0.036
0.314 0.185 0.036
0.310 0.186 0.035
0.304 0.185 0.035
0.298 0.185 0.034
0.296 0.188 0.034
0.290 0.187 0.033
0.284 0.186 0.033
0.279 0.187 0.032
0.275 0.187 0.032
0.269 0.186 0.031
0.266 0.188 0.031
0.264 0.190 0.031
0.263 0.192 0.031
0.263 0.195 0.031
0.262 0.198 0.031
0.261 0.201 0.031
0.260 0.203 0.031
0.260 0.207 0.031
0.261 0.211 0.031
0.261 0.215 0.032
0.260 0.218 0.032
0.259 0.221 0.032
0.259 0.224 0.032
0.258 0.227 0.032
0.257 0.230 0.032
0.258 0.235 0.032
0.257 0.238 0.032
0.257 0.242 0.033
0.257 0.246 0.033
0.255 0.248 0.033
0.253 0.251 0.033
0.401 0.417 0.053
0.397 0.420 0.052
0.354 0.387 0.047
0.323 0.359 0.043
0.308 0.348 0.042
0.307 0.353 0.042
0.303 0.354 0.042
0.319 0.392 0.045
0.309 0.386 0.044
0.305 0.386 0.043
0.302 0.388 0.043
0.296 0.387 0.043
0.182 -0.251 0.028
0.180 -0.245 0.028
0.181 -0.244 0.028
0.182 -0.242 0.028
0.180 -0.236 0.028
0.181 -0.235 0.028
0.183 -0.234 0.028
0.184 -0.231 0.028
0.187 -0.232 0.028
0.190 -0.232 0.028
0.191 -0.230 0.028
0.192 -0.227 0.028
0.194 -0.226 0.028
0.196 -0.226 0.029
0.198 -0.224 0.029
0.200 -0.223 0.029
0.202 -0.222 0.029
0.204 -0.221 0.029
0.206 -0.220 0.029
0.208 -0.219 0.029
0.211 -0.218 0.029
0.213 -0.217 0.030
0.216 -0.217 0.030
0.218 -0.215 0.030
0.221 -0.215 0.030
0.223 -0.214 0.030
0.226 -0.213 0.031
0.229 -0.212 0.031
0.232 -0.212 0.031
0.236 -0.212 0.031
0.239 -0.212 0.032
0.242 -0.211 0.032
0.247 -0.212 0.033
0.250 -0.212 0.033
0.253 -0.210 0.033
0.254 -0.208 0.033
0.255 -0.205 0.033
0.224 -0.175 0.029
0.214 -0.164 0.027
0.209 -0.158 0.027
0.209 -0.155 0.027
0.209 -0.152 0.026
0.207 -0.149 0.026
0.202 -0.143 0.025
0.206 -0.143 0.026
0.215 -0.147 0.027
0.218 -0.146 0.027
0.206 -0.135 0.026
0.203 -0.131 0.025
0.206 -0.131 0.025
0.210 -0.131 0.026
0.213 -0.130 0.026
0.208 -0.125 0.025
0.205 -0.121 0.025
0.204 -0.118 0.025
0.200 -0.114 0.024
0.212 -0.118 0.026
0.212 -0.116 0.026
0.214 -0.115 0.026
0.217 -0.114 0.026
0.219 -0.113 0.026
0.215 -0.108 0.026
0.212 -0.105 0.025
0.201 -0.097 0.024
0.208 -0.098 0.025
0.204 -0.094 0.024
0.207 -0.094 0.025
0.199 -0.088 0.024
0.209 -0.091 0.025
0.210 -0.089 0.025
0.214 -0.089 0.025
0.218 -0.088 0.026
0.218 -0.086 0.026
0.215 -0.082 0.025
0.214 -0.080 0.025
0.210 -0.077 0.025
0.218 -0.077 0.025
0.225 -0.078 0.026
0.225 -0.076 0.026
0.224 -0.073 0.026
0.240 -0.076 0.028
0.249 -0.077 0.029
0.261 -0.078 0.030
0.265 -0.076 0.031
0.408 -0.110 0.047
0.414 -0.107 0.048
0.421 -0.105 0.048
0.419 -0.101 0.048
0.411 -0.095 0.047
0.287 -0.048 0.033
0.281 -0.045 0.032
0.280 -0.042 0.032
0.287 -0.040 0.033
0.289 -0.038 0.033
0.288 -0.035 0.033
0.286 -0.032 0.033
0.290 -0.030 0.033
0.291 -0.028 0.033
0.291 -0.025 0.033
0.294 -0.023 0.033
0.298 -0.020 0.034
0.296 -0.017 0.034
0.292 -0.015 0.033
0.293 -0.012 0.033
0.294 -0.009 0.033
0.301 -0.007 0.034
0.309 -0.004 0.035
0.312 -0.001 0.035
0.305 0.001 0.035
0.306 0.004 0.035
0.310 0.007 0.035
0.314 0.010 0.036
0.311 0.013 0.035
0.311 0.015 0.035
0.310 0.018 0.035
0.303 0.020 0.034
0.298 0.023 0.034
0.309 0.026 0.035
0.307 0.029 0.035
0.307 0.032 0.035
0.307 0.035 0.035
0.302 0.037 0.034
0.301 0.039 0.034
0.307 0.043 0.035
0.313 0.047 0.036
0.307 0.049 0.035
0.306 0.051 0.035
0.302 0.053 0.035
0.309 0.057 0.035
0.323 0.063 0.037
0.318 0.065 0.037
0.314 0.067 0.036
0.316 0.070 0.036
0.312 0.072 0.036
0.285 0.069 0.033
0.294 0.074 0.034
0.310 0.081 0.036
0.311 0.084 0.036
0.304 0.085 0.035
0.309 0.089 0.036
0.329 0.098 0.038
0.332 0.102 0.039
0.328 0.104 0.038
0.322 0.105 0.038
0.310 0.105 0.036
0.321 0.111 0.037
0.335 0.119 0.039
0.332 0.122 0.039
0.321 0.121 0.038
0.314 0.121 0.037
0.326 0.129 0.038
0.343 0.140 0.041
0.355 0.148 0.042
0.359 0.153 0.043
0.396 0.173 0.047
0.402 0.180 0.048
0.397 0.182 0.047
0.392 0.183 0.047
0.378 0.181 0.045
0.372 0.182 0.045
0.365 0.182 0.044
0.359 0.183 0.043
0.351 0.183 0.042
0.345 0.183 0.042
0.337 0.183 0.041
0.331 0.183 0.040
0.323 0.183 0.040
0.318 0.183 0.039
0.313 0.184 0.038
0.309 0.185 0.038
0.304 0.186 0.038
0.299 0.186 0.037
0.295 0.186 0.037
0.290 0.187 0.036
0.284 0.186 0.036
0.279 0.187 0.035
0.274 0.187 0.035
0.269 0.187 0.034
0.266 0.188 0.034
0.264 0.190 0.034
0.263 0.192 0.034
0.262 0.195 0.034
0.261 0.198 0.034
0.260 0.200 0.034
0.259 0.203 0.034
0.259 0.207 0.034
0.261 0.211 0.034
0.260 0.215 0.034
0.260 0.218 0.034
0.259 0.221 0.035
0.258 0.224 0.035
0.257 0.227 0.035
0.256 0.230 0.035
0.256 0.234 0.035
0.257 0.238 0.035
0.258 0.243 0.035
0.257 0.246 0.035
0.255 0.249 0.035
0.253 0.251 0.035
0.385 0.408 0.055
0.311 0.346 0.045
0.302 0.342 0.045
0.300 0.345 0.044
0.298 0.348 0.044
0.293 0.348 0.044
0.297 0.358 0.045
0.310 0.381 0.047
0.309 0.385 0.047
0.305 0.386 0.047
0.301 0.387 0.047
0.297 0.388 0.047
0.182 -0.251 0.031
0.179 -0.245 0.030
0.182 -0.246 0.030
0.183 -0.243 0.030
0.185 -0.243 0.031
0.184 -0.238 0.030
0.185 -0.236 0.030
0.189 -0.237 0.031
0.192 -0.238 0.031
0.192 -0.235 0.031
0.194 -0.234 0.031
0.199 -0.236 0.032
0.202 -0.236 0.032
0.202 -0.232 0.032
0.204 -0.231 0.032
0.282 -0.262 0.041
0.284 -0.260 0.041
0.286 -0.258 0.041
0.289 -0.256 0.041
0.293 -0.256 0.042
0.293 -0.252 0.042
0.296 -0.250 0.042
0.297 -0.247 0.042
0.294 -0.240 0.041
0.209 -0.160 0.029
0.206 -0.155 0.028
0.209 -0.155 0.029
0.213 -0.155 0.029
0.208 -0.149 0.028
0.208 -0.147 0.028
0.212 -0.147 0.029
0.216 -0.148 0.029
0.217 -0.146 0.029
0.220 -0.145 0.029
0.205 -0.133 0.027
0.209 -0.133 0.028
0.211 -0.132 0.028
0.211 -0.129 0.028
0.210 -0.126 0.028
0.206 -0.122 0.027
0.207 -0.120 0.027
0.208 -0.118 0.027
0.205 -0.114 0.027
0.215 -0.118 0.028
0.216 -0.116 0.028
0.218 -0.114 0.028
0.217 -0.112 0.028
0.217 -0.110 0.028
0.213 -0.105 0.027
0.207 -0.100 0.027
0.207 -0.098 0.027
0.208 -0.097 0.027
0.205 -0.093 0.026
0.209 -0.093 0.027
0.208 -0.090 0.026
0.212 -0.090 0.027
0.215 -0.089 0.027
0.218 -0.088 0.028
0.217 -0.085 0.027
0.215 -0.083 0.027
0.212 -0.079 0.027
0.215 -0.078 0.027
0.222 -0.079 0.028
0.226 -0.078 0.028
0.227 -0.076 0.028
0.230 -0.075 0.029
0.239 -0.076 0.030
0.257 -0.079 0.032
0.258 -0.077 0.032
0.264 -0.076 0.033
0.413 -0.111 0.051
0.416 -0.108 0.052
0.420 -0.105 0.052
0.417 -0.101 0.052
0.414 -0.096 0.051
0.351 -0.072 0.043
0.359 -0.070 0.044
0.350 -0.065 0.043
0.285 -0.048 0.035
0.284 -0.045 0.035
0.284 -0.042 0.035
0.287 -0.040 0.035
0.290 -0.038 0.036
0.285 -0.035 0.035
0.285 -0.032 0.035
0.290 -0.030 0.036
0.293 -0.028 0.036
0.293 -0.025 0.036
0.294 -0.023 0.036
0.296 -0.020 0.036
0.295 -0.017 0.036
0.290 -0.014 0.036
0.290 -0.012 0.036
0.296 -0.009 0.036
0.296 -0.007 0.036
0.300 -0.004 0.037
0.303 -0.001 0.037
0.307 0.001 0.038
0.306 0.004 0.038
0.318 0.007 0.039
0.318 0.010 0.039
0.312 0.013 0.038
0.308 0.015 0.038
0.306 0.018 0.038
0.303 0.020 0.037
0.304 0.023 0.037
0.302 0.026 0.037
0.302 0.029 0.037
0.305 0.032 0.038
0.312 0.035 0.038
0.304 0.037 0.037
0.301 0.039 0.037
0.312 0.044 0.039
0.331 0.049 0.041
0.323 0.051 0.040
0.306 0.051 0.038
0.305 0.054 0.038
0.315 0.059 0.039
0.328 0.064 0.041
0.320 0.066 0.040
0.317 0.068 0.039
0.311 0.069 0.039
0.301 0.070 0.037
0.289 0.070 0.036
0.295 0.074 0.037
0.296 0.077 0.037
0.298 0.081 0.037
0.298 0.083 0.037
0.312 0.090 0.039
0.326 0.097 0.041
0.334 0.103 0.042
0.325 0.103 0.041
0.314 0.103 0.040
0.313 0.106 0.039
0.320 0.111 0.040
0.327 0.117 0.041
0.322 0.118 0.041
0.316 0.119 0.040
0.315 0.122 0.040
0.322 0.128 0.041
0.336 0.137 0.043
0.344 0.143 0.044
0.350 0.149 0.045
0.398 0.178 0.051
0.397 0.182 0.051
0.392 0.184 0.051
0.387 0.185 0.050
0.372 0.182 0.048
0.366 0.183 0.048
0.357 0.182 0.047
0.350 0.182 0.046
0.345 0.183 0.045
0.339 0.184 0.045
0.329 0.182 0.043
0.323 0.183 0.043
0.318 0.183 0.042
0.313 0.184 0.042
0.308 0.184 0.041
0.304 0.186 0.041
0.300 0.187 0.040
0.293 0.186 0.039
0.288 0.186 0.039
0.284 0.186 0.038
0.279 0.187 0.038
0.275 0.187 0.037
0.269 0.187 0.037
0.266 0.188 0.037
0.264 0.190 0.036
0.262 0.191 0.036
0.261 0.195 0.036
0.261 0.197 0.036
0.260 0.200 0.036
0.259 0.203 0.036
0.260 0.207 0.037
0.260 0.211 0.037
0.260 0.214 0.037
0.259 0.217 0.037
0.259 0.221 0.037
0.258 0.224 0.037
0.256 0.226 0.037
0.257 0.230 0.037
0.256 0.234 0.038
0.256 0.237 0.038
0.257 0.243 0.038
0.256 0.246 0.038
0.255 0.249 0.038
0.257 0.255 0.039
0.364 0.386 0.056
0.352 0.379 0.055
0.318 0.348 0.050
0.306 0.341 0.048
0.299 0.339 0.047
0.297 0.342 0.047
0.294 0.344 0.047
0.294 0.349 0.048
0.293 0.354 0.048
0.308 0.379 0.051
0.306 0.383 0.051
0.303 0.385 0.051
0.300 0.387 0.050
0.295 0.385 0.050
0.181 -0.250 0.033
0.181 -0.248 0.033
0.185 -0.249 0.033
0.189 -0.252 0.034
0.254 -0.333 0.045
0.277 -0.343 0.048
0.282 -0.345 0.049
0.281 -0.338 0.048
0.279 -0.331 0.047
0.280 -0.327 0.047
0.281 -0.324 0.047
0.284 -0.322 0.047
0.281 -0.315 0.047
0.278 -0.307 0.046
0.285 -0.310 0.047
0.290 -0.310 0.047
0.292 -0.308 0.048
0.293 -0.304 0.047
0.289 -0.295 0.046
0.291 -0.293 0.047
0.294 -0.291 0.047
0.295 -0.287 0.047
0.296 -0.284 0.047
0.295 -0.279 0.046
0.294 -0.274 0.046
0.292 -0.267 0.045
0.299 -0.269 0.046
0.293 -0.260 0.045
0.291 -0.254 0.045
0.294 -0.253 0.045
0.295 -0.250 0.045
0.297 -0.247 0.045
0.292 -0.239 0.044
0.214 -0.164 0.032
0.208 -0.157 0.031
0.208 -0.155 0.031
0.205 -0.149 0.030
0.210 -0.151 0.031
0.209 -0.148 0.030
0.212 -0.147 0.031
0.213 -0.145 0.031
0.219 -0.146 0.032
0.212 -0.140 0.031
0.210 -0.136 0.030
0.212 -0.135 0.030
0.212 -0.133 0.030
0.211 -0.129 0.030
0.206 -0.124 0.029
0.205 -0.121 0.029
0.206 -0.120 0.029
0.210 -0.119 0.029
0.205 -0.115 0.029
0.210 -0.115 0.029
0.217 -0.117 0.030
0.212 -0.112 0.030
0.212 -0.109 0.030
0.215 -0.109 0.030
0.212 -0.105 0.029
0.208 -0.101 0.029
0.207 -0.098 0.029
0.209 -0.097 0.029
0.205 -0.093 0.028
0.211 -0.093 0.029
0.209 -0.091 0.029
0.211 -0.090 0.029
0.216 -0.089 0.029
0.216 -0.087 0.029
0.216 -0.085 0.029
0.210 -0.081 0.029
0.211 -0.079 0.029
0.215 -0.078 0.029
0.222 -0.079 0.030
0.230 -0.080 0.031
0.230 -0.077 0.031
0.234 -0.076 0.031
0.247 -0.078 0.033
0.257 -0.079 0.034
0.259 -0.077 0.035
0.267 -0.077 0.036
0.413 -0.111 0.055
0.419 -0.109 0.056
0.420 -0.105 0.056
0.415 -0.100 0.055
0.414 -0.096 0.055
0.405 -0.090 0.054
0.360 -0.074 0.048
0.356 -0.069 0.047
0.351 -0.065 0.047
0.287 -0.048 0.038
0.286 -0.045 0.038
0.286 -0.043 0.038
0.288 -0.040 0.038
0.287 -0.038 0.038
0.287 -0.035 0.038
0.288 -0.033 0.038
0.290 -0.030 0.038
0.293 -0.028 0.039
0.295 -0.025 0.039
0.294 -0.023 0.039
0.294 -0.020 0.039
0.290 -0.017 0.038
0.293 -0.015 0.039
0.294 -0.012 0.039
0.296 -0.009 0.039
0.301 -0.007 0.040
0.295 -0.004 0.039
0.298 -0.001 0.039
0.302 0.001 0.040
0.309 0.004 0.041
0.319 0.007 0.042
0.323 0.010 0.043
0.320 0.013 0.042
0.310 0.015 0.041
0.312 0.018 0.041
0.307 0.021 0.040
0.300 0.023 0.040
0.295 0.025 0.039
0.300 0.028 0.040
0.306 0.032 0.041
0.310 0.035 0.041
0.308 0.038 0.041
0.299 0.039 0.040
0.308 0.043 0.041
0.330 0.049 0.044
0.334 0.053 0.044
0.323 0.054 0.043
0.311 0.055 0.041
0.310 0.058 0.041
0.312 0.061 0.042
0.318 0.065 0.042
0.320 0.068 0.043
0.312 0.070 0.042
0.302 0.070 0.040
0.293 0.071 0.039
0.299 0.075 0.040
0.299 0.078 0.040
0.294 0.080 0.039
0.302 0.084 0.041
0.319 0.092 0.043
0.323 0.096 0.043
0.322 0.099 0.043
0.318 0.101 0.043
0.316 0.104 0.043
0.314 0.106 0.043
0.320 0.111 0.043
0.319 0.114 0.043
0.316 0.116 0.043
0.314 0.118 0.043
0.313 0.121 0.043
0.321 0.128 0.044
0.326 0.133 0.045
0.334 0.139 0.046
0.349 0.149 0.048
0.396 0.177 0.055
0.397 0.182 0.055
0.391 0.183 0.054
0.383 0.183 0.053
0.372 0.182 0.052
0.366 0.183 0.051
0.359 0.184 0.050
0.350 0.183 0.049
0.343 0.183 0.048
0.340 0.185 0.048
0.333 0.185 0.047
0.324 0.183 0.046
0.318 0.184 0.045
0.314 0.184 0.045
0.308 0.185 0.044
0.304 0.185 0.044
0.300 0.187 0.043
0.292 0.185 0.042
0.287 0.185 0.042
0.283 0.186 0.041
0.279 0.187 0.041
0.273 0.186 0.040
0.268 0.186 0.039
0.266 0.188 0.039
0.264 0.190 0.039
0.262 0.192 0.039
0.260 0.194 0.039
0.261 0.198 0.039
0.260 0.201 0.039
0.260 0.204 0.039
0.260 0.208 0.039
0.260 0.211 0.040
0.259 0.214 0.040
0.258 0.217 0.040
0.259 0.221 0.040
0.257 0.223 0.040
0.256 0.226 0.040
0.257 0.231 0.040
0.256 0.234 0.040
0.256 0.238 0.041
0.256 0.241 0.041
0.256 0.245 0.041
0.256 0.250 0.041
0.257 0.255 0.042
0.307 0.337 0.052
0.300 0.335 0.051
0.297 0.336 0.051
0.293 0.338 0.050
0.293 0.343 0.051
0.292 0.348 0.051
0.293 0.354 0.051
0.307 0.378 0.054
0.305 0.380 0.054
0.302 0.383 0.054
0.300 0.386 0.054
0.299 0.392 0.054
0.179 -0.248 0.035
0.182 -0.248 0.035
0.189 -0.256 0.036
0.194 -0.258 0.037
0.259 -0.340 0.049
0.271 -0.351 0.051
0.279 -0.356 0.052
0.282 -0.355 0.052
0.284 -0.352 0.052
0.286 -0.350 0.053
0.288 -0.347 0.053
0.287 -0.341 0.052
0.289 -0.339 0.052
0.289 -0.334 0.052
0.287 -0.326 0.051
0.289 -0.324 0.051
0.287 -0.316 0.051
0.289 -0.314 0.051
0.290 -0.310 0.051
0.292 -0.308 0.051
0.292 -0.303 0.050
0.289 -0.296 0.050
0.291 -0.293 0.050
0.293 -0.290 0.050
0.291 -0.284 0.049
0.289 -0.278 0.049
0.287 -0.272 0.048
0.287 -0.267 0.048
0.290 -0.266 0.048
0.289 -0.260 0.048
0.289 -0.256 0.047
0.293 -0.256 0.048
0.292 -0.251 0.048
0.294 -0.248 0.048
0.292 -0.243 0.047
0.288 -0.236 0.046
0.280 -0.226 0.045
0.217 -0.167 0.034
0.209 -0.158 0.033
0.207 -0.154 0.033
0.210 -0.153 0.033
0.209 -0.150 0.033
0.216 -0.153 0.034
0.212 -0.147 0.033
0.211 -0.144 0.033
0.212 -0.143 0.033
0.213 -0.140 0.033
0.210 -0.136 0.032
0.210 -0.134 0.032
0.214 -0.134 0.033
0.207 -0.127 0.031
0.205 -0.124 0.031
0.207 -0.122 0.031
0.209 -0.121 0.031
0.205 -0.116 0.031
0.210 -0.117 0.031
0.200 -0.110 0.030
0.213 -0.114 0.032
0.214 -0.113 0.032
0.209 -0.108 0.031
0.212 -0.107 0.031
0.217 -0.107 0.032
0.204 -0.099 0.030
0.201 -0.095 0.030
0.203 -0.094 0.030
0.210 -0.095 0.031
0.199 -0.088 0.029
0.209 -0.091 0.031
0.202 -0.086 0.029
0.215 -0.089 0.031
0.218 -0.088 0.032
0.214 -0.085 0.031
0.210 -0.081 0.030
0.200 -0.075 0.029
0.213 -0.078 0.031
0.219 -0.078 0.032
0.229 -0.079 0.033
0.234 -0.078 0.034
0.226 -0.074 0.033
0.241 -0.076 0.035
0.252 -0.077 0.036
0.257 -0.077 0.037
0.264 -0.076 0.038
0.280 -0.078 0.040
0.410 -0.110 0.059
0.420 -0.109 0.060
0.426 -0.107 0.061
0.417 -0.101 0.059
0.414 -0.096 0.059
0.411 -0.092 0.058
0.400 -0.085 0.057
0.379 -0.077 0.054
0.363 -0.071 0.051
0.357 -0.066 0.051
0.342 -0.061 0.048
0.285 -0.048 0.040
0.286 -0.045 0.040
0.286 -0.043 0.040
0.287 -0.040 0.041
0.287 -0.038 0.041
0.288 -0.035 0.041
0.289 -0.033 0.041
0.290 -0.030 0.041
0.291 -0.028 0.041
0.294 -0.025 0.041
0.293 -0.023 0.041
0.290 -0.020 0.041
0.295 -0.017 0.042
0.294 -0.015 0.041
0.297 -0.012 0.042
0.295 -0.009 0.042
0.296 -0.007 0.042
0.298 -0.004 0.042
0.300 -0.001 0.042
0.305 0.001 0.043
0.301 0.004 0.042
0.306 0.007 0.043
0.313 0.010 0.044
0.312 0.013 0.044
0.314 0.016 0.044
0.320 0.019 0.045
0.315 0.021 0.044
0.302 0.023 0.043
0.299 0.026 0.042
0.305 0.029 0.043
0.310 0.032 0.044
0.302 0.034 0.043
0.298 0.036 0.042
0.313 0.041 0.044
0.301 0.042 0.043
0.312 0.047 0.044
0.328 0.052 0.047
0.325 0.055 0.046
0.319 0.056 0.045
0.308 0.057 0.044
0.307 0.060 0.044
0.316 0.065 0.045
0.329 0.070 0.047
0.315 0.070 0.045
0.299 0.070 0.043
0.291 0.070 0.042
0.294 0.074 0.042
0.294 0.077 0.042
0.305 0.082 0.044
0.311 0.087 0.045
0.320 0.093 0.046
0.314 0.094 0.045
0.311 0.096 0.045
0.311 0.099 0.045
0.319 0.105 0.046
0.313 0.106 0.045
0.299 0.104 0.043
0.310 0.111 0.045
0.316 0.116 0.046
0.314 0.119 0.046
0.316 0.122 0.046
0.324 0.128 0.047
0.330 0.134 0.048
0.334 0.139 0.049
0.346 0.148 0.051
0.394 0.177 0.058
0.399 0.183 0.059
0.384 0.180 0.057
0.381 0.183 0.057
0.372 0.182 0.055
0.365 0.183 0.054
0.360 0.184 0.054
0.352 0.184 0.053
0.345 0.184 0.052
0.336 0.183 0.051
0.329 0.182 0.050
0.325 0.184 0.049
0.317 0.183 0.048
0.313 0.184 0.048
0.309 0.185 0.047
0.304 0.186 0.047
0.299 0.186 0.046
0.295 0.187 0.046
0.287 0.186 0.044
0.282 0.186 0.044
0.278 0.187 0.043
0.273 0.186 0.043
0.268 0.186 0.042
0.266 0.188 0.042
0.263 0.189 0.042
0.262 0.192 0.041
0.261 0.195 0.042
0.261 0.198 0.042
0.261 0.201 0.042
0.260 0.204 0.042
0.260 0.207 0.042
0.260 0.212 0.042
0.259 0.214 0.042
0.258 0.217 0.042
0.258 0.221 0.043
0.258 0.224 0.043
0.257 0.228 0.043
0.257 0.231 0.043
0.257 0.235 0.043
0.256 0.237 0.043
0.255 0.241 0.043
0.256 0.246 0.044
0.255 0.249 0.044
0.255 0.253 0.044
0.258 0.261 0.045
0.285 0.298 0.050
0.288 0.306 0.051
0.291 0.314 0.052
0.293 0.322 0.053
0.296 0.331 0.054
0.290 0.329 0.053
0.290 0.334 0.053
0.291 0.341 0.054
0.289 0.344 0.054
0.297 0.359 0.056
0.306 0.376 0.058
0.303 0.378 0.057
0.300 0.381 0.057
0.300 0.388 0.058
0.296 0.388 0.057
0.169 -0.234 0.035
0.181 -0.247 0.037
0.191 -0.258 0.039
0.197 -0.262 0.040
0.277 -0.360 0.056
0.281 -0.359 0.056
0.283 -0.356 0.056
0.285 -0.354 0.056
0.287 -0.351 0.056
0.288 -0.348 0.056
0.290 -0.345 0.056
0.291 -0.341 0.056
0.289 -0.334 0.055
0.287 -0.327 0.055
0.291 -0.326 0.055
0.292 -0.322 0.055
0.292 -0.317 0.055
0.294 -0.314 0.055
0.291 -0.307 0.054
0.291 -0.302 0.054
0.290 -0.297 0.053
0.291 -0.293 0.053
0.290 -0.288 0.053
0.290 -0.283 0.052
0.289 -0.278 0.052
0.288 -0.273 0.051
0.287 -0.268 0.051
0.287 -0.263 0.051
0.287 -0.259 0.050
0.288 -0.256 0.050
0.288 -0.252 0.050
0.289 -0.249 0.050
0.287 -0.243 0.050
0.286 -0.238 0.049
0.284 -0.233 0.049
0.282 -0.228 0.048
0.216 -0.166 0.036
0.212 -0.160 0.036
0.213 -0.158 0.036
0.214 -0.156 0.036
0.222 -0.160 0.037
0.219 -0.155 0.036
0.214 -0.149 0.035
0.209 -0.143 0.034
0.212 -0.143 0.035
0.210 -0.139 0.034
0.210 -0.136 0.034
0.213 -0.135 0.035
0.211 -0.132 0.034
0.212 -0.130 0.034
0.212 -0.128 0.034
0.211 -0.125 0.034
0.212 -0.123 0.034
0.212 -0.121 0.034
0.211 -0.118 0.034
0.214 -0.117 0.034
0.205 -0.110 0.033
0.213 -0.112 0.034
0.215 -0.111 0.034
0.214 -0.108 0.034
0.215 -0.107 0.034
0.214 -0.104 0.034
0.208 -0.099 0.033
0.208 -0.096 0.033
0.206 -0.094 0.032
0.216 -0.096 0.034
0.204 -0.089 0.032
0.216 -0.092 0.034
0.209 -0.087 0.033
0.217 -0.088 0.034
0.215 -0.085 0.033
0.212 -0.081 0.033
0.212 -0.080 0.033
0.213 -0.078 0.033
0.219 -0.078 0.034
0.224 -0.077 0.034
0.233 -0.078 0.036
0.238 -0.078 0.036
0.239 -0.076 0.037
0.242 -0.074 0.037
0.249 -0.074 0.038
0.264 -0.076 0.040
0.279 -0.078 0.042
0.406 -0.110 0.062
0.416 -0.108 0.063
0.421 -0.106 0.064
0.416 -0.100 0.063
0.412 -0.096 0.062
0.413 -0.092 0.063
0.407 -0.087 0.062
0.392 -0.080 0.059
0.360 -0.070 0.054
0.355 -0.066 0.054
0.344 -0.061 0.052
0.283 -0.047 0.043
0.283 -0.045 0.043
0.285 -0.043 0.043
0.286 -0.040 0.043
0.287 -0.038 0.043
0.285 -0.035 0.043
0.286 -0.032 0.043
0.288 -0.030 0.043
0.289 -0.028 0.043
0.290 -0.025 0.043
0.284 -0.022 0.043
0.287 -0.020 0.043
0.291 -0.017 0.044
0.296 -0.015 0.044
0.295 -0.012 0.044
0.293 -0.009 0.044
0.294 -0.007 0.044
0.296 -0.004 0.044
0.301 -0.001 0.045
0.301 0.001 0.045
0.297 0.004 0.044
0.296 0.007 0.044
0.297 0.009 0.045
0.301 0.012 0.045
0.310 0.015 0.046
0.320 0.019 0.048
0.315 0.021 0.047
0.306 0.023 0.046
0.303 0.026 0.046
0.321 0.030 0.048
0.320 0.033 0.048
0.299 0.034 0.045
0.305 0.037 0.046
0.322 0.042 0.049
0.316 0.044 0.048
0.295 0.044 0.045
0.304 0.048 0.046
0.322 0.054 0.049
0.325 0.058 0.049
0.325 0.061 0.049
0.315 0.062 0.048
0.325 0.067 0.049
0.336 0.072 0.051
0.333 0.074 0.051
0.300 0.070 0.046
0.294 0.071 0.045
0.298 0.075 0.045
0.293 0.077 0.045
0.298 0.081 0.045
0.305 0.086 0.047
0.303 0.088 0.046
0.301 0.090 0.046
0.295 0.091 0.045
0.305 0.097 0.047
0.317 0.104 0.049
0.321 0.108 0.049
0.306 0.107 0.047
0.308 0.110 0.048
0.312 0.115 0.048
0.312 0.118 0.048
0.317 0.123 0.049
0.329 0.131 0.051
0.339 0.138 0.053
0.339 0.142 0.053
0.347 0.149 0.054
0.391 0.175 0.061
0.390 0.179 0.061
0.387 0.182 0.061
0.375 0.180 0.059
0.371 0.182 0.059
0.365 0.183 0.058
0.357 0.183 0.057
0.349 0.182 0.056
0.343 0.183 0.055
0.335 0.182 0.054
0.329 0.183 0.053
0.323 0.183 0.052
0.317 0.183 0.051
0.313 0.184 0.051
0.309 0.185 0.050
0.304 0.186 0.050
0.301 0.187 0.049
0.295 0.187 0.048
0.289 0.187 0.048
0.282 0.186 0.047
0.277 0.186 0.046
0.273 0.186 0.045
0.268 0.187 0.045
0.265 0.188 0.044
0.263 0.189 0.044
0.261 0.191 0.044
0.261 0.195 0.044
0.261 0.198 0.044
0.260 0.201 0.044
0.260 0.204 0.045
0.260 0.207 0.045
0.260 0.212 0.045
0.259 0.214 0.045
0.258 0.217 0.045
0.258 0.221 0.045
0.258 0.224 0.045
0.257 0.228 0.046
0.257 0.231 0.046
0.256 0.234 0.046
0.256 0.238 0.046
0.255 0.241 0.046
0.255 0.245 0.046
0.255 0.249 0.047
0.255 0.254 0.047
0.258 0.260 0.048
0.277 0.285 0.052
0.280 0.293 0.053
0.286 0.304 0.054
0.286 0.309 0.054
0.282 0.310 0.054
0.284 0.318 0.055
0.288 0.327 0.056
0.286 0.330 0.056
0.289 0.339 0.057
0.289 0.345 0.057
0.295 0.357 0.059
0.307 0.378 0.061
0.302 0.378 0.061
0.301 0.383 0.061
0.299 0.386 0.061
0.291 0.382 0.060
0.148 -0.206 0.032
0.188 -0.255 0.041
0.197 -0.263 0.042
0.280 -0.363 0.059
0.281 -0.359 0.059
0.281 -0.354 0.059
0.283 -0.352 0.059
0.285 -0.349 0.059
0.287 -0.347 0.059
0.289 -0.344 0.059
0.291 -0.341 0.059
0.289 -0.334 0.059
0.289 -0.329 0.058
0.291 -0.327 0.058
0.293 -0.324 0.058
0.294 -0.320 0.058
0.294 -0.315 0.058
0.293 -0.309 0.057
0.292 -0.303 0.057
0.293 -0.300 0.057
0.291 -0.294 0.056
0.290 -0.288 0.056
0.291 -0.284 0.055
0.291 -0.279 0.055
0.291 -0.276 0.055
0.288 -0.268 0.054
0.287 -0.263 0.054
0.287 -0.259 0.054
0.287 -0.255 0.053
0.288 -0.252 0.053
0.286 -0.247 0.053
0.284 -0.241 0.052
0.283 -0.236 0.052
0.282 -0.231 0.051
0.277 -0.224 0.050
0.269 -0.214 0.048
0.211 -0.163 0.038
0.209 -0.158 0.037
0.212 -0.158 0.038
0.216 -0.158 0.038
0.217 -0.156 0.038
0.220 -0.155 0.039
0.213 -0.148 0.037
0.210 -0.144 0.037
0.211 -0.141 0.037
0.211 -0.139 0.037
0.212 -0.137 0.037
0.211 -0.135 0.036
0.212 -0.133 0.037
0.210 -0.129 0.036
0.213 -0.129 0.036
0.213 -0.126 0.036
0.214 -0.125 0.036
0.215 -0.123 0.036
0.215 -0.120 0.036
0.210 -0.115 0.036
0.203 -0.109 0.034
0.215 -0.113 0.036
0.216 -0.112 0.036
0.216 -0.109 0.036
0.212 -0.105 0.035
0.211 -0.103 0.035
0.202 -0.096 0.034
0.204 -0.095 0.034
0.207 -0.094 0.034
0.208 -0.092 0.034
0.200 -0.087 0.033
0.213 -0.091 0.035
0.207 -0.086 0.034
0.213 -0.086 0.035
0.213 -0.084 0.035
0.209 -0.080 0.034
0.217 -0.081 0.036
0.212 -0.077 0.035
0.220 -0.078 0.036
0.227 -0.078 0.037
0.233 -0.078 0.038
0.242 -0.079 0.039
0.241 -0.076 0.039
0.241 -0.074 0.039
0.246 -0.073 0.040
0.263 -0.076 0.042
0.274 -0.077 0.044
0.403 -0.105 0.065
0.410 -0.103 0.066
0.410 -0.099 0.066
0.410 -0.095 0.066
0.408 -0.091 0.066
0.414 -0.089 0.066
0.375 -0.077 0.060
0.358 -0.070 0.057
0.342 -0.064 0.055
0.328 -0.058 0.052
0.286 -0.048 0.046
0.285 -0.045 0.046
0.285 -0.043 0.045
0.287 -0.040 0.046
0.282 -0.037 0.045
0.283 -0.035 0.045
0.284 -0.032 0.045
0.285 -0.030 0.045
0.288 -0.027 0.046
0.286 -0.025 0.046
0.285 -0.022 0.045
0.285 -0.019 0.045
0.290 -0.017 0.046
0.293 -0.015 0.047
0.293 -0.012 0.047
0.292 -0.009 0.046
0.295 -0.007 0.047
0.300 -0.004 0.048
0.302 -0.001 0.048
0.299 0.001 0.048
0.296 0.004 0.047
0.295 0.007 0.047
0.295 0.009 0.047
0.299 0.012 0.048
0.301 0.015 0.048
0.311 0.018 0.050
0.302 0.020 0.048
0.303 0.023 0.048
0.304 0.026 0.048
0.311 0.029 0.050
0.315 0.033 0.050
0.301 0.034 0.048
0.308 0.038 0.049
0.301 0.040 0.048
0.317 0.044 0.051
0.304 0.045 0.049
0.303 0.048 0.049
0.297 0.050 0.048
0.327 0.058 0.052
0.324 0.060 0.052
0.317 0.062 0.051
0.324 0.067 0.052
0.333 0.071 0.054
0.322 0.072 0.052
0.310 0.072 0.050
0.310 0.075 0.050
0.306 0.077 0.049
0.295 0.077 0.048
0.285 0.077 0.046
0.290 0.081 0.047
0.297 0.086 0.048
0.292 0.087 0.047
0.284 0.088 0.046
0.285 0.091 0.046
0.306 0.101 0.050
0.314 0.106 0.051
0.315 0.110 0.052
0.309 0.111 0.051
0.302 0.111 0.050
0.309 0.117 0.051
0.319 0.124 0.053
0.332 0.132 0.055
0.341 0.139 0.056
0.350 0.146 0.058
0.360 0.154 0.060
0.385 0.169 0.064
0.384 0.172 0.064
0.381 0.175 0.064
0.375 0.176 0.063
0.372 0.178 0.062
0.369 0.181 0.062
0.364 0.182 0.061
0.356 0.182 0.060
0.348 0.182 0.059
0.342 0.182 0.058
0.335 0.182 0.057
0.329 0.183 0.056
0.324 0.184 0.055
0.319 0.184 0.055
0.313 0.185 0.054
0.307 0.184 0.053
0.303 0.186 0.052
0.299 0.186 0.052
0.293 0.186 0.051
0.288 0.187 0.050
0.283 0.186 0.050
0.277 0.186 0.049
0.272 0.186 0.048
0.268 0.187 0.047
0.265 0.188 0.047
0.262 0.189 0.047
0.261 0.191 0.047
0.260 0.194 0.047
0.261 0.198 0.047
0.261 0.202 0.047
0.260 0.205 0.047
0.260 0.208 0.047
0.259 0.211 0.048
0.259 0.214 0.048
0.258 0.218 0.048
0.258 0.221 0.048
0.258 0.224 0.048
0.257 0.228 0.048
0.258 0.232 0.049
0.256 0.235 0.049
0.256 0.238 0.049
0.255 0.241 0.049
0.254 0.245 0.049
0.254 0.249 0.049
0.255 0.254 0.050
0.257 0.260 0.051
0.275 0.283 0.054
0.278 0.291 0.055
0.288 0.307 0.058
0.285 0.309 0.058
0.274 0.301 0.056
0.268 0.300 0.055
0.282 0.326 0.058
0.288 0.338 0.060
0.288 0.344 0.060
0.293 0.356 0.062
0.298 0.367 0.063
0.300 0.376 0.064
0.297 0.378 0.064
0.294 0.380 0.064
0.292 0.383 0.064
0.128 -0.178 0.029
0.123 -0.166 0.028
0.279 -0.353 0.062
0.282 -0.351 0.062
0.283 -0.347 0.062
0.284 -0.344 0.062
0.288 -0.343 0.062
0.289 -0.339 0.062
0.289 -0.335 0.062
0.290 -0.330 0.062
0.293 -0.328 0.062
0.294 -0.325 0.062
0.294 -0.320 0.062
0.294 -0.316 0.061
0.294 -0.310 0.061
0.293 -0.305 0.060
0.293 -0.301 0.060
0.292 -0.294 0.060
0.293 -0.291 0.059
0.291 -0.285 0.059
0.292 -0.281 0.059
0.292 -0.277 0.058
0.287 -0.268 0.057
0.288 -0.264 0.057
0.288 -0.260 0.057
0.288 -0.257 0.057
0.288 -0.253 0.056
0.285 -0.246 0.055
0.284 -0.241 0.055
0.284 -0.237 0.055
0.280 -0.230 0.054
0.276 -0.223 0.053
0.270 -0.215 0.052
0.270 -0.212 0.051
0.209 -0.161 0.040
0.209 -0.158 0.039
0.210 -0.156 0.039
0.209 -0.153 0.039
0.214 -0.154 0.040
0.213 -0.151 0.040
0.215 -0.150 0.040
0.213 -0.146 0.039
0.213 -0.144 0.039
0.213 -0.141 0.039
0.216 -0.140 0.040
0.217 -0.138 0.040
0.215 -0.135 0.039
0.213 -0.131 0.039
0.207 -0.125 0.038
0.209 -0.124 0.038
0.211 -0.123 0.038
0.212 -0.121 0.038
0.213 -0.119 0.038
0.202 -0.111 0.036
0.205 -0.110 0.036
0.202 -0.107 0.036
0.218 -0.113 0.039
0.210 -0.106 0.037
0.226 -0.112 0.040
0.214 -0.104 0.038
0.213 -0.101 0.037
0.203 -0.095 0.036
0.204 -0.093 0.036
0.200 -0.089 0.035
0.214 -0.093 0.037
0.213 -0.088 0.037
0.205 -0.083 0.036
0.211 -0.083 0.037
0.214 -0.083 0.037
0.204 -0.077 0.035
0.204 -0.075 0.035
0.222 -0.079 0.038
0.229 -0.079 0.039
0.234 -0.079 0.040
0.238 -0.078 0.041
0.246 -0.078 0.042
0.247 -0.076 0.042
0.252 -0.075 0.043
0.261 -0.075 0.045
0.390 -0.102 0.066
0.398 -0.100 0.068
0.402 -0.097 0.068
0.404 -0.094 0.069
0.401 -0.090 0.068
0.390 -0.084 0.066
0.380 -0.078 0.064
0.346 -0.068 0.059
0.338 -0.063 0.057
0.291 -0.049 0.049
0.285 -0.045 0.048
0.284 -0.042 0.048
0.283 -0.040 0.048
0.284 -0.037 0.048
0.282 -0.035 0.048
0.282 -0.032 0.048
0.285 -0.030 0.048
0.284 -0.027 0.048
0.288 -0.025 0.048
0.292 -0.022 0.049
0.292 -0.020 0.049
0.295 -0.017 0.050
0.293 -0.015 0.049
0.293 -0.012 0.049
0.290 -0.009 0.049
0.294 -0.007 0.049
0.299 -0.004 0.050
0.299 -0.001 0.050
0.295 0.001 0.050
0.298 0.004 0.050
0.297 0.007 0.050
0.299 0.009 0.050
0.304 0.012 0.051
0.311 0.015 0.052
0.302 0.018 0.051
0.304 0.021 0.051
0.303 0.023 0.051
0.302 0.026 0.051
0.301 0.029 0.051
0.298 0.031 0.050
0.301 0.034 0.051
0.299 0.037 0.051
0.308 0.040 0.052
0.303 0.043 0.051
0.303 0.045 0.051
0.301 0.048 0.051
0.304 0.051 0.051
0.315 0.056 0.053
0.316 0.059 0.054
0.304 0.060 0.052
0.302 0.062 0.051
0.314 0.067 0.053
0.316 0.071 0.054
0.315 0.074 0.054
0.315 0.076 0.054
0.309 0.078 0.053
0.295 0.077 0.050
0.287 0.078 0.049
0.295 0.083 0.051
0.307 0.089 0.053
0.299 0.090 0.051
0.292 0.090 0.050
0.288 0.092 0.050
0.274 0.090 0.047
0.274 0.093 0.047
0.313 0.109 0.054
0.296 0.106 0.051
0.296 0.109 0.051
0.305 0.115 0.053
0.311 0.121 0.054
0.312 0.124 0.054
0.353 0.148 0.062
0.363 0.156 0.064
0.378 0.166 0.066
0.377 0.169 0.067
0.373 0.171 0.066
0.370 0.174 0.065
0.364 0.175 0.065
0.362 0.178 0.064
0.362 0.182 0.065
0.356 0.182 0.064
0.346 0.181 0.062
0.341 0.182 0.061
0.334 0.182 0.060
0.329 0.183 0.059
0.324 0.184 0.059
0.319 0.185 0.058
0.311 0.183 0.057
0.304 0.183 0.056
0.302 0.185 0.055
0.294 0.184 0.054
0.290 0.185 0.053
0.287 0.186 0.053
0.283 0.187 0.052
0.279 0.188 0.052
0.270 0.185 0.050
0.267 0.186 0.050
0.265 0.188 0.050
0.262 0.189 0.049
0.262 0.192 0.050
0.261 0.195 0.050
0.261 0.199 0.050
0.261 0.202 0.050
0.260 0.205 0.050
0.260 0.209 0.050
0.259 0.211 0.050
0.258 0.214 0.050
0.258 0.217 0.051
0.258 0.221 0.051
0.257 0.224 0.051
0.258 0.229 0.051
0.258 0.233 0.052
0.257 0.236 0.052
0.256 0.238 0.052
0.255 0.241 0.052
0.254 0.245 0.052
0.253 0.248 0.052
0.254 0.253 0.052
0.257 0.261 0.053
0.269 0.277 0.056
0.275 0.288 0.058
0.275 0.293 0.058
0.276 0.299 0.059
0.263 0.290 0.056
0.257 0.288 0.055
0.258 0.294 0.056
0.264 0.306 0.058
0.281 0.331 0.062
0.288 0.345 0.064
0.292 0.354 0.065
0.294 0.363 0.066
0.293 0.368 0.066
0.290 0.369 0.066
0.286 0.371 0.066
0.284 0.373 0.065
0.109 -0.151 0.026
0.110 -0.150 0.026
0.113 -0.154 0.027
0.281 -0.340 0.065
0.284 -0.339 0.065
0.287 -0.338 0.065
0.288 -0.333 0.065
0.291 -0.332 0.065
0.294 -0.330 0.066
0.295 -0.326 0.065
0.293 -0.320 0.065
0.293 -0.315 0.064
0.293 -0.310 0.064
0.293 -0.305 0.064
0.293 -0.300 0.063
0.294 -0.296 0.063
0.293 -0.291 0.063
0.292 -0.286 0.062
0.291 -0.281 0.062
0.291 -0.276 0.061
0.291 -0.272 0.061
0.289 -0.266 0.060
0.289 -0.262 0.060
0.289 -0.257 0.060
0.288 -0.252 0.059
0.288 -0.249 0.059
0.285 -0.242 0.058
0.285 -0.238 0.058
0.285 -0.235 0.058
0.281 -0.227 0.057
0.275 -0.219 0.055
0.212 -0.164 0.042
0.209 -0.158 0.042
0.208 -0.155 0.041
0.209 -0.153 0.041
0.210 -0.152 0.041
0.210 -0.149 0.041
0.210 -0.146 0.041
0.212 -0.145 0.041
0.211 -0.142 0.041
0.211 -0.139 0.041
0.216 -0.140 0.042
0.224 -0.143 0.043
0.219 -0.137 0.042
0.216 -0.133 0.041
0.212 -0.128 0.040
0.205 -0.121 0.039
0.206 -0.120 0.039
0.209 -0.120 0.040
0.208 -0.116 0.039
0.205 -0.113 0.039
0.203 -0.109 0.038
0.216 -0.114 0.041
0.207 -0.107 0.039
0.214 -0.109 0.040
0.217 -0.108 0.040
0.217 -0.106 0.040
0.212 -0.101 0.039
0.207 -0.096 0.038
0.210 -0.095 0.039
0.211 -0.094 0.039
0.211 -0.092 0.039
0.217 -0.092 0.040
0.208 -0.086 0.038
0.212 -0.086 0.039
0.213 -0.084 0.039
0.214 -0.083 0.039
0.223 -0.084 0.041
0.220 -0.080 0.040
0.225 -0.080 0.041
0.228 -0.079 0.041
0.229 -0.077 0.042
0.237 -0.078 0.043
0.244 -0.077 0.044
0.251 -0.077 0.045
0.253 -0.076 0.046
0.259 -0.075 0.047
0.265 -0.074 0.048
0.370 -0.100 0.067
0.378 -0.099 0.068
0.391 -0.098 0.070
0.397 -0.096 0.071
0.398 -0.093 0.071
0.391 -0.087 0.070
0.384 -0.082 0.069
0.382 -0.078 0.068
0.332 -0.062 0.059
0.320 -0.057 0.057
0.291 -0.049 0.052
0.280 -0.045 0.050
0.280 -0.042 0.050
0.284 -0.040 0.051
0.286 -0.038 0.051
0.285 -0.035 0.051
0.286 -0.032 0.051
0.286 -0.030 0.051
0.287 -0.027 0.051
0.294 -0.025 0.052
0.298 -0.023 0.053
0.294 -0.020 0.052
0.291 -0.017 0.052
0.296 -0.015 0.053
0.294 -0.012 0.052
0.292 -0.009 0.052
0.292 -0.007 0.052
0.297 -0.004 0.053
0.294 -0.001 0.052
0.292 0.001 0.052
0.293 0.004 0.052
0.297 0.007 0.053
0.298 0.009 0.053
0.300 0.012 0.053
0.300 0.015 0.053
0.305 0.018 0.054
0.304 0.021 0.054
0.302 0.023 0.054
0.297 0.026 0.053
0.296 0.028 0.053
0.298 0.031 0.053
0.297 0.034 0.053
0.299 0.037 0.053
0.304 0.040 0.054
0.303 0.043 0.054
0.301 0.045 0.054
0.300 0.048 0.054
0.299 0.050 0.053
0.316 0.056 0.056
0.314 0.059 0.056
0.303 0.059 0.054
0.298 0.061 0.053
0.301 0.065 0.054
0.314 0.070 0.056
0.312 0.073 0.056
0.323 0.079 0.058
0.295 0.075 0.053
0.293 0.077 0.053
0.298 0.081 0.054
0.303 0.085 0.055
0.306 0.089 0.055
0.310 0.093 0.056
0.306 0.095 0.055
0.306 0.098 0.056
0.290 0.096 0.053
0.269 0.091 0.049
0.268 0.094 0.049
0.284 0.102 0.052
0.290 0.107 0.053
0.303 0.115 0.056
0.303 0.118 0.056
0.299 0.119 0.055
0.305 0.125 0.056
0.342 0.143 0.063
0.354 0.152 0.066
0.371 0.167 0.069
0.368 0.169 0.068
0.361 0.170 0.067
0.355 0.171 0.066
0.357 0.176 0.067
0.358 0.180 0.067
0.353 0.181 0.067
0.346 0.181 0.065
0.338 0.181 0.064
0.333 0.182 0.063
0.328 0.183 0.062
0.323 0.183 0.062
0.316 0.183 0.061
0.312 0.184 0.060
0.306 0.184 0.059
0.299 0.184 0.058
0.293 0.183 0.057
0.290 0.184 0.056
0.285 0.185 0.056
0.280 0.185 0.055
0.276 0.186 0.054
0.269 0.184 0.053
0.266 0.186 0.053
0.264 0.188 0.052
0.263 0.190 0.052
0.262 0.193 0.052
0.261 0.196 0.052
0.260 0.198 0.052
0.260 0.201 0.052
0.262 0.207 0.053
0.260 0.209 0.053
0.259 0.211 0.053
0.258 0.214 0.053
0.257 0.217 0.053
0.257 0.221 0.053
0.257 0.224 0.054
0.257 0.228 0.054
0.257 0.232 0.054
0.257 0.236 0.054
0.255 0.238 0.054
0.255 0.242 0.055
0.254 0.245 0.055
0.254 0.249 0.055
0.253 0.252 0.055
0.258 0.261 0.056
0.278 0.286 0.061
0.270 0.284 0.060
0.263 0.281 0.059
0.260 0.282 0.058
0.259 0.285 0.058
0.254 0.285 0.058
0.251 0.286 0.058
0.284 0.334 0.066
0.284 0.340 0.066
0.287 0.349 0.067
0.290 0.359 0.069
0.288 0.362 0.069
0.284 0.362 0.068
0.281 0.365 0.068
0.280 0.369 0.068
0.103 -0.143 0.026
0.107 -0.146 0.027
0.107 -0.145 0.027
0.107 -0.143 0.027
0.107 -0.141 0.027
0.109 -0.142 0.027
0.118 -0.152 0.029
0.287 -0.333 0.068
0.289 -0.331 0.068
0.293 -0.330 0.069
0.295 -0.327 0.069
0.293 -0.320 0.068
0.292 -0.314 0.068
0.291 -0.308 0.067
0.291 -0.303 0.067
0.292 -0.300 0.066
0.294 -0.297 0.066
0.294 -0.292 0.066
0.292 -0.286 0.065
0.291 -0.281 0.065
0.292 -0.277 0.065
0.292 -0.273 0.064
0.291 -0.268 0.064
0.291 -0.263 0.064
0.290 -0.259 0.063
0.288 -0.253 0.062
0.287 -0.248 0.062
0.287 -0.244 0.062
0.286 -0.239 0.061
0.286 -0.236 0.061
0.286 -0.232 0.061
0.274 -0.219 0.058
0.266 -0.208 0.056
0.216 -0.167 0.045
0.209 -0.159 0.044
0.211 -0.157 0.044
0.212 -0.155 0.044
0.211 -0.152 0.044
0.205 -0.145 0.042
0.205 -0.143 0.042
0.205 -0.141 0.042
0.209 -0.140 0.043
0.211 -0.140 0.043
0.212 -0.138 0.043
0.217 -0.138 0.044
0.219 -0.138 0.044
0.219 -0.135 0.044
0.212 -0.128 0.043
0.204 -0.121 0.041
0.204 -0.119 0.041
0.205 -0.117 0.041
0.208 -0.116 0.041
0.206 -0.113 0.041
0.204 -0.110 0.040
0.204 -0.108 0.040
0.203 -0.105 0.040
0.208 -0.106 0.041
0.211 -0.105 0.041
0.213 -0.104 0.042
0.211 -0.101 0.041
0.206 -0.096 0.040
0.208 -0.095 0.040
0.210 -0.094 0.041
0.208 -0.091 0.040
0.212 -0.090 0.041
0.202 -0.084 0.039
0.211 -0.085 0.041
0.213 -0.084 0.041
0.215 -0.083 0.041
0.222 -0.083 0.043
0.229 -0.084 0.044
0.226 -0.081 0.043
0.225 -0.078 0.043
0.227 -0.076 0.043
0.235 -0.077 0.045
0.233 -0.074 0.044
0.240 -0.074 0.046
0.251 -0.075 0.048
0.254 -0.073 0.048
0.259 -0.072 0.049
0.361 -0.097 0.068
0.375 -0.098 0.071
0.385 -0.097 0.073
0.388 -0.094 0.073
0.387 -0.090 0.073
0.380 -0.085 0.072
0.371 -0.079 0.070
0.371 -0.076 0.070
0.360 -0.071 0.068
0.294 -0.049 0.055
0.281 -0.045 0.053
0.277 -0.042 0.052
0.285 -0.040 0.053
0.286 -0.038 0.053
0.287 -0.035 0.054
0.287 -0.033 0.054
0.286 -0.030 0.054
0.291 -0.028 0.054
0.292 -0.025 0.055
0.295 -0.023 0.055
0.294 -0.020 0.055
0.290 -0.017 0.054
0.290 -0.014 0.054
0.295 -0.012 0.055
0.293 -0.009 0.055
0.293 -0.007 0.055
0.292 -0.004 0.055
0.290 -0.001 0.054
0.289 0.001 0.054
0.292 0.004 0.054
0.296 0.007 0.055
0.297 0.009 0.055
0.295 0.012 0.055
0.295 0.015 0.055
0.298 0.017 0.056
0.301 0.020 0.056
0.295 0.023 0.055
0.292 0.025 0.055
0.293 0.028 0.055
0.297 0.031 0.056
0.298 0.034 0.056
0.297 0.036 0.056
0.298 0.039 0.056
0.301 0.042 0.056
0.302 0.045 0.057
0.297 0.047 0.056
0.296 0.050 0.056
0.312 0.055 0.059
0.312 0.058 0.059
0.308 0.060 0.058
0.297 0.061 0.056
0.297 0.064 0.056
0.305 0.068 0.058
0.298 0.073 0.056
0.289 0.073 0.055
0.292 0.077 0.055
0.293 0.080 0.056
0.307 0.086 0.058
0.305 0.089 0.058
0.306 0.092 0.058
0.311 0.096 0.059
0.311 0.099 0.059
0.305 0.100 0.058
0.295 0.100 0.056
0.284 0.099 0.054
0.266 0.098 0.051
0.295 0.112 0.057
0.295 0.115 0.057
0.292 0.117 0.057
0.344 0.144 0.067
0.338 0.145 0.066
0.329 0.145 0.064
0.332 0.149 0.065
0.357 0.164 0.070
0.353 0.166 0.069
0.352 0.169 0.069
0.343 0.169 0.068
0.348 0.175 0.069
0.343 0.176 0.068
0.339 0.177 0.067
0.336 0.180 0.067
0.331 0.181 0.066
0.327 0.182 0.065
0.321 0.182 0.064
0.317 0.184 0.064
0.312 0.184 0.063
0.306 0.185 0.062
0.299 0.184 0.061
0.293 0.183 0.060
0.289 0.184 0.059
0.285 0.185 0.058
0.280 0.185 0.057
0.274 0.185 0.057
0.269 0.184 0.056
0.266 0.185 0.055
0.263 0.187 0.055
0.262 0.190 0.055
0.262 0.193 0.055
0.260 0.195 0.055
0.260 0.198 0.055
0.260 0.202 0.055
0.260 0.205 0.055
0.260 0.209 0.056
0.259 0.212 0.056
0.258 0.214 0.056
0.257 0.217 0.056
0.257 0.221 0.056
0.257 0.224 0.056
0.257 0.229 0.057
0.257 0.232 0.057
0.255 0.234 0.057
0.255 0.239 0.057
0.255 0.242 0.057
0.255 0.246 0.058
0.254 0.249 0.058
0.252 0.252 0.058
0.253 0.257 0.058
0.271 0.280 0.063
0.263 0.276 0.061
0.256 0.273 0.060
0.260 0.282 0.061
0.262 0.289 0.062
0.257 0.289 0.062
0.267 0.305 0.064
0.272 0.316 0.066
0.278 0.328 0.068
0.281 0.337 0.069
0.279 0.339 0.069
0.286 0.354 0.071
0.284 0.357 0.071
0.275 0.351 0.069
0.242 0.319 0.062
0.104 -0.145 0.028
0.106 -0.145 0.028
0.106 -0.144 0.028
0.106 -0.142 0.028
0.107 -0.141 0.028
0.107 -0.140 0.028
0.107 -0.138 0.028
0.105 -0.133 0.027
0.109 -0.137 0.028
0.120 -0.147 0.031
0.125 -0.152 0.032
0.137 -0.164 0.035
0.291 -0.328 0.072
0.293 -0.325 0.072
0.291 -0.318 0.071
0.291 -0.313 0.070
0.291 -0.308 0.070
0.291 -0.303 0.070
0.292 -0.300 0.070
0.293 -0.297 0.070
0.295 -0.294 0.070
0.292 -0.287 0.069
0.293 -0.283 0.068
0.293 -0.278 0.068
0.291 -0.272 0.067
0.291 -0.268 0.067
0.291 -0.264 0.067
0.291 -0.259 0.066
0.289 -0.254 0.066
0.288 -0.249 0.065
0.287 -0.244 0.065
0.287 -0.240 0.064
0.286 -0.235 0.064
0.284 -0.231 0.063
0.277 -0.221 0.061
0.215 -0.166 0.047
0.210 -0.160 0.046
0.209 -0.156 0.046
0.209 -0.154 0.046
0.208 -0.150 0.045
0.203 -0.144 0.044
0.203 -0.142 0.044
0.206 -0.141 0.044
0.209 -0.141 0.045
0.211 -0.140 0.045
0.215 -0.140 0.046
0.219 -0.140 0.046
0.219 -0.138 0.046
0.219 -0.135 0.046
0.217 -0.131 0.046
0.206 -0.122 0.043
0.203 -0.118 0.042
0.205 -0.117 0.043
0.209 -0.117 0.044
0.211 -0.116 0.044
0.211 -0.114 0.044
0.202 -0.107 0.042
0.203 -0.105 0.042
0.203 -0.103 0.042
0.209 -0.104 0.043
0.211 -0.103 0.043
0.212 -0.101 0.043
0.209 -0.098 0.043
0.201 -0.092 0.041
0.208 -0.093 0.042
0.214 -0.093 0.043
0.199 -0.081 0.040
0.213 -0.084 0.043
0.212 -0.082 0.043
0.205 -0.077 0.041
0.226 -0.081 0.045
0.222 -0.077 0.045
0.227 -0.077 0.046
0.225 -0.074 0.045
0.227 -0.072 0.045
0.228 -0.070 0.045
0.237 -0.071 0.047
0.254 -0.074 0.051
0.373 -0.097 0.074
0.380 -0.096 0.075
0.380 -0.092 0.075
0.373 -0.087 0.074
0.365 -0.082 0.072
0.366 -0.078 0.072
0.361 -0.074 0.071
0.352 -0.069 0.069
0.290 -0.049 0.057
0.277 -0.044 0.054
0.285 -0.043 0.056
0.284 -0.040 0.056
0.284 -0.037 0.056
0.285 -0.035 0.056
0.286 -0.032 0.056
0.287 -0.030 0.056
0.289 -0.028 0.057
0.293 -0.025 0.057
0.292 -0.023 0.057
0.292 -0.020 0.057
0.292 -0.017 0.057
0.292 -0.015 0.057
0.288 -0.012 0.056
0.289 -0.009 0.057
0.293 -0.007 0.057
0.293 -0.004 0.057
0.292 -0.001 0.057
0.291 0.001 0.057
0.294 0.004 0.058
0.294 0.007 0.058
0.297 0.009 0.058
0.298 0.012 0.058
0.298 0.015 0.058
0.294 0.017 0.058
0.298 0.020 0.058
0.293 0.023 0.057
0.287 0.025 0.056
0.296 0.028 0.058
0.299 0.031 0.059
0.299 0.034 0.059
0.301 0.037 0.059
0.296 0.039 0.058
0.299 0.042 0.059
0.299 0.045 0.059
0.292 0.047 0.058
0.294 0.050 0.058
0.300 0.053 0.059
0.306 0.057 0.060
0.300 0.059 0.059
0.309 0.064 0.061
0.296 0.064 0.059
0.302 0.068 0.060
0.293 0.068 0.058
0.283 0.069 0.056
0.286 0.072 0.057
0.289 0.076 0.057
0.293 0.080 0.058
0.301 0.085 0.060
0.301 0.088 0.060
0.304 0.091 0.061
0.304 0.094 0.061
0.309 0.099 0.062
0.304 0.100 0.061
0.305 0.103 0.061
0.297 0.107 0.060
0.268 0.099 0.054
0.260 0.099 0.053
0.282 0.110 0.057
0.290 0.116 0.059
0.328 0.134 0.067
0.334 0.140 0.068
0.334 0.144 0.068
0.322 0.142 0.066
0.317 0.143 0.065
0.335 0.154 0.069
0.339 0.160 0.070
0.337 0.162 0.070
0.350 0.172 0.072
0.341 0.172 0.071
0.338 0.174 0.070
0.335 0.176 0.070
0.330 0.177 0.069
0.327 0.179 0.068
0.323 0.180 0.068
0.319 0.182 0.067
0.315 0.183 0.067
0.312 0.184 0.066
0.305 0.184 0.065
0.299 0.184 0.064
0.293 0.183 0.063
0.288 0.184 0.062
0.285 0.185 0.061
0.280 0.185 0.060
0.274 0.185 0.059
0.269 0.185 0.058
0.265 0.185 0.058
0.263 0.187 0.058
0.262 0.190 0.057
0.261 0.192 0.058
0.261 0.195 0.058
0.260 0.198 0.058
0.260 0.202 0.058
0.259 0.205 0.058
0.259 0.208 0.058
0.259 0.212 0.059
0.258 0.215 0.059
0.258 0.218 0.059
0.257 0.221 0.059
0.257 0.225 0.059
0.257 0.229 0.059
0.256 0.231 0.059
0.254 0.234 0.059
0.255 0.239 0.060
0.255 0.243 0.060
0.254 0.246 0.060
0.257 0.253 0.061
0.254 0.254 0.061
0.251 0.255 0.061
0.252 0.261 0.061
0.252 0.265 0.062
0.254 0.272 0.063
0.262 0.285 0.065
0.266 0.294 0.066
0.266 0.299 0.067
0.266 0.304 0.067
0.270 0.314 0.069
0.273 0.323 0.070
0.273 0.327 0.070
0.196 0.255 0.052
0.195 0.258 0.052
0.115 -0.160 0.032
0.112 -0.154 0.031
0.110 -0.150 0.031
0.112 -0.151 0.031
0.113 -0.149 0.031
0.112 -0.147 0.031
0.114 -0.146 0.031
0.115 -0.146 0.031
0.116 -0.145 0.031
0.120 -0.148 0.032
0.120 -0.146 0.032
0.128 -0.154 0.034
0.133 -0.157 0.035
0.137 -0.159 0.036
0.289 -0.316 0.074
0.290 -0.312 0.074
0.290 -0.308 0.073
0.291 -0.304 0.073
0.291 -0.299 0.073
0.292 -0.296 0.073
0.292 -0.291 0.072
0.291 -0.286 0.072
0.292 -0.282 0.071
0.292 -0.278 0.071
0.291 -0.273 0.070
0.291 -0.268 0.070
0.291 -0.264 0.070
0.290 -0.259 0.069
0.289 -0.255 0.069
0.289 -0.250 0.068
0.287 -0.244 0.068
0.287 -0.241 0.067
0.284 -0.234 0.066
0.285 -0.231 0.066
0.277 -0.221 0.064
0.212 -0.161 0.049
0.205 -0.153 0.047
0.203 -0.149 0.046
0.201 -0.145 0.046
0.203 -0.145 0.046
0.208 -0.145 0.047
0.210 -0.145 0.047
0.210 -0.142 0.047
0.210 -0.139 0.047
0.214 -0.139 0.048
0.218 -0.139 0.048
0.218 -0.137 0.048
0.220 -0.136 0.049
0.212 -0.129 0.047
0.204 -0.121 0.045
0.202 -0.118 0.044
0.205 -0.117 0.045
0.208 -0.117 0.046
0.210 -0.116 0.046
0.204 -0.110 0.044
0.205 -0.108 0.044
0.207 -0.107 0.045
0.209 -0.106 0.045
0.209 -0.104 0.045
0.213 -0.104 0.046
0.215 -0.102 0.046
0.211 -0.099 0.045
0.210 -0.096 0.045
0.205 -0.091 0.044
0.211 -0.092 0.045
0.214 -0.091 0.045
0.214 -0.089 0.045
0.212 -0.086 0.045
0.208 -0.082 0.044
0.214 -0.083 0.045
0.213 -0.080 0.045
0.218 -0.080 0.046
0.215 -0.077 0.045
0.225 -0.078 0.047
0.223 -0.075 0.047
0.224 -0.074 0.047
0.230 -0.073 0.048
0.228 -0.070 0.048
0.237 -0.071 0.050
