VERSION .7
FIELDS x y z
SIZE 4 4 4
TYPE F F F
COUNT 1 1 1
WIDTH     2587
HEIGHT 1
VIEWPOINT 0 0 0 1 0 0 0
POINTS     2587
DATA ascii
0.166 -0.013 0.076
0.160 -0.011 0.073
0.176 -0.011 0.080
0.169 -0.009 0.077
0.161 -0.007 0.074
0.170 -0.005 0.077
0.173 -0.004 0.079
0.177 -0.002 0.081
0.179 -0.001 0.081
0.176 0.001 0.080
0.172 0.002 0.078
0.169 0.004 0.077
0.163 0.005 0.074
0.171 0.007 0.078
0.171 0.009 0.078
0.168 0.010 0.077
0.163 0.012 0.075
0.162 0.013 0.074
0.160 0.014 0.073
0.161 0.016 0.074
0.165 0.018 0.076
0.165 0.019 0.075
0.162 0.021 0.074
0.162 0.022 0.074
0.161 0.024 0.074
0.152 0.024 0.070
0.150 0.025 0.069
0.148 0.027 0.068
0.151 0.029 0.070
0.201 0.043 0.093
0.201 0.045 0.093
0.198 0.046 0.092
0.197 0.048 0.091
0.195 0.049 0.090
0.189 0.050 0.088
0.182 0.050 0.085
0.179 0.051 0.083
0.181 0.053 0.084
0.186 0.056 0.087
0.185 0.058 0.087
0.187 0.060 0.087
0.187 0.062 0.087
0.185 0.063 0.087
0.185 0.066 0.087
0.184 0.067 0.087
0.183 0.068 0.086
0.182 0.070 0.086
0.181 0.071 0.086
0.180 0.073 0.085
0.177 0.074 0.084
0.176 0.075 0.084
0.175 0.077 0.084
0.177 0.080 0.085
0.181 0.083 0.087
0.184 0.086 0.088
0.179 0.086 0.086
0.170 0.083 0.082
0.160 0.081 0.078
0.156 0.080 0.076
0.156 0.082 0.076
0.162 0.087 0.079
0.167 0.092 0.082
0.169 0.095 0.083
0.175 0.100 0.086
0.174 0.102 0.086
0.176 0.105 0.087
0.177 0.108 0.088
0.176 0.109 0.088
0.176 0.111 0.088
0.176 0.114 0.088
0.175 0.115 0.088
0.174 0.117 0.088
0.174 0.119 0.088
0.173 0.120 0.088
0.173 0.123 0.088
0.173 0.125 0.089
0.187 0.138 0.096
0.178 0.134 0.092
0.170 0.130 0.088
0.170 0.132 0.088
0.173 0.137 0.091
0.169 0.137 0.089
0.167 0.137 0.088
0.164 0.137 0.087
0.164 0.139 0.087
0.168 0.146 0.090
0.171 0.150 0.092
0.170 0.153 0.092
0.171 0.156 0.093
0.169 0.157 0.093
0.161 0.152 0.088
0.160 0.154 0.088
0.161 0.157 0.089
0.160 0.159 0.089
0.159 0.161 0.089
0.158 0.163 0.089
0.158 0.166 0.090
0.158 0.168 0.090
0.157 0.170 0.090
0.155 0.171 0.090
0.155 0.173 0.090
0.155 0.176 0.091
0.153 0.177 0.090
0.155 0.182 0.092
0.153 0.183 0.091
0.154 0.187 0.092
0.153 0.189 0.092
0.152 0.189 0.092
0.151 0.191 0.092
0.150 0.193 0.092
0.123 -0.159 0.075
0.127 -0.161 0.077
0.129 -0.162 0.078
0.128 -0.158 0.077
0.127 -0.155 0.076
0.128 -0.154 0.076
0.131 -0.155 0.078
0.128 -0.150 0.076
0.127 -0.147 0.075
0.128 -0.146 0.075
0.123 -0.137 0.072
0.123 -0.135 0.071
0.122 -0.133 0.071
0.123 -0.132 0.071
0.123 -0.130 0.070
0.123 -0.127 0.070
0.121 -0.123 0.068
0.115 -0.115 0.065
0.112 -0.111 0.063
0.111 -0.109 0.062
0.112 -0.108 0.062
0.118 -0.111 0.065
0.179 -0.163 0.098
0.180 -0.161 0.098
0.181 -0.160 0.098
0.183 -0.159 0.099
0.183 -0.156 0.098
0.184 -0.154 0.098
0.184 -0.152 0.098
0.183 -0.149 0.097
0.185 -0.148 0.098
0.185 -0.145 0.097
0.184 -0.142 0.097
0.184 -0.139 0.096
0.184 -0.137 0.096
0.184 -0.134 0.095
0.184 -0.132 0.095
0.184 -0.130 0.095
0.182 -0.127 0.094
0.182 -0.124 0.093
0.183 -0.122 0.093
0.183 -0.120 0.093
0.185 -0.119 0.094
0.185 -0.117 0.094
0.184 -0.114 0.093
0.184 -0.112 0.092
0.184 -0.110 0.092
0.187 -0.109 0.093
0.186 -0.107 0.093
0.187 -0.105 0.093
0.187 -0.103 0.093
0.188 -0.102 0.093
0.189 -0.100 0.093
0.189 -0.098 0.093
0.188 -0.095 0.092
0.188 -0.093 0.092
0.189 -0.092 0.092
0.189 -0.090 0.092
0.190 -0.088 0.093
0.190 -0.086 0.092
0.189 -0.084 0.092
0.189 -0.082 0.091
0.188 -0.079 0.091
0.189 -0.078 0.091
0.190 -0.076 0.092
0.190 -0.074 0.092
0.191 -0.073 0.092
0.192 -0.071 0.092
0.191 -0.069 0.092
0.192 -0.067 0.092
0.192 -0.065 0.092
0.192 -0.063 0.092
0.194 -0.062 0.092
0.194 -0.060 0.092
0.193 -0.058 0.092
0.192 -0.056 0.091
0.193 -0.054 0.092
0.193 -0.052 0.091
0.194 -0.051 0.092
0.196 -0.049 0.093
0.206 -0.050 0.097
0.195 -0.045 0.092
0.186 -0.041 0.087
0.189 -0.040 0.089
0.192 -0.039 0.090
0.193 -0.037 0.091
0.193 -0.035 0.090
0.209 -0.034 0.098
0.202 -0.031 0.095
0.201 -0.029 0.094
0.211 -0.029 0.099
0.220 -0.028 0.103
0.222 -0.026 0.104
0.197 -0.021 0.092
0.183 -0.018 0.086
0.175 -0.016 0.082
0.169 -0.013 0.079
0.165 -0.012 0.077
0.170 -0.010 0.079
0.183 -0.009 0.085
0.164 -0.007 0.076
0.164 -0.005 0.077
0.170 -0.004 0.079
0.172 -0.002 0.080
0.172 -0.001 0.080
0.170 0.001 0.080
0.167 0.002 0.078
0.168 0.004 0.078
0.169 0.006 0.079
0.171 0.007 0.080
0.170 0.009 0.079
0.170 0.010 0.079
0.167 0.012 0.078
0.164 0.013 0.077
0.158 0.014 0.074
0.162 0.016 0.076
0.164 0.018 0.077
0.165 0.020 0.077
0.163 0.021 0.076
0.164 0.023 0.077
0.156 0.023 0.073
0.152 0.024 0.071
0.147 0.024 0.069
0.144 0.025 0.068
0.143 0.027 0.067
0.151 0.030 0.071
0.154 0.032 0.073
0.186 0.040 0.088
0.191 0.043 0.090
0.190 0.044 0.090
0.192 0.047 0.091
0.188 0.048 0.089
0.183 0.048 0.087
0.180 0.049 0.085
0.177 0.050 0.084
0.175 0.051 0.083
0.175 0.053 0.083
0.177 0.056 0.085
0.175 0.057 0.084
0.174 0.058 0.083
0.175 0.060 0.084
0.175 0.062 0.084
0.178 0.065 0.086
0.180 0.068 0.087
0.179 0.069 0.087
0.178 0.070 0.086
0.177 0.072 0.086
0.174 0.073 0.085
0.172 0.074 0.084
0.176 0.077 0.086
0.176 0.079 0.086
0.176 0.081 0.086
0.176 0.083 0.086
0.174 0.084 0.086
0.159 0.079 0.079
0.156 0.078 0.077
0.154 0.079 0.076
0.157 0.083 0.078
0.169 0.091 0.084
0.170 0.093 0.085
0.174 0.098 0.087
0.173 0.100 0.087
0.173 0.101 0.087
0.173 0.103 0.087
0.173 0.105 0.088
0.174 0.108 0.089
0.173 0.110 0.089
0.171 0.111 0.088
0.172 0.113 0.088
0.171 0.115 0.088
0.170 0.117 0.088
0.169 0.118 0.088
0.169 0.120 0.088
0.170 0.123 0.089
0.171 0.126 0.090
0.164 0.125 0.087
0.164 0.128 0.088
0.168 0.134 0.090
0.168 0.136 0.090
0.167 0.138 0.090
0.160 0.134 0.087
0.163 0.139 0.089
0.166 0.144 0.091
0.166 0.146 0.091
0.162 0.145 0.090
0.164 0.150 0.091
0.167 0.155 0.093
0.164 0.156 0.092
0.166 0.160 0.094
0.159 0.156 0.091
0.158 0.158 0.091
0.157 0.159 0.090
0.156 0.161 0.090
0.155 0.163 0.091
0.156 0.166 0.091
0.155 0.168 0.091
0.154 0.170 0.091
0.152 0.170 0.090
0.151 0.172 0.091
0.151 0.176 0.091
0.151 0.178 0.091
0.151 0.181 0.092
0.150 0.182 0.092
0.150 0.186 0.093
0.150 0.187 0.093
0.148 0.189 0.092
0.126 -0.161 0.078
0.128 -0.161 0.079
0.129 -0.160 0.079
0.127 -0.156 0.078
0.129 -0.155 0.078
0.131 -0.156 0.080
0.131 -0.153 0.079
0.128 -0.148 0.077
0.128 -0.146 0.077
0.129 -0.144 0.077
0.124 -0.137 0.073
0.125 -0.136 0.074
0.125 -0.134 0.073
0.124 -0.131 0.073
0.124 -0.129 0.072
0.123 -0.126 0.071
0.121 -0.122 0.070
0.114 -0.113 0.065
0.112 -0.109 0.064
0.113 -0.108 0.064
0.169 -0.157 0.095
0.177 -0.162 0.099
0.178 -0.160 0.099
0.179 -0.158 0.099
0.180 -0.157 0.099
0.181 -0.155 0.099
0.182 -0.153 0.100
0.181 -0.150 0.099
0.181 -0.148 0.099
0.182 -0.145 0.098
0.182 -0.143 0.098
0.181 -0.140 0.097
0.181 -0.138 0.097
0.180 -0.134 0.096
0.181 -0.133 0.096
0.182 -0.131 0.096
0.181 -0.128 0.095
0.180 -0.125 0.095
0.180 -0.123 0.094
0.180 -0.121 0.094
0.181 -0.119 0.094
0.182 -0.118 0.094
0.182 -0.116 0.094
0.181 -0.113 0.093
0.181 -0.110 0.093
0.181 -0.109 0.093
0.182 -0.107 0.093
0.185 -0.106 0.094
0.184 -0.104 0.093
0.184 -0.102 0.093
0.185 -0.100 0.094
0.187 -0.099 0.094
0.187 -0.097 0.094
0.185 -0.094 0.093
0.186 -0.092 0.093
0.186 -0.090 0.093
0.187 -0.089 0.093
0.187 -0.087 0.093
0.187 -0.085 0.093
0.187 -0.083 0.093
0.186 -0.081 0.092
0.186 -0.079 0.092
0.185 -0.076 0.091
0.186 -0.075 0.092
0.187 -0.073 0.092
0.188 -0.072 0.092
0.187 -0.069 0.092
0.187 -0.068 0.092
0.189 -0.066 0.092
0.188 -0.064 0.092
0.188 -0.062 0.092
0.190 -0.061 0.092
0.190 -0.059 0.092
0.190 -0.057 0.092
0.191 -0.056 0.093
0.188 -0.053 0.091
0.192 -0.052 0.093
0.191 -0.050 0.092
0.187 -0.045 0.090
0.180 -0.042 0.087
0.185 -0.041 0.089
0.187 -0.040 0.090
0.190 -0.039 0.091
0.191 -0.037 0.092
0.191 -0.035 0.092
0.192 -0.034 0.092
0.210 -0.035 0.101
0.211 -0.033 0.101
0.199 -0.029 0.095
0.203 -0.028 0.097
0.214 -0.027 0.102
0.211 -0.025 0.101
0.202 -0.022 0.096
0.180 -0.018 0.086
0.181 -0.016 0.086
0.175 -0.014 0.083
0.165 -0.012 0.079
0.175 -0.011 0.083
0.169 -0.009 0.080
0.167 -0.007 0.079
0.162 -0.005 0.077
0.160 -0.004 0.077
0.166 -0.002 0.079
0.170 -0.001 0.081
0.167 0.001 0.080
0.170 0.002 0.081
0.174 0.004 0.083
0.173 0.006 0.083
0.168 0.007 0.080
0.166 0.009 0.079
0.167 0.010 0.080
0.164 0.012 0.078
0.158 0.013 0.076
0.157 0.014 0.075
0.159 0.016 0.076
0.161 0.018 0.077
0.157 0.019 0.075
0.157 0.020 0.075
0.159 0.022 0.076
0.159 0.023 0.076
0.149 0.023 0.072
0.154 0.026 0.074
0.152 0.027 0.073
0.149 0.028 0.072
0.151 0.029 0.073
0.161 0.033 0.077
0.175 0.038 0.084
0.178 0.040 0.086
0.184 0.043 0.089
0.185 0.045 0.089
0.182 0.046 0.088
0.180 0.048 0.087
0.178 0.049 0.086
0.177 0.050 0.086
0.175 0.051 0.085
0.175 0.053 0.085
0.178 0.056 0.087
0.175 0.057 0.086
0.174 0.058 0.085
0.174 0.060 0.085
0.173 0.062 0.085
0.173 0.063 0.085
0.176 0.066 0.087
0.176 0.068 0.087
0.175 0.069 0.086
0.173 0.071 0.086
0.175 0.073 0.087
0.168 0.072 0.084
0.167 0.074 0.084
0.175 0.079 0.088
0.170 0.079 0.085
0.162 0.077 0.082
0.158 0.076 0.080
0.156 0.077 0.079
0.156 0.079 0.079
0.161 0.083 0.082
0.168 0.089 0.085
0.169 0.091 0.086
0.169 0.093 0.086
0.172 0.097 0.088
0.171 0.099 0.088
0.171 0.100 0.088
0.170 0.102 0.088
0.169 0.103 0.088
0.168 0.105 0.088
0.168 0.107 0.088
0.168 0.109 0.088
0.167 0.110 0.088
0.168 0.113 0.089
0.167 0.115 0.088
0.166 0.116 0.088
0.165 0.118 0.088
0.165 0.120 0.088
0.166 0.123 0.089
0.169 0.127 0.091
0.163 0.125 0.089
0.161 0.126 0.088
0.161 0.129 0.088
0.163 0.132 0.090
0.159 0.132 0.088
0.164 0.138 0.091
0.164 0.140 0.091
0.165 0.143 0.092
0.163 0.145 0.092
0.159 0.144 0.090
0.159 0.146 0.090
0.159 0.148 0.091
0.163 0.155 0.094
0.163 0.158 0.094
0.167 0.165 0.098
0.162 0.162 0.095
0.157 0.160 0.093
0.155 0.160 0.092
0.153 0.162 0.091
0.152 0.162 0.091
0.151 0.165 0.091
0.151 0.167 0.092
0.150 0.169 0.092
0.149 0.171 0.091
0.148 0.173 0.092
0.149 0.176 0.092
0.149 0.178 0.093
0.148 0.180 0.093
0.147 0.182 0.093
0.147 0.184 0.093
0.145 0.185 0.092
0.129 -0.164 0.082
0.131 -0.165 0.082
0.131 -0.162 0.082
0.129 -0.158 0.081
0.130 -0.157 0.081
0.126 -0.151 0.078
0.127 -0.149 0.078
0.129 -0.149 0.079
0.129 -0.147 0.079
0.128 -0.144 0.078
0.128 -0.142 0.078
0.127 -0.139 0.077
0.127 -0.136 0.076
0.125 -0.133 0.075
0.126 -0.131 0.075
0.125 -0.129 0.074
0.125 -0.127 0.074
0.124 -0.123 0.073
0.117 -0.115 0.069
0.174 -0.162 0.100
0.175 -0.161 0.100
0.177 -0.160 0.101
0.177 -0.157 0.100
0.177 -0.155 0.100
0.178 -0.153 0.100
0.178 -0.151 0.100
0.178 -0.148 0.099
0.179 -0.146 0.099
0.180 -0.144 0.100
0.180 -0.142 0.099
0.179 -0.139 0.098
0.178 -0.136 0.097
0.177 -0.133 0.096
0.177 -0.131 0.096
0.179 -0.129 0.097
0.178 -0.126 0.096
0.178 -0.124 0.095
0.179 -0.122 0.096
0.177 -0.119 0.095
0.178 -0.117 0.094
0.178 -0.116 0.095
0.179 -0.114 0.095
0.179 -0.112 0.094
0.179 -0.109 0.094
0.179 -0.108 0.094
0.180 -0.106 0.094
0.180 -0.104 0.094
0.181 -0.102 0.094
0.181 -0.100 0.094
0.181 -0.099 0.094
0.182 -0.097 0.094
0.182 -0.095 0.093
0.182 -0.093 0.093
0.182 -0.091 0.093
0.183 -0.089 0.093
0.181 -0.086 0.092
0.182 -0.085 0.092
0.184 -0.084 0.093
0.185 -0.082 0.094
0.184 -0.080 0.093
0.183 -0.078 0.093
0.183 -0.076 0.092
0.184 -0.074 0.093
0.185 -0.073 0.093
0.185 -0.071 0.093
0.184 -0.068 0.092
0.184 -0.066 0.092
0.184 -0.065 0.092
0.184 -0.063 0.092
0.184 -0.061 0.092
0.185 -0.060 0.092
0.186 -0.058 0.093
0.187 -0.056 0.093
0.186 -0.054 0.092
0.184 -0.052 0.091
0.185 -0.050 0.091
0.189 -0.048 0.093
0.182 -0.044 0.090
0.184 -0.043 0.090
0.185 -0.041 0.091
0.186 -0.040 0.092
0.188 -0.038 0.092
0.188 -0.037 0.092
0.189 -0.035 0.093
0.190 -0.033 0.093
0.206 -0.034 0.101
0.213 -0.033 0.104
0.184 -0.027 0.090
0.187 -0.026 0.091
0.196 -0.025 0.096
0.216 -0.025 0.105
0.209 -0.023 0.102
0.189 -0.019 0.092
0.183 -0.016 0.089
0.179 -0.014 0.087
0.169 -0.012 0.082
0.162 -0.010 0.079
0.164 -0.008 0.080
0.163 -0.007 0.079
0.164 -0.005 0.080
0.163 -0.004 0.080
0.164 -0.002 0.080
0.166 -0.001 0.081
0.170 0.001 0.083
0.170 0.002 0.083
0.173 0.004 0.084
0.169 0.006 0.082
0.164 0.007 0.080
0.161 0.008 0.078
0.163 0.010 0.080
0.161 0.012 0.079
0.159 0.013 0.078
0.156 0.014 0.076
0.160 0.016 0.078
0.159 0.017 0.078
0.155 0.018 0.076
0.153 0.020 0.075
0.159 0.022 0.078
0.156 0.023 0.076
0.156 0.024 0.076
0.155 0.026 0.076
0.155 0.027 0.076
0.154 0.029 0.076
0.150 0.029 0.074
0.151 0.031 0.074
0.165 0.035 0.081
0.172 0.039 0.085
0.173 0.041 0.085
0.178 0.044 0.088
0.177 0.045 0.088
0.175 0.046 0.087
0.176 0.048 0.087
0.176 0.050 0.088
0.176 0.052 0.088
0.175 0.053 0.087
0.175 0.055 0.087
0.175 0.057 0.087
0.174 0.058 0.087
0.174 0.060 0.087
0.172 0.061 0.087
0.171 0.063 0.086
0.172 0.065 0.087
0.173 0.067 0.087
0.172 0.068 0.087
0.176 0.072 0.089
0.174 0.073 0.089
0.166 0.071 0.085
0.166 0.073 0.085
0.169 0.076 0.086
0.165 0.076 0.085
0.152 0.072 0.078
0.151 0.073 0.078
0.156 0.077 0.081
0.163 0.083 0.085
0.166 0.086 0.086
0.167 0.089 0.087
0.167 0.090 0.087
0.167 0.092 0.087
0.168 0.095 0.088
0.168 0.097 0.088
0.168 0.099 0.089
0.167 0.101 0.089
0.167 0.102 0.089
0.166 0.104 0.088
0.166 0.106 0.089
0.165 0.107 0.089
0.165 0.110 0.089
0.165 0.111 0.089
0.165 0.113 0.089
0.164 0.115 0.089
0.163 0.117 0.089
0.162 0.118 0.089
0.161 0.120 0.089
0.162 0.123 0.090
0.164 0.126 0.091
0.160 0.125 0.089
0.158 0.126 0.089
0.157 0.128 0.088
0.157 0.130 0.089
0.160 0.135 0.091
0.163 0.140 0.093
0.163 0.142 0.093
0.162 0.144 0.093
0.157 0.142 0.091
0.156 0.143 0.091
0.158 0.148 0.093
0.158 0.151 0.093
0.159 0.154 0.094
0.159 0.157 0.095
0.161 0.162 0.096
0.157 0.161 0.095
0.154 0.160 0.093
0.152 0.160 0.092
0.150 0.161 0.092
0.149 0.163 0.092
0.149 0.165 0.092
0.148 0.168 0.093
0.147 0.169 0.092
0.146 0.171 0.092
0.148 0.175 0.094
0.146 0.176 0.093
0.145 0.178 0.093
0.146 0.181 0.094
0.145 0.182 0.094
0.131 -0.165 0.084
0.131 -0.163 0.084
0.130 -0.160 0.083
0.126 -0.153 0.080
0.125 -0.149 0.079
0.125 -0.148 0.079
0.128 -0.149 0.080
0.129 -0.147 0.081
0.129 -0.146 0.081
0.129 -0.144 0.080
0.130 -0.142 0.080
0.129 -0.139 0.079
0.129 -0.136 0.079
0.128 -0.134 0.078
0.128 -0.132 0.078
0.128 -0.130 0.077
0.131 -0.131 0.079
0.166 -0.160 0.098
0.169 -0.161 0.100
0.172 -0.161 0.101
0.174 -0.160 0.102
0.174 -0.158 0.102
0.175 -0.156 0.102
0.175 -0.153 0.101
0.175 -0.150 0.100
0.175 -0.148 0.100
0.175 -0.146 0.100
0.176 -0.144 0.100
0.177 -0.143 0.100
0.177 -0.140 0.100
0.177 -0.138 0.099
0.176 -0.135 0.098
0.175 -0.131 0.097
0.175 -0.129 0.097
0.175 -0.127 0.097
0.176 -0.126 0.097
0.176 -0.123 0.096
0.175 -0.120 0.096
0.174 -0.118 0.095
0.174 -0.115 0.095
0.175 -0.114 0.095
0.177 -0.113 0.096
0.177 -0.111 0.095
0.177 -0.109 0.095
0.177 -0.107 0.095
0.177 -0.105 0.095
0.179 -0.103 0.095
0.178 -0.101 0.095
0.179 -0.099 0.095
0.179 -0.098 0.095
0.178 -0.095 0.094
0.178 -0.093 0.094
0.179 -0.091 0.094
0.179 -0.089 0.094
0.178 -0.087 0.093
0.179 -0.086 0.094
0.180 -0.084 0.094
0.181 -0.083 0.094
0.181 -0.081 0.094
0.180 -0.078 0.093
0.180 -0.076 0.093
0.181 -0.075 0.093
0.182 -0.073 0.094
0.183 -0.072 0.094
0.183 -0.070 0.094
0.182 -0.068 0.093
0.181 -0.066 0.093
0.181 -0.064 0.093
0.181 -0.062 0.092
0.181 -0.060 0.092
0.182 -0.059 0.093
0.184 -0.058 0.094
0.185 -0.056 0.094
0.183 -0.054 0.093
0.182 -0.051 0.092
0.191 -0.052 0.096
0.193 -0.051 0.097
0.184 -0.046 0.093
0.185 -0.045 0.093
0.183 -0.043 0.092
0.184 -0.041 0.092
0.185 -0.039 0.093
0.185 -0.038 0.093
0.185 -0.036 0.093
0.187 -0.034 0.093
0.186 -0.033 0.093
0.220 -0.036 0.110
0.221 -0.034 0.110
0.187 -0.027 0.094
0.180 -0.025 0.090
0.193 -0.025 0.096
0.217 -0.026 0.109
0.203 -0.022 0.101
0.175 -0.017 0.087
0.177 -0.016 0.088
0.178 -0.014 0.089
0.173 -0.012 0.086
0.165 -0.010 0.082
0.163 -0.008 0.081
0.165 -0.007 0.082
0.165 -0.005 0.082
0.165 -0.004 0.082
0.165 -0.002 0.082
0.162 -0.001 0.080
0.164 0.001 0.082
0.167 0.002 0.083
0.165 0.004 0.082
0.161 0.005 0.080
0.162 0.007 0.081
0.163 0.009 0.081
0.164 0.010 0.082
0.161 0.012 0.080
0.158 0.013 0.079
0.157 0.014 0.078
0.159 0.016 0.079
0.158 0.017 0.079
0.156 0.019 0.078
0.155 0.020 0.078
0.165 0.023 0.083
0.153 0.023 0.077
0.152 0.024 0.076
0.154 0.026 0.077
0.154 0.027 0.077
0.153 0.029 0.077
0.151 0.030 0.076
0.150 0.031 0.076
0.158 0.034 0.079
0.167 0.038 0.084
0.172 0.040 0.087
0.169 0.042 0.086
0.170 0.043 0.086
0.166 0.044 0.084
0.172 0.047 0.087
0.175 0.050 0.089
0.175 0.052 0.089
0.174 0.053 0.089
0.173 0.055 0.088
0.173 0.056 0.088
0.173 0.058 0.088
0.172 0.059 0.088
0.170 0.061 0.087
0.170 0.062 0.087
0.170 0.064 0.088
0.170 0.066 0.088
0.176 0.070 0.091
0.177 0.072 0.092
0.174 0.073 0.091
0.169 0.073 0.088
0.160 0.071 0.083
0.156 0.071 0.081
0.148 0.069 0.077
0.146 0.069 0.077
0.151 0.073 0.079
0.160 0.079 0.084
0.164 0.083 0.087
0.165 0.086 0.087
0.165 0.088 0.088
0.165 0.090 0.088
0.165 0.091 0.088
0.164 0.093 0.088
0.166 0.096 0.089
0.165 0.098 0.089
0.164 0.099 0.089
0.163 0.100 0.089
0.164 0.103 0.089
0.163 0.104 0.089
0.163 0.106 0.089
0.162 0.108 0.089
0.163 0.110 0.090
0.162 0.112 0.090
0.161 0.114 0.090
0.160 0.115 0.089
0.160 0.117 0.090
0.159 0.118 0.089
0.158 0.120 0.089
0.161 0.124 0.092
0.159 0.125 0.091
0.157 0.126 0.090
0.156 0.127 0.090
0.155 0.129 0.090
0.156 0.132 0.091
0.159 0.137 0.093
0.160 0.140 0.094
0.158 0.141 0.093
0.153 0.139 0.091
0.152 0.140 0.091
0.154 0.145 0.092
0.157 0.150 0.095
0.154 0.150 0.093
0.152 0.151 0.093
0.150 0.154 0.093
0.153 0.160 0.095
0.151 0.160 0.094
0.151 0.163 0.095
0.148 0.163 0.094
0.147 0.164 0.093
0.147 0.167 0.094
0.144 0.166 0.093
0.143 0.167 0.092
0.147 0.174 0.095
0.147 0.178 0.096
0.145 0.178 0.095
0.145 0.180 0.095
0.142 0.179 0.094
0.128 -0.161 0.084
0.129 -0.161 0.084
0.129 -0.158 0.084
0.127 -0.154 0.082
0.126 -0.151 0.082
0.127 -0.150 0.082
0.129 -0.151 0.083
0.130 -0.150 0.083
0.131 -0.149 0.084
0.130 -0.145 0.082
0.129 -0.141 0.081
0.129 -0.140 0.081
0.130 -0.138 0.081
0.132 -0.138 0.082
0.130 -0.135 0.081
0.137 -0.139 0.084
0.162 -0.159 0.099
0.166 -0.161 0.101
0.168 -0.160 0.101
0.169 -0.159 0.102
0.170 -0.157 0.102
0.171 -0.155 0.102
0.171 -0.153 0.102
0.172 -0.151 0.101
0.172 -0.149 0.101
0.172 -0.146 0.101
0.173 -0.144 0.101
0.173 -0.142 0.101
0.174 -0.140 0.100
0.174 -0.138 0.100
0.174 -0.135 0.100
0.172 -0.132 0.098
0.172 -0.130 0.098
0.172 -0.128 0.098
0.173 -0.126 0.098
0.172 -0.123 0.097
0.172 -0.121 0.097
0.172 -0.119 0.096
0.172 -0.117 0.096
0.173 -0.115 0.096
0.173 -0.113 0.096
0.174 -0.111 0.096
0.175 -0.110 0.096
0.175 -0.108 0.096
0.174 -0.105 0.095
0.175 -0.103 0.095
0.175 -0.102 0.096
0.175 -0.100 0.095
0.176 -0.098 0.095
0.175 -0.096 0.095
0.174 -0.093 0.094
0.175 -0.092 0.094
0.175 -0.090 0.094
0.175 -0.088 0.094
0.176 -0.086 0.094
0.178 -0.085 0.095
0.178 -0.083 0.094
0.178 -0.081 0.094
0.177 -0.079 0.094
0.176 -0.077 0.093
0.177 -0.075 0.093
0.178 -0.074 0.094
0.179 -0.072 0.094
0.179 -0.070 0.094
0.179 -0.069 0.094
0.179 -0.067 0.094
0.179 -0.065 0.093
0.178 -0.063 0.093
0.179 -0.061 0.093
0.178 -0.059 0.093
0.179 -0.058 0.093
0.183 -0.057 0.095
0.179 -0.054 0.093
0.181 -0.053 0.094
0.181 -0.051 0.093
0.194 -0.053 0.100
0.184 -0.048 0.095
0.182 -0.046 0.094
0.180 -0.044 0.092
0.181 -0.042 0.093
0.182 -0.041 0.093
0.182 -0.039 0.093
0.182 -0.037 0.093
0.182 -0.035 0.093
0.182 -0.034 0.093
0.181 -0.032 0.092
0.210 -0.035 0.107
0.217 -0.034 0.111
0.165 -0.023 0.084
0.165 -0.021 0.084
0.203 -0.024 0.104
0.208 -0.023 0.106
0.176 -0.017 0.090
0.168 -0.015 0.086
0.170 -0.014 0.087
0.175 -0.012 0.089
0.167 -0.010 0.085
0.166 -0.009 0.084
0.165 -0.007 0.084
0.165 -0.005 0.084
0.168 -0.004 0.085
0.163 -0.002 0.083
0.158 -0.001 0.081
0.158 0.001 0.080
0.159 0.002 0.081
0.163 0.004 0.083
0.162 0.005 0.082
0.159 0.007 0.081
0.161 0.009 0.082
0.164 0.010 0.083
0.158 0.011 0.081
0.156 0.013 0.079
0.157 0.014 0.080
0.158 0.016 0.080
0.157 0.017 0.080
0.157 0.019 0.080
0.159 0.021 0.081
0.153 0.021 0.078
0.151 0.022 0.077
0.156 0.025 0.080
0.152 0.026 0.078
0.151 0.027 0.078
0.151 0.028 0.078
0.150 0.030 0.077
0.153 0.032 0.078
0.156 0.034 0.080
0.166 0.038 0.086
0.168 0.040 0.087
0.166 0.041 0.086
0.165 0.042 0.085
0.164 0.044 0.085
0.163 0.045 0.084
0.162 0.046 0.084
0.163 0.048 0.085
0.168 0.051 0.087
0.172 0.054 0.090
0.171 0.056 0.089
0.170 0.057 0.089
0.169 0.059 0.089
0.169 0.060 0.088
0.169 0.062 0.089
0.169 0.064 0.089
0.176 0.068 0.093
0.173 0.069 0.092
0.174 0.071 0.092
0.172 0.073 0.091
0.164 0.071 0.087
0.154 0.068 0.082
0.145 0.066 0.077
0.144 0.067 0.077
0.149 0.071 0.080
0.159 0.077 0.085
0.161 0.080 0.087
0.162 0.083 0.088
0.162 0.085 0.088
0.162 0.086 0.088
0.162 0.088 0.088
0.162 0.090 0.088
0.161 0.091 0.088
0.161 0.093 0.089
0.161 0.095 0.089
0.161 0.097 0.089
0.161 0.099 0.089
0.160 0.101 0.089
0.160 0.103 0.089
0.159 0.104 0.089
0.159 0.106 0.089
0.160 0.109 0.090
0.159 0.110 0.090
0.158 0.111 0.090
0.157 0.113 0.090
0.156 0.114 0.089
0.156 0.116 0.090
0.155 0.118 0.090
0.155 0.120 0.090
0.158 0.125 0.092
0.157 0.126 0.092
0.155 0.127 0.091
0.153 0.128 0.091
0.155 0.131 0.092
0.156 0.135 0.093
0.154 0.135 0.092
0.152 0.136 0.092
0.149 0.136 0.090
0.146 0.135 0.089
0.149 0.141 0.092
0.150 0.144 0.093
0.151 0.147 0.093
0.146 0.145 0.091
0.147 0.152 0.093
0.150 0.157 0.095
0.151 0.161 0.096
0.149 0.161 0.095
0.146 0.161 0.094
0.137 0.154 0.089
0.140 0.159 0.091
0.148 0.170 0.097
0.152 0.178 0.100
0.151 0.179 0.100
0.143 0.174 0.096
0.140 0.171 0.093
0.139 0.173 0.093
0.127 -0.158 0.085
0.128 -0.158 0.085
0.129 -0.157 0.085
0.129 -0.155 0.085
0.129 -0.152 0.085
0.129 -0.151 0.085
0.130 -0.150 0.085
0.131 -0.149 0.085
0.131 -0.146 0.085
0.129 -0.142 0.083
0.128 -0.138 0.082
0.132 -0.141 0.084
0.131 -0.138 0.083
0.137 -0.142 0.087
0.159 -0.162 0.100
0.161 -0.161 0.101
0.164 -0.162 0.102
0.165 -0.161 0.102
0.166 -0.159 0.103
0.167 -0.157 0.102
0.168 -0.155 0.102
0.168 -0.153 0.102
0.169 -0.151 0.102
0.170 -0.150 0.103
0.170 -0.147 0.102
0.169 -0.144 0.101
0.170 -0.143 0.102
0.172 -0.141 0.102
0.172 -0.139 0.102
0.171 -0.136 0.101
0.171 -0.134 0.100
0.170 -0.131 0.100
0.169 -0.128 0.098
0.170 -0.126 0.098
0.170 -0.124 0.098
0.170 -0.122 0.098
0.170 -0.120 0.098
0.170 -0.117 0.097
0.170 -0.115 0.097
0.171 -0.114 0.097
0.173 -0.113 0.098
0.171 -0.110 0.097
0.172 -0.108 0.097
0.170 -0.105 0.095
0.171 -0.104 0.096
0.172 -0.102 0.096
0.172 -0.100 0.096
0.172 -0.098 0.095
0.171 -0.096 0.095
0.171 -0.094 0.094
0.172 -0.092 0.095
0.173 -0.091 0.095
0.173 -0.089 0.095
0.173 -0.087 0.094
0.173 -0.085 0.094
0.173 -0.083 0.094
0.174 -0.082 0.095
0.175 -0.080 0.095
0.175 -0.078 0.094
0.174 -0.076 0.094
0.174 -0.074 0.094
0.175 -0.073 0.094
0.176 -0.071 0.094
0.176 -0.069 0.094
0.176 -0.068 0.094
0.177 -0.066 0.094
0.177 -0.064 0.094
0.177 -0.063 0.094
0.176 -0.061 0.094
0.176 -0.059 0.094
0.178 -0.058 0.094
0.177 -0.055 0.093
0.177 -0.054 0.094
0.178 -0.052 0.094
0.186 -0.053 0.098
0.186 -0.051 0.098
0.178 -0.047 0.094
0.177 -0.045 0.093
0.178 -0.043 0.094
0.179 -0.042 0.094
0.180 -0.040 0.094
0.180 -0.039 0.094
0.178 -0.037 0.093
0.179 -0.035 0.093
0.178 -0.033 0.093
0.179 -0.031 0.093
0.186 -0.031 0.097
0.201 -0.031 0.105
0.191 -0.028 0.100
0.169 -0.023 0.088
0.169 -0.022 0.088
0.177 -0.018 0.092
0.169 -0.015 0.088
0.166 -0.013 0.086
0.164 -0.012 0.085
0.167 -0.010 0.087
0.165 -0.009 0.086
0.163 -0.007 0.084
0.166 -0.005 0.086
0.163 -0.004 0.085
0.160 -0.002 0.083
0.158 -0.001 0.082
0.157 0.001 0.082
0.157 0.002 0.082
0.168 0.004 0.087
0.167 0.006 0.087
0.161 0.007 0.084
0.161 0.009 0.084
0.160 0.010 0.083
0.156 0.011 0.081
0.156 0.013 0.081
0.156 0.014 0.081
0.154 0.016 0.080
0.154 0.017 0.080
0.155 0.019 0.081
0.153 0.020 0.080
0.153 0.021 0.080
0.155 0.023 0.081
0.156 0.025 0.081
0.154 0.026 0.081
0.147 0.026 0.077
0.145 0.027 0.076
0.152 0.030 0.080
0.152 0.031 0.080
0.155 0.034 0.081
0.164 0.037 0.086
0.167 0.040 0.088
0.167 0.041 0.088
0.165 0.042 0.087
0.165 0.044 0.087
0.162 0.045 0.086
0.163 0.047 0.086
0.162 0.048 0.086
0.161 0.050 0.086
0.159 0.051 0.085
0.159 0.052 0.085
0.164 0.056 0.088
0.166 0.058 0.089
0.167 0.060 0.089
0.169 0.062 0.091
0.172 0.065 0.092
0.169 0.066 0.091
0.165 0.066 0.089
0.165 0.068 0.089
0.165 0.070 0.089
0.157 0.068 0.085
0.149 0.066 0.081
0.145 0.066 0.079
0.150 0.070 0.082
0.154 0.073 0.084
0.159 0.078 0.087
0.159 0.080 0.088
0.160 0.082 0.088
0.160 0.084 0.089
0.160 0.086 0.089
0.159 0.087 0.089
0.158 0.088 0.088
0.158 0.090 0.089
0.158 0.092 0.089
0.158 0.094 0.089
0.158 0.096 0.089
0.158 0.098 0.090
0.157 0.099 0.090
0.157 0.101 0.090
0.157 0.103 0.090
0.156 0.104 0.090
0.156 0.106 0.090
0.156 0.108 0.090
0.155 0.110 0.090
0.154 0.111 0.090
0.153 0.113 0.090
0.153 0.115 0.090
0.152 0.116 0.090
0.152 0.118 0.090
0.152 0.121 0.091
0.161 0.130 0.097
0.156 0.128 0.094
0.154 0.129 0.093
0.154 0.131 0.094
0.152 0.132 0.093
0.151 0.133 0.093
0.148 0.133 0.091
0.146 0.134 0.091
0.144 0.134 0.090
0.144 0.136 0.090
0.147 0.141 0.092
0.145 0.142 0.092
0.139 0.139 0.089
0.143 0.145 0.091
0.148 0.153 0.096
0.149 0.156 0.096
0.146 0.156 0.095
0.146 0.159 0.096
0.143 0.158 0.094
0.144 0.162 0.095
0.144 0.164 0.096
0.149 0.173 0.100
0.152 0.178 0.102
0.150 0.179 0.101
0.143 0.173 0.097
0.137 0.169 0.094
0.136 0.170 0.093
0.128 -0.160 0.087
0.128 -0.158 0.087
0.129 -0.158 0.088
0.129 -0.155 0.087
0.129 -0.153 0.087
0.129 -0.150 0.086
0.127 -0.146 0.084
0.129 -0.146 0.085
0.131 -0.147 0.086
0.132 -0.145 0.087
0.133 -0.144 0.087
0.141 -0.151 0.092
0.153 -0.161 0.099
0.159 -0.165 0.103
0.160 -0.164 0.103
0.162 -0.163 0.103
0.163 -0.162 0.104
0.163 -0.159 0.103
0.161 -0.155 0.102
0.165 -0.156 0.104
0.166 -0.154 0.104
0.166 -0.152 0.103
0.166 -0.149 0.103
0.166 -0.147 0.103
0.165 -0.144 0.102
0.167 -0.143 0.102
0.169 -0.142 0.102
0.170 -0.140 0.103
0.169 -0.138 0.102
0.169 -0.135 0.102
0.169 -0.132 0.101
0.167 -0.129 0.099
0.167 -0.127 0.099
0.168 -0.125 0.099
0.168 -0.123 0.099
0.168 -0.121 0.099
0.168 -0.118 0.098
0.167 -0.116 0.097
0.168 -0.114 0.098
0.168 -0.112 0.097
0.168 -0.110 0.097
0.168 -0.108 0.097
0.168 -0.106 0.097
0.167 -0.104 0.096
0.168 -0.102 0.096
0.169 -0.101 0.096
0.169 -0.099 0.096
0.168 -0.096 0.095
0.168 -0.094 0.095
0.169 -0.093 0.095
0.169 -0.091 0.095
0.170 -0.089 0.095
0.170 -0.088 0.095
0.171 -0.086 0.095
0.170 -0.084 0.095
0.170 -0.082 0.094
0.171 -0.080 0.095
0.172 -0.079 0.095
0.173 -0.078 0.095
0.172 -0.076 0.095
0.172 -0.073 0.094
0.172 -0.072 0.094
0.172 -0.070 0.094
0.173 -0.069 0.095
0.174 -0.067 0.095
0.174 -0.065 0.095
0.173 -0.063 0.094
0.175 -0.062 0.095
0.174 -0.060 0.094
0.174 -0.058 0.094
0.175 -0.057 0.095
0.175 -0.055 0.094
0.175 -0.053 0.095
0.176 -0.052 0.095
0.184 -0.052 0.099
0.178 -0.049 0.096
0.174 -0.046 0.094
0.175 -0.045 0.094
0.176 -0.043 0.094
0.178 -0.042 0.095
0.178 -0.040 0.095
0.175 -0.038 0.093
0.175 -0.036 0.093
0.176 -0.034 0.094
0.176 -0.033 0.094
0.177 -0.031 0.094
0.183 -0.031 0.098
0.198 -0.031 0.105
0.195 -0.029 0.104
0.172 -0.024 0.091
0.172 -0.022 0.091
0.172 -0.020 0.092
0.207 -0.023 0.110
0.191 -0.019 0.101
0.173 -0.016 0.092
0.168 -0.013 0.089
0.165 -0.012 0.087
0.162 -0.010 0.086
0.162 -0.008 0.086
0.164 -0.007 0.087
0.160 -0.005 0.085
0.159 -0.004 0.084
0.157 -0.002 0.083
0.156 -0.001 0.083
0.155 0.001 0.082
0.159 0.002 0.084
0.169 0.004 0.090
0.164 0.006 0.087
0.160 0.007 0.085
0.159 0.008 0.084
0.157 0.010 0.083
0.158 0.011 0.084
0.158 0.013 0.084
0.155 0.014 0.082
0.151 0.015 0.080
0.156 0.017 0.083
0.154 0.019 0.082
0.151 0.020 0.080
0.155 0.022 0.082
0.156 0.023 0.083
0.157 0.025 0.084
0.153 0.026 0.081
0.147 0.026 0.079
0.148 0.028 0.079
0.150 0.030 0.080
0.150 0.031 0.081
0.153 0.033 0.082
0.163 0.037 0.088
0.165 0.039 0.089
0.165 0.041 0.089
0.166 0.043 0.089
0.165 0.044 0.089
0.164 0.046 0.089
0.163 0.047 0.088
0.162 0.048 0.088
0.159 0.049 0.087
0.159 0.051 0.086
0.157 0.052 0.086
0.157 0.053 0.085
0.153 0.053 0.083
0.154 0.055 0.084
0.168 0.062 0.092
0.165 0.063 0.091
0.163 0.064 0.089
0.160 0.064 0.088
0.158 0.065 0.087
0.153 0.065 0.085
0.146 0.063 0.081
0.144 0.064 0.080
0.150 0.068 0.084
0.156 0.073 0.087
0.157 0.075 0.088
0.158 0.077 0.088
0.157 0.079 0.089
0.157 0.081 0.089
0.158 0.083 0.089
0.158 0.085 0.090
0.157 0.086 0.089
0.156 0.087 0.089
0.156 0.089 0.089
0.156 0.091 0.089
0.156 0.093 0.089
0.155 0.094 0.089
0.156 0.096 0.090
0.155 0.098 0.090
0.154 0.100 0.090
0.155 0.102 0.091
0.154 0.103 0.090
0.153 0.104 0.090
0.153 0.107 0.090
0.152 0.108 0.090
0.152 0.110 0.090
0.151 0.112 0.091
0.150 0.113 0.090
0.150 0.115 0.091
0.150 0.117 0.091
0.150 0.119 0.091
0.149 0.120 0.091
0.160 0.132 0.098
0.157 0.132 0.097
0.151 0.129 0.094
0.150 0.130 0.093
0.149 0.132 0.093
0.146 0.132 0.092
0.143 0.132 0.091
0.142 0.133 0.091
0.143 0.136 0.092
0.143 0.139 0.092
0.142 0.140 0.092
0.136 0.136 0.088
0.141 0.144 0.092
0.145 0.151 0.096
0.145 0.153 0.096
0.143 0.154 0.095
0.138 0.150 0.092
0.139 0.154 0.094
0.143 0.162 0.097
0.146 0.167 0.099
0.144 0.168 0.099
0.146 0.172 0.100
0.147 0.176 0.102
0.149 0.181 0.103
0.144 0.178 0.100
0.127 -0.158 0.088
0.126 -0.154 0.087
0.126 -0.152 0.087
0.127 -0.152 0.087
0.127 -0.149 0.087
0.128 -0.147 0.087
0.127 -0.145 0.086
0.130 -0.146 0.087
0.134 -0.149 0.090
0.155 -0.169 0.104
0.156 -0.167 0.104
0.158 -0.167 0.105
0.159 -0.165 0.105
0.160 -0.164 0.105
0.161 -0.163 0.105
0.162 -0.161 0.105
0.161 -0.157 0.104
0.160 -0.154 0.103
0.163 -0.154 0.105
0.165 -0.153 0.105
0.164 -0.150 0.104
0.164 -0.148 0.104
0.164 -0.145 0.103
0.165 -0.144 0.103
0.165 -0.142 0.103
0.167 -0.140 0.103
0.167 -0.138 0.103
0.167 -0.136 0.103
0.166 -0.133 0.102
0.165 -0.130 0.101
0.164 -0.127 0.100
0.164 -0.125 0.100
0.165 -0.123 0.099
0.165 -0.121 0.099
0.166 -0.119 0.099
0.165 -0.116 0.098
0.164 -0.114 0.098
0.164 -0.112 0.098
0.164 -0.110 0.097
0.166 -0.109 0.098
0.166 -0.107 0.097
0.166 -0.105 0.097
0.166 -0.103 0.097
0.166 -0.101 0.097
0.167 -0.099 0.097
0.167 -0.097 0.097
0.166 -0.095 0.096
0.166 -0.093 0.096
0.167 -0.092 0.096
0.166 -0.090 0.095
0.167 -0.088 0.095
0.168 -0.087 0.096
0.168 -0.085 0.096
0.168 -0.083 0.096
0.168 -0.081 0.095
0.168 -0.079 0.095
0.168 -0.078 0.095
0.170 -0.077 0.096
0.169 -0.074 0.095
0.169 -0.073 0.095
0.169 -0.071 0.095
0.170 -0.069 0.095
0.168 -0.067 0.094
0.169 -0.065 0.094
0.171 -0.064 0.095
0.171 -0.063 0.095
0.171 -0.061 0.095
0.171 -0.059 0.095
0.170 -0.057 0.094
0.169 -0.055 0.094
0.172 -0.054 0.095
0.173 -0.053 0.095
0.176 -0.052 0.097
0.183 -0.052 0.100
0.180 -0.049 0.099
0.168 -0.044 0.092
0.171 -0.044 0.094
0.172 -0.042 0.094
0.173 -0.041 0.094
0.172 -0.039 0.094
0.172 -0.037 0.094
0.173 -0.036 0.094
0.174 -0.034 0.095
0.174 -0.032 0.094
0.174 -0.031 0.094
0.179 -0.030 0.097
0.198 -0.031 0.108
0.199 -0.029 0.108
0.177 -0.024 0.096
0.171 -0.022 0.093
0.170 -0.020 0.092
0.178 -0.019 0.097
0.181 -0.016 0.098
0.174 -0.014 0.094
0.168 -0.012 0.091
0.166 -0.010 0.090
0.166 -0.009 0.090
0.163 -0.007 0.088
0.162 -0.005 0.087
0.159 -0.004 0.086
0.158 -0.002 0.086
0.157 -0.001 0.085
0.157 0.001 0.085
0.160 0.002 0.087
0.161 0.004 0.087
0.159 0.005 0.086
0.156 0.007 0.084
0.156 0.008 0.085
0.156 0.010 0.085
0.159 0.012 0.086
0.159 0.013 0.086
0.156 0.014 0.084
0.155 0.016 0.084
0.156 0.017 0.084
0.157 0.019 0.085
0.154 0.020 0.084
0.157 0.022 0.086
0.157 0.024 0.086
0.151 0.024 0.082
0.150 0.025 0.082
0.152 0.027 0.083
0.151 0.029 0.083
0.150 0.030 0.082
0.148 0.031 0.081
0.155 0.034 0.085
0.163 0.037 0.089
0.164 0.039 0.090
0.162 0.040 0.089
0.164 0.042 0.090
0.164 0.044 0.090
0.163 0.045 0.090
0.163 0.047 0.090
0.163 0.049 0.090
0.161 0.050 0.089
0.160 0.051 0.089
0.158 0.052 0.088
0.155 0.053 0.086
0.159 0.056 0.089
0.162 0.058 0.090
0.160 0.059 0.089
0.161 0.061 0.090
0.160 0.063 0.090
0.158 0.064 0.089
0.156 0.064 0.088
0.146 0.062 0.082
0.143 0.062 0.081
0.153 0.068 0.087
0.154 0.071 0.088
0.155 0.073 0.088
0.156 0.075 0.089
0.156 0.077 0.089
0.156 0.078 0.089
0.155 0.080 0.089
0.155 0.082 0.090
0.155 0.083 0.090
0.154 0.085 0.089
0.154 0.087 0.090
0.154 0.088 0.090
0.153 0.090 0.090
0.153 0.092 0.090
0.153 0.093 0.090
0.152 0.095 0.090
0.153 0.097 0.091
0.151 0.098 0.090
0.153 0.101 0.092
0.152 0.102 0.091
0.151 0.103 0.091
0.150 0.105 0.091
0.150 0.107 0.091
0.149 0.108 0.091
0.147 0.109 0.090
0.147 0.111 0.090
0.148 0.114 0.091
0.148 0.116 0.091
0.147 0.117 0.091
0.146 0.119 0.091
0.146 0.121 0.092
0.155 0.131 0.098
0.150 0.129 0.095
0.146 0.128 0.093
0.146 0.130 0.094
0.144 0.130 0.092
0.142 0.130 0.092
0.143 0.134 0.093
0.143 0.137 0.094
0.141 0.137 0.093
0.137 0.135 0.091
0.137 0.138 0.091
0.139 0.142 0.093
0.141 0.147 0.095
0.143 0.152 0.097
0.139 0.150 0.095
0.138 0.151 0.094
0.138 0.153 0.095
0.138 0.156 0.095
0.137 0.157 0.095
0.135 0.157 0.094
0.138 0.163 0.097
0.142 0.171 0.100
0.147 0.179 0.104
0.152 0.188 0.108
0.126 -0.154 0.089
0.125 -0.151 0.088
0.125 -0.149 0.088
0.128 -0.151 0.089
0.132 -0.153 0.092
0.139 -0.159 0.096
0.148 -0.167 0.102
0.153 -0.170 0.105
0.154 -0.169 0.105
0.156 -0.168 0.106
0.157 -0.167 0.106
0.157 -0.165 0.106
0.158 -0.163 0.106
0.159 -0.161 0.106
0.159 -0.159 0.106
0.159 -0.156 0.105
0.159 -0.154 0.105
0.161 -0.153 0.105
0.162 -0.151 0.105
0.162 -0.149 0.105
0.163 -0.147 0.105
0.163 -0.145 0.105
0.163 -0.143 0.105
0.164 -0.141 0.105
0.163 -0.138 0.104
0.163 -0.136 0.103
0.163 -0.133 0.103
0.163 -0.131 0.102
0.163 -0.129 0.102
0.163 -0.127 0.101
0.162 -0.124 0.101
0.163 -0.122 0.100
0.163 -0.120 0.100
0.163 -0.117 0.100
0.162 -0.115 0.099
0.162 -0.113 0.099
0.163 -0.111 0.098
0.163 -0.109 0.098
0.163 -0.107 0.098
0.163 -0.105 0.098
0.164 -0.104 0.098
0.164 -0.102 0.098
0.164 -0.100 0.098
0.164 -0.098 0.097
0.164 -0.096 0.097
0.164 -0.094 0.096
0.164 -0.092 0.096
0.164 -0.091 0.096
0.164 -0.089 0.096
0.164 -0.087 0.096
0.165 -0.085 0.096
0.166 -0.084 0.096
0.166 -0.082 0.096
0.165 -0.080 0.095
0.165 -0.078 0.095
0.166 -0.077 0.096
0.166 -0.075 0.095
0.167 -0.073 0.096
0.166 -0.071 0.095
0.166 -0.070 0.095
0.165 -0.067 0.094
0.165 -0.066 0.094
0.167 -0.065 0.095
0.168 -0.064 0.096
0.169 -0.062 0.096
0.169 -0.060 0.095
0.168 -0.058 0.095
0.167 -0.056 0.094
0.169 -0.055 0.095
0.167 -0.053 0.094
0.167 -0.051 0.094
0.180 -0.053 0.101
0.183 -0.052 0.102
0.180 -0.050 0.101
0.165 -0.044 0.092
0.167 -0.043 0.093
0.169 -0.041 0.094
0.170 -0.040 0.095
0.170 -0.038 0.095
0.169 -0.037 0.094
0.170 -0.035 0.095
0.170 -0.033 0.094
0.170 -0.032 0.094
0.171 -0.030 0.095
0.172 -0.029 0.095
0.200 -0.031 0.110
0.198 -0.029 0.110
0.173 -0.024 0.096
0.169 -0.022 0.093
0.170 -0.020 0.094
0.165 -0.018 0.091
0.180 -0.018 0.099
0.178 -0.016 0.098
0.176 -0.014 0.097
0.171 -0.012 0.094
0.171 -0.011 0.094
0.170 -0.009 0.094
0.164 -0.007 0.091
0.159 -0.005 0.088
0.161 -0.004 0.089
0.160 -0.002 0.088
0.157 -0.001 0.087
0.155 0.001 0.086
0.157 0.002 0.087
0.155 0.004 0.085
0.155 0.005 0.085
0.154 0.007 0.085
0.154 0.008 0.085
0.155 0.010 0.086
0.155 0.011 0.085
0.155 0.013 0.086
0.156 0.014 0.086
0.154 0.016 0.085
0.153 0.017 0.085
0.155 0.019 0.086
0.156 0.020 0.087
0.157 0.022 0.087
0.154 0.023 0.085
0.149 0.024 0.082
0.146 0.025 0.081
0.152 0.027 0.085
0.153 0.029 0.085
0.149 0.030 0.083
0.149 0.031 0.083
0.152 0.033 0.085
0.162 0.037 0.091
0.160 0.038 0.090
0.160 0.040 0.089
0.160 0.041 0.090
0.161 0.043 0.090
0.159 0.044 0.089
0.161 0.046 0.091
0.160 0.048 0.090
0.160 0.050 0.091
0.159 0.051 0.090
0.158 0.052 0.089
0.161 0.055 0.091
0.161 0.056 0.091
0.159 0.057 0.091
0.158 0.059 0.090
0.157 0.060 0.090
0.157 0.062 0.090
0.151 0.061 0.087
0.150 0.062 0.086
0.135 0.058 0.078
0.148 0.064 0.085
0.151 0.068 0.088
0.154 0.071 0.089
0.154 0.072 0.089
0.154 0.074 0.090
0.154 0.076 0.090
0.154 0.078 0.090
0.153 0.079 0.090
0.153 0.081 0.090
0.153 0.083 0.091
0.153 0.084 0.091
0.152 0.086 0.090
0.152 0.088 0.091
0.151 0.089 0.090
0.151 0.091 0.091
0.152 0.093 0.091
0.153 0.096 0.092
0.156 0.100 0.095
0.159 0.103 0.097
0.153 0.101 0.093
0.150 0.102 0.092
0.149 0.103 0.091
0.150 0.105 0.092
0.149 0.107 0.092
0.147 0.107 0.091
0.146 0.108 0.091
0.145 0.110 0.091
0.146 0.113 0.092
0.146 0.114 0.092
0.145 0.116 0.092
0.145 0.118 0.093
0.144 0.120 0.093
0.144 0.121 0.093
0.141 0.122 0.092
0.144 0.126 0.094
0.143 0.127 0.093
0.141 0.128 0.093
0.141 0.130 0.093
0.141 0.133 0.094
0.141 0.135 0.094
0.138 0.134 0.093
0.135 0.134 0.091
0.134 0.135 0.091
0.134 0.137 0.091
0.137 0.143 0.094
0.137 0.145 0.095
0.138 0.148 0.096
0.136 0.149 0.095
0.135 0.151 0.095
0.138 0.156 0.097
0.134 0.154 0.095
0.130 0.153 0.093
0.131 0.155 0.094
0.136 0.164 0.098
0.140 0.172 0.101
0.126 -0.154 0.090
0.126 -0.152 0.090
0.126 -0.151 0.090
0.130 -0.153 0.092
0.141 -0.164 0.100
0.145 -0.166 0.102
0.150 -0.170 0.105
0.151 -0.169 0.106
0.154 -0.168 0.107
0.155 -0.167 0.107
0.155 -0.165 0.107
0.155 -0.162 0.106
0.156 -0.161 0.106
0.157 -0.159 0.107
0.157 -0.157 0.107
0.157 -0.155 0.106
0.158 -0.153 0.106
0.158 -0.151 0.106
0.159 -0.149 0.106
0.160 -0.148 0.106
0.161 -0.146 0.106
0.161 -0.144 0.106
0.161 -0.142 0.105
0.161 -0.139 0.105
0.160 -0.136 0.104
0.161 -0.134 0.104
0.161 -0.132 0.103
0.161 -0.130 0.103
0.162 -0.128 0.103
0.162 -0.126 0.103
0.161 -0.123 0.102
0.159 -0.120 0.100
0.160 -0.118 0.101
0.161 -0.116 0.100
0.160 -0.114 0.100
0.160 -0.112 0.100
0.161 -0.110 0.099
0.161 -0.109 0.099
0.161 -0.107 0.099
0.160 -0.104 0.098
0.161 -0.102 0.098
0.162 -0.101 0.099
0.161 -0.099 0.098
0.161 -0.097 0.098
0.161 -0.095 0.097
0.161 -0.093 0.097
0.162 -0.092 0.097
0.163 -0.090 0.097
0.163 -0.088 0.097
0.163 -0.086 0.097
0.163 -0.085 0.097
0.163 -0.083 0.096
0.162 -0.081 0.096
0.163 -0.079 0.096
0.163 -0.077 0.096
0.164 -0.076 0.096
0.164 -0.074 0.096
0.164 -0.072 0.096
0.164 -0.071 0.096
0.162 -0.068 0.095
0.163 -0.067 0.095
0.164 -0.065 0.095
0.165 -0.064 0.096
0.167 -0.063 0.097
0.166 -0.061 0.096
0.166 -0.059 0.096
0.165 -0.057 0.095
0.165 -0.056 0.095
0.166 -0.054 0.095
0.166 -0.052 0.095
0.166 -0.051 0.095
0.171 -0.051 0.098
0.180 -0.051 0.103
0.179 -0.049 0.102
0.163 -0.043 0.093
0.164 -0.042 0.094
0.166 -0.041 0.094
0.166 -0.039 0.095
0.167 -0.038 0.095
0.166 -0.036 0.094
0.166 -0.034 0.094
0.167 -0.033 0.095
0.168 -0.031 0.095
0.168 -0.030 0.095
0.168 -0.028 0.095
0.197 -0.031 0.111
0.196 -0.029 0.111
0.166 -0.023 0.094
0.165 -0.021 0.093
0.164 -0.020 0.093
0.164 -0.018 0.092
0.163 -0.016 0.092
0.184 -0.017 0.104
0.172 -0.014 0.097
0.174 -0.012 0.098
0.180 -0.011 0.101
0.176 -0.009 0.099
0.160 -0.007 0.090
0.160 -0.005 0.090
0.162 -0.004 0.091
0.160 -0.002 0.090
0.157 -0.001 0.088
0.156 0.001 0.087
0.151 0.002 0.085
0.153 0.004 0.086
0.153 0.005 0.086
0.153 0.007 0.086
0.153 0.008 0.086
0.151 0.010 0.085
0.151 0.011 0.085
0.153 0.013 0.086
0.155 0.014 0.087
0.151 0.015 0.085
0.151 0.017 0.085
0.152 0.018 0.086
0.153 0.020 0.086
0.153 0.021 0.086
0.152 0.023 0.086
0.150 0.024 0.085
0.148 0.025 0.084
0.151 0.027 0.086
0.151 0.029 0.086
0.149 0.030 0.085
0.147 0.031 0.083
0.153 0.034 0.087
0.158 0.036 0.090
0.158 0.038 0.090
0.158 0.039 0.090
0.158 0.041 0.090
0.157 0.042 0.090
0.156 0.044 0.090
0.158 0.046 0.091
0.157 0.047 0.091
0.155 0.048 0.089
0.159 0.051 0.092
0.161 0.053 0.093
0.159 0.054 0.092
0.157 0.055 0.091
0.150 0.055 0.087
0.156 0.058 0.091
0.154 0.059 0.090
0.151 0.060 0.088
0.137 0.056 0.080
0.133 0.055 0.078
0.146 0.062 0.086
0.149 0.065 0.088
0.150 0.068 0.089
0.152 0.070 0.090
0.153 0.072 0.091
0.152 0.073 0.090
0.151 0.074 0.090
0.151 0.076 0.090
0.152 0.079 0.091
0.152 0.081 0.092
0.153 0.083 0.092
0.153 0.085 0.092
0.152 0.086 0.092
0.152 0.088 0.092
0.152 0.090 0.093
0.153 0.092 0.094
0.154 0.095 0.095
0.151 0.095 0.093
0.150 0.096 0.093
0.149 0.097 0.092
0.146 0.097 0.091
0.148 0.100 0.092
0.153 0.106 0.096
0.155 0.109 0.098
0.148 0.106 0.094
0.145 0.106 0.092
0.146 0.109 0.093
0.146 0.111 0.093
0.144 0.112 0.093
0.143 0.113 0.092
0.144 0.115 0.093
0.141 0.115 0.092
0.142 0.118 0.093
0.141 0.120 0.093
0.141 0.122 0.094
0.141 0.124 0.094
0.142 0.127 0.095
0.141 0.128 0.095
0.139 0.129 0.094
0.139 0.131 0.094
0.139 0.133 0.095
0.138 0.135 0.095
0.135 0.134 0.093
0.131 0.133 0.091
0.130 0.134 0.090
0.132 0.138 0.093
0.137 0.145 0.096
0.135 0.146 0.095
0.134 0.148 0.096
0.135 0.151 0.097
0.136 0.155 0.098
0.139 0.161 0.101
0.133 0.156 0.096
0.132 0.157 0.096
0.132 0.159 0.097
0.127 -0.154 0.093
0.128 -0.153 0.093
0.142 -0.168 0.103
0.147 -0.171 0.106
0.147 -0.169 0.106
0.149 -0.169 0.107
0.151 -0.168 0.107
0.152 -0.167 0.108
0.153 -0.166 0.108
0.153 -0.164 0.108
0.154 -0.162 0.108
0.155 -0.160 0.108
0.156 -0.158 0.108
0.157 -0.157 0.108
0.157 -0.155 0.108
0.156 -0.152 0.107
0.157 -0.150 0.107
0.157 -0.148 0.107
0.158 -0.146 0.106
0.157 -0.143 0.106
0.159 -0.142 0.106
0.159 -0.140 0.106
0.158 -0.137 0.105
0.158 -0.135 0.105
0.159 -0.133 0.104
0.158 -0.130 0.104
0.158 -0.128 0.103
0.158 -0.126 0.103
0.158 -0.123 0.102
0.156 -0.120 0.101
0.157 -0.118 0.101
0.158 -0.117 0.101
0.159 -0.115 0.101
0.158 -0.113 0.101
0.158 -0.111 0.100
0.158 -0.109 0.100
0.159 -0.108 0.100
0.158 -0.105 0.099
0.158 -0.103 0.099
0.158 -0.101 0.099
0.158 -0.099 0.098
0.159 -0.098 0.099
0.160 -0.096 0.099
0.159 -0.094 0.098
0.158 -0.092 0.097
0.160 -0.090 0.098
0.160 -0.089 0.098
0.162 -0.088 0.098
0.161 -0.086 0.098
0.161 -0.084 0.097
0.160 -0.081 0.097
0.160 -0.080 0.096
0.160 -0.078 0.096
0.162 -0.077 0.098
0.161 -0.075 0.097
0.161 -0.073 0.096
0.162 -0.072 0.096
0.161 -0.070 0.096
0.161 -0.068 0.096
0.161 -0.066 0.095
0.163 -0.065 0.096
0.163 -0.064 0.097
0.163 -0.062 0.096
0.163 -0.060 0.096
0.162 -0.058 0.095
0.162 -0.056 0.095
0.163 -0.055 0.095
0.164 -0.054 0.096
0.164 -0.052 0.096
0.163 -0.050 0.095
0.172 -0.051 0.100
0.175 -0.050 0.102
0.170 -0.047 0.099
0.161 -0.043 0.094
0.163 -0.042 0.095
0.163 -0.040 0.095
0.164 -0.039 0.095
0.164 -0.037 0.095
0.164 -0.036 0.095
0.164 -0.034 0.095
0.165 -0.033 0.095
0.165 -0.031 0.095
0.164 -0.029 0.095
0.164 -0.028 0.095
0.194 -0.031 0.112
0.189 -0.028 0.109
0.167 -0.023 0.096
0.163 -0.021 0.093
0.163 -0.019 0.094
0.163 -0.018 0.093
0.162 -0.016 0.093
0.161 -0.015 0.092
0.178 -0.014 0.102
0.178 -0.013 0.102
0.179 -0.011 0.102
0.177 -0.009 0.101
0.167 -0.007 0.096
0.163 -0.005 0.093
0.163 -0.004 0.094
0.161 -0.002 0.092
0.156 -0.001 0.090
0.152 0.001 0.087
0.152 0.002 0.087
0.152 0.004 0.087
0.155 0.005 0.089
0.153 0.007 0.088
0.150 0.008 0.086
0.151 0.010 0.087
0.151 0.011 0.087
0.151 0.013 0.087
0.149 0.014 0.086
0.152 0.016 0.087
0.151 0.017 0.087
0.152 0.018 0.087
0.152 0.020 0.087
0.151 0.021 0.087
0.154 0.023 0.089
0.151 0.024 0.087
0.150 0.026 0.087
0.148 0.027 0.086
0.151 0.029 0.087
0.149 0.030 0.086
0.149 0.031 0.087
0.159 0.035 0.092
0.154 0.035 0.090
0.156 0.038 0.091
0.156 0.039 0.091
0.155 0.040 0.090
0.156 0.042 0.091
0.155 0.044 0.091
0.154 0.045 0.090
0.159 0.048 0.093
0.159 0.049 0.093
0.158 0.051 0.093
0.158 0.052 0.093
0.157 0.054 0.093
0.153 0.054 0.090
0.154 0.056 0.091
0.154 0.058 0.091
0.153 0.059 0.091
0.148 0.059 0.088
0.135 0.055 0.081
0.141 0.059 0.084
0.142 0.061 0.085
0.149 0.065 0.090
0.149 0.067 0.090
0.150 0.069 0.091
0.151 0.072 0.092
0.151 0.073 0.091
0.158 0.078 0.096
0.151 0.077 0.092
0.152 0.079 0.093
0.152 0.081 0.093
0.152 0.083 0.094
0.151 0.084 0.093
0.149 0.085 0.092
0.146 0.084 0.090
0.142 0.084 0.088
0.141 0.085 0.088
0.142 0.088 0.089
0.141 0.088 0.089
0.143 0.092 0.090
0.140 0.092 0.089
0.137 0.091 0.087
0.139 0.094 0.088
0.145 0.101 0.093
0.145 0.102 0.093
0.140 0.101 0.091
0.140 0.103 0.091
0.137 0.102 0.089
0.144 0.110 0.094
0.142 0.110 0.093
0.142 0.112 0.093
0.142 0.114 0.094
0.141 0.116 0.094
0.137 0.115 0.092
0.138 0.118 0.093
0.139 0.121 0.094
0.145 0.128 0.098
0.139 0.125 0.095
0.141 0.129 0.096
0.140 0.130 0.096
0.138 0.131 0.095
0.137 0.132 0.095
0.136 0.134 0.095
0.136 0.136 0.096
0.131 0.133 0.093
0.131 0.135 0.093
0.133 0.140 0.095
0.135 0.144 0.097
0.134 0.145 0.097
0.130 0.144 0.095
0.133 0.149 0.097
0.135 0.154 0.099
0.134 0.155 0.099
0.137 0.161 0.102
0.131 0.156 0.098
0.132 0.159 0.098
0.144 -0.173 0.107
0.145 -0.172 0.107
0.146 -0.171 0.108
0.148 -0.170 0.108
0.148 -0.168 0.108
0.149 -0.167 0.109
0.150 -0.165 0.108
0.151 -0.164 0.109
0.153 -0.164 0.110
0.157 -0.165 0.112
0.165 -0.171 0.117
0.159 -0.163 0.113
0.158 -0.159 0.111
0.158 -0.156 0.111
0.156 -0.152 0.109
0.155 -0.148 0.108
0.154 -0.146 0.107
0.155 -0.143 0.106
0.156 -0.142 0.107
0.156 -0.140 0.107
0.157 -0.138 0.106
0.156 -0.136 0.106
0.156 -0.133 0.105
0.157 -0.131 0.105
0.157 -0.129 0.105
0.157 -0.127 0.104
0.157 -0.125 0.104
0.155 -0.122 0.102
0.155 -0.119 0.102
0.156 -0.118 0.102
0.155 -0.115 0.101
0.156 -0.114 0.101
0.156 -0.112 0.101
0.156 -0.110 0.101
0.156 -0.108 0.100
0.155 -0.105 0.100
0.156 -0.104 0.100
0.156 -0.102 0.100
0.156 -0.100 0.099
0.155 -0.098 0.098
0.157 -0.097 0.099
0.158 -0.095 0.099
0.157 -0.093 0.099
0.157 -0.091 0.098
0.157 -0.089 0.098
0.158 -0.088 0.098
0.158 -0.086 0.098
0.158 -0.084 0.098
0.158 -0.082 0.097
0.158 -0.081 0.097
0.158 -0.079 0.097
0.158 -0.077 0.097
0.158 -0.075 0.097
0.158 -0.074 0.097
0.158 -0.072 0.096
0.158 -0.070 0.096
0.160 -0.069 0.097
0.159 -0.067 0.096
0.159 -0.065 0.096
0.158 -0.063 0.096
0.160 -0.062 0.096
0.162 -0.062 0.098
0.159 -0.059 0.096
0.159 -0.057 0.096
0.159 -0.056 0.095
0.160 -0.054 0.096
0.162 -0.053 0.097
0.162 -0.052 0.097
0.161 -0.049 0.096
0.168 -0.050 0.100
0.171 -0.049 0.101
0.172 -0.048 0.102
0.168 -0.045 0.099
0.159 -0.041 0.094
0.160 -0.040 0.095
0.161 -0.038 0.095
0.162 -0.037 0.096
0.162 -0.035 0.095
0.162 -0.034 0.095
0.162 -0.032 0.096
0.162 -0.031 0.095
0.162 -0.029 0.095
0.162 -0.027 0.095
0.167 -0.027 0.098
0.185 -0.028 0.109
0.182 -0.025 0.107
0.168 -0.022 0.098
0.163 -0.020 0.096
0.164 -0.018 0.096
0.160 -0.016 0.094
0.161 -0.015 0.094
0.159 -0.013 0.093
0.169 -0.012 0.099
0.174 -0.011 0.102
0.173 -0.009 0.101
0.169 -0.007 0.099
0.166 -0.005 0.097
0.166 -0.004 0.097
0.163 -0.002 0.095
0.159 -0.001 0.093
0.154 0.001 0.090
0.153 0.002 0.090
0.154 0.004 0.090
0.153 0.005 0.089
0.152 0.007 0.089
0.153 0.008 0.090
0.152 0.010 0.089
0.150 0.011 0.088
0.148 0.012 0.087
0.146 0.014 0.086
0.149 0.015 0.087
0.152 0.017 0.089
0.151 0.018 0.089
0.149 0.020 0.088
0.153 0.022 0.090
0.150 0.023 0.088
0.153 0.025 0.090
0.146 0.025 0.086
0.144 0.026 0.085
0.146 0.028 0.086
0.153 0.031 0.090
0.156 0.033 0.092
0.150 0.033 0.089
0.151 0.035 0.090
0.152 0.037 0.090
0.154 0.039 0.092
0.154 0.040 0.091
0.153 0.042 0.091
0.154 0.043 0.092
0.160 0.047 0.096
0.160 0.048 0.096
0.152 0.048 0.091
0.155 0.050 0.093
0.154 0.051 0.093
0.154 0.053 0.093
0.153 0.054 0.093
0.152 0.055 0.092
0.150 0.056 0.091
0.142 0.055 0.086
0.146 0.058 0.088
0.143 0.058 0.087
0.141 0.059 0.086
0.141 0.060 0.086
0.141 0.062 0.086
0.149 0.067 0.091
0.148 0.069 0.091
0.149 0.071 0.092
0.153 0.074 0.095
0.156 0.078 0.097
0.153 0.078 0.095
0.149 0.078 0.093
0.145 0.077 0.091
0.143 0.078 0.090
0.136 0.076 0.086
0.138 0.079 0.087
0.139 0.081 0.088
0.137 0.081 0.087
0.135 0.082 0.086
0.138 0.085 0.088
0.137 0.087 0.088
0.136 0.088 0.088
0.136 0.089 0.088
0.138 0.092 0.089
0.137 0.094 0.089
0.140 0.097 0.091
0.137 0.097 0.090
0.138 0.100 0.091
0.138 0.102 0.091
0.136 0.103 0.091
0.136 0.104 0.091
0.135 0.105 0.090
0.140 0.111 0.094
0.141 0.114 0.095
0.140 0.115 0.095
0.138 0.116 0.094
0.136 0.116 0.093
0.136 0.118 0.093
0.133 0.118 0.092
0.135 0.122 0.094
0.135 0.124 0.094
0.143 0.133 0.100
0.141 0.134 0.100
0.137 0.133 0.097
0.135 0.133 0.097
0.131 0.131 0.094
0.133 0.135 0.096
0.133 0.138 0.097
0.135 0.142 0.098
0.135 0.145 0.099
0.133 0.145 0.098
0.133 0.147 0.098
0.131 0.148 0.098
0.133 0.153 0.100
0.131 0.153 0.099
0.127 0.150 0.096
0.130 0.156 0.099
0.139 -0.168 0.105
0.145 -0.173 0.109
0.145 -0.170 0.109
0.146 -0.168 0.109
0.148 -0.168 0.110
0.148 -0.167 0.110
0.151 -0.167 0.111
0.164 -0.179 0.121
0.161 -0.173 0.118
0.162 -0.171 0.118
0.162 -0.169 0.118
0.157 -0.161 0.114
0.154 -0.156 0.111
0.153 -0.152 0.110
0.152 -0.148 0.108
0.152 -0.147 0.108
0.152 -0.144 0.108
0.154 -0.143 0.108
0.154 -0.141 0.108
0.155 -0.140 0.108
0.155 -0.137 0.107
0.154 -0.134 0.106
0.154 -0.132 0.106
0.154 -0.130 0.106
0.155 -0.128 0.106
0.154 -0.125 0.105
0.155 -0.124 0.105
0.154 -0.121 0.104
0.154 -0.119 0.103
0.154 -0.117 0.103
0.154 -0.115 0.102
0.154 -0.113 0.102
0.154 -0.111 0.102
0.154 -0.109 0.102
0.154 -0.106 0.101
0.153 -0.104 0.100
0.153 -0.102 0.100
0.154 -0.101 0.100
0.154 -0.099 0.100
0.154 -0.097 0.099
0.154 -0.095 0.099
0.154 -0.093 0.099
0.154 -0.091 0.098
0.155 -0.090 0.099
0.155 -0.088 0.098
0.155 -0.086 0.098
0.156 -0.085 0.099
0.156 -0.083 0.098
0.154 -0.081 0.097
0.157 -0.080 0.098
0.155 -0.078 0.097
0.157 -0.077 0.098
0.155 -0.074 0.097
0.155 -0.072 0.096
0.155 -0.071 0.097
0.159 -0.071 0.098
