VERSION .7
FIELDS x y z
SIZE 4 4 4
TYPE F F F
COUNT 1 1 1
WIDTH     2439
HEIGHT 1
VIEWPOINT 0 0 0 1 0 0 0
POINTS     2439
DATA ascii
0.305 0.028 -0.170
0.292 0.030 -0.163
0.302 0.033 -0.168
0.309 0.037 -0.173
0.307 0.040 -0.171
0.308 0.043 -0.172
0.319 0.048 -0.179
0.315 0.053 -0.177
0.325 0.058 -0.182
0.140 -0.099 -0.084
0.154 -0.106 -0.092
0.206 -0.140 -0.123
0.209 -0.139 -0.124
0.210 -0.137 -0.124
0.211 -0.136 -0.125
0.202 -0.127 -0.119
1.451 -0.861 -0.846
1.431 -0.833 -0.832
1.410 -0.804 -0.818
1.394 -0.779 -0.807
1.391 -0.762 -0.803
1.388 -0.744 -0.799
1.373 -0.721 -0.789
1.350 -0.694 -0.774
1.357 -0.682 -0.776
1.365 -0.671 -0.779
1.366 -0.657 -0.779
1.374 -0.587 -0.776
0.246 -0.100 -0.138
0.247 -0.098 -0.139
1.355 -0.508 -0.758
1.349 -0.492 -0.754
1.341 -0.475 -0.748
1.354 -0.466 -0.754
1.359 -0.454 -0.756
1.337 -0.433 -0.743
1.326 -0.416 -0.736
1.329 -0.404 -0.737
1.331 -0.391 -0.737
1.327 -0.377 -0.734
1.319 -0.361 -0.729
1.323 -0.349 -0.730
1.326 -0.337 -0.731
0.303 -0.056 -0.166
0.293 -0.052 -0.161
0.297 -0.049 -0.162
0.300 -0.047 -0.164
0.297 -0.044 -0.163
0.287 -0.037 -0.157
0.318 -0.035 -0.173
0.304 -0.027 -0.166
0.289 -0.023 -0.157
0.305 -0.019 -0.166
0.306 -0.016 -0.167
0.295 0.016 -0.161
0.296 0.019 -0.162
0.301 0.022 -0.164
0.306 0.025 -0.167
0.306 0.028 -0.167
0.299 0.030 -0.163
0.297 0.033 -0.163
0.307 0.037 -0.168
0.309 0.040 -0.169
0.314 0.044 -0.172
0.293 0.049 -0.161
0.298 0.053 -0.164
0.328 0.139 -0.186
0.148 -0.104 -0.087
0.155 -0.107 -0.091
0.200 -0.135 -0.116
0.209 -0.139 -0.121
0.210 -0.137 -0.121
0.209 -0.134 -0.121
0.206 -0.130 -0.119
1.420 -0.808 -0.807
1.404 -0.767 -0.794
1.373 -0.719 -0.774
1.377 -0.706 -0.774
1.369 -0.687 -0.768
1.367 -0.670 -0.765
1.365 -0.654 -0.762
1.386 -0.605 -0.768
1.357 -0.508 -0.745
1.351 -0.491 -0.740
1.349 -0.477 -0.738
1.351 -0.464 -0.738
1.353 -0.451 -0.738
1.339 -0.432 -0.729
1.328 -0.416 -0.723
1.327 -0.402 -0.721
1.331 -0.390 -0.722
1.325 -0.375 -0.719
1.323 -0.361 -0.717
1.322 -0.348 -0.715
1.315 -0.333 -0.711
0.289 -0.054 -0.155
0.291 -0.051 -0.157
0.312 -0.052 -0.167
0.304 -0.045 -0.163
0.281 -0.036 -0.151
0.306 -0.033 -0.164
0.308 -0.030 -0.165
0.305 -0.027 -0.163
0.301 -0.024 -0.161
0.298 -0.021 -0.159
0.308 0.016 -0.164
0.303 0.019 -0.162
0.304 0.022 -0.163
0.305 0.025 -0.163
0.302 0.028 -0.162
0.296 0.030 -0.159
0.296 0.033 -0.158
0.302 0.036 -0.162
0.308 0.040 -0.165
0.304 0.042 -0.164
0.281 0.042 -0.151
0.289 0.046 -0.155
0.286 0.048 -0.154
0.330 0.139 -0.184
0.160 -0.112 -0.092
0.154 -0.106 -0.088
0.195 -0.132 -0.112
0.209 -0.138 -0.119
0.209 -0.136 -0.119
0.209 -0.133 -0.118
0.209 -0.131 -0.118
1.412 -0.786 -0.785
1.400 -0.763 -0.776
1.393 -0.728 -0.769
1.383 -0.602 -0.751
1.351 -0.490 -0.725
1.342 -0.473 -0.719
1.344 -0.460 -0.719
1.349 -0.448 -0.721
1.351 -0.436 -0.722
1.342 -0.419 -0.716
1.340 -0.405 -0.714
1.329 -0.388 -0.707
1.321 -0.373 -0.702
1.318 -0.359 -0.700
1.310 -0.344 -0.695
1.306 -0.330 -0.692
0.285 -0.053 -0.150
0.287 -0.050 -0.151
0.311 -0.051 -0.163
0.316 -0.049 -0.166
0.295 -0.040 -0.155
0.292 -0.037 -0.153
0.293 -0.035 -0.154
0.296 -0.032 -0.155
0.293 -0.029 -0.154
0.301 -0.027 -0.158
0.300 -0.024 -0.157
0.295 -0.021 -0.155
0.288 -0.018 -0.151
0.303 -0.016 -0.159
0.306 0.016 -0.160
0.305 0.019 -0.160
0.305 0.022 -0.160
0.302 0.025 -0.158
0.297 0.027 -0.156
0.295 0.030 -0.155
0.293 0.032 -0.154
0.303 0.036 -0.160
0.309 0.040 -0.163
0.302 0.042 -0.159
0.296 0.044 -0.156
0.292 0.046 -0.154
0.328 0.065 -0.173
0.336 0.083 -0.178
0.345 0.113 -0.185
0.209 -0.138 -0.116
0.209 -0.136 -0.116
0.209 -0.133 -0.116
0.210 -0.131 -0.116
1.425 -0.807 -0.778
1.385 -0.587 -0.736
1.361 -0.507 -0.717
1.349 -0.488 -0.709
1.343 -0.473 -0.705
1.338 -0.457 -0.702
1.344 -0.446 -0.704
1.351 -0.435 -0.707
1.359 -0.424 -0.710
1.346 -0.406 -0.702
1.339 -0.391 -0.698
1.334 -0.376 -0.694
1.315 -0.358 -0.684
1.309 -0.343 -0.680
1.308 -0.330 -0.679
0.286 -0.053 -0.147
0.290 -0.051 -0.149
0.300 -0.050 -0.155
0.307 -0.048 -0.158
0.303 -0.044 -0.156
0.296 -0.040 -0.152
0.297 -0.038 -0.153
0.301 -0.033 -0.155
0.289 -0.029 -0.149
0.286 -0.026 -0.147
0.291 -0.020 -0.149
0.282 -0.017 -0.145
0.293 -0.015 -0.150
0.306 -0.013 -0.157
0.307 0.016 -0.158
0.304 0.019 -0.156
0.302 0.022 -0.155
0.300 0.024 -0.154
0.301 0.027 -0.155
0.300 0.030 -0.154
0.298 0.033 -0.154
0.306 0.036 -0.158
0.311 0.040 -0.160
0.316 0.044 -0.163
0.299 0.044 -0.155
0.300 0.047 -0.155
0.343 0.061 -0.177
0.311 0.082 -0.162
0.180 0.218 -0.119
0.172 0.212 -0.114
0.208 -0.137 -0.114
0.209 -0.135 -0.114
0.210 -0.133 -0.114
0.211 -0.131 -0.114
0.317 -0.162 -0.168
0.323 -0.161 -0.170
0.325 -0.158 -0.171
0.331 -0.158 -0.174
0.332 -0.154 -0.174
0.323 -0.147 -0.169
1.345 -0.500 -0.694
1.348 -0.487 -0.695
1.345 -0.472 -0.692
1.338 -0.456 -0.688
1.341 -0.444 -0.688
1.351 -0.434 -0.692
1.359 -0.423 -0.696
1.343 -0.404 -0.687
1.342 -0.391 -0.685
1.333 -0.375 -0.680
1.313 -0.356 -0.669
1.311 -0.343 -0.668
1.314 -0.331 -0.668
0.296 -0.055 -0.150
0.303 -0.053 -0.153
0.303 -0.050 -0.153
0.302 -0.047 -0.152
0.310 -0.045 -0.156
0.300 -0.038 -0.151
0.305 -0.036 -0.153
0.303 -0.033 -0.152
0.294 -0.029 -0.148
0.295 -0.026 -0.148
0.306 -0.024 -0.154
0.307 -0.022 -0.155
0.281 -0.017 -0.141
0.290 -0.015 -0.146
0.307 -0.013 -0.154
0.322 -0.007 -0.162
0.326 0.014 -0.164
0.307 0.016 -0.154
0.305 0.019 -0.153
0.299 0.021 -0.150
0.305 0.025 -0.153
0.306 0.028 -0.154
0.307 0.031 -0.155
0.300 0.033 -0.151
0.302 0.036 -0.152
0.315 0.041 -0.159
0.313 0.043 -0.158
0.296 0.044 -0.150
0.294 0.046 -0.149
0.326 0.054 -0.165
0.322 0.060 -0.163
0.311 0.070 -0.158
0.303 0.071 -0.154
0.311 0.076 -0.159
0.274 0.078 -0.140
0.352 0.151 -0.185
0.181 0.207 -0.115
0.178 0.206 -0.114
0.193 0.227 -0.124
0.181 0.216 -0.117
0.177 0.214 -0.115
0.185 0.227 -0.120
0.192 0.239 -0.125
0.198 0.250 -0.130
0.130 -0.089 -0.070
0.208 -0.137 -0.111
0.208 -0.134 -0.111
0.209 -0.133 -0.111
0.210 -0.130 -0.111
0.207 -0.126 -0.109
0.314 -0.177 -0.164
0.317 -0.175 -0.166
0.321 -0.174 -0.167
0.322 -0.171 -0.167
0.322 -0.167 -0.167
0.324 -0.164 -0.167
0.325 -0.161 -0.168
0.329 -0.160 -0.169
0.332 -0.158 -0.171
0.333 -0.155 -0.171
0.333 -0.151 -0.170
0.336 -0.149 -0.172
1.349 -0.500 -0.682
1.345 -0.485 -0.679
1.342 -0.470 -0.676
1.332 -0.453 -0.670
1.335 -0.441 -0.671
1.345 -0.431 -0.675
1.337 -0.415 -0.670
1.327 -0.399 -0.664
1.329 -0.386 -0.664
1.314 -0.369 -0.657
1.315 -0.356 -0.656
1.320 -0.345 -0.658
0.306 -0.056 -0.152
0.310 -0.054 -0.154
0.309 -0.051 -0.153
0.302 -0.047 -0.149
0.308 -0.045 -0.152
0.309 -0.042 -0.153
0.311 -0.039 -0.153
0.300 -0.035 -0.148
0.302 -0.033 -0.149
0.304 -0.030 -0.150
0.305 -0.027 -0.150
0.309 -0.025 -0.152
0.307 -0.021 -0.151
0.302 -0.018 -0.149
0.298 -0.015 -0.147
0.304 -0.013 -0.150
0.320 -0.010 -0.157
0.299 -0.004 -0.147
0.319 0.014 -0.157
0.310 0.016 -0.153
0.308 0.022 -0.152
0.303 0.024 -0.150
0.312 0.028 -0.154
0.303 0.030 -0.149
0.295 0.032 -0.146
0.303 0.036 -0.150
0.309 0.040 -0.153
0.309 0.043 -0.153
0.298 0.044 -0.147
0.295 0.046 -0.146
0.338 0.079 -0.169
0.332 0.142 -0.171
0.223 0.230 -0.134
0.188 0.210 -0.116
0.183 0.208 -0.114
0.187 0.216 -0.117
0.184 0.216 -0.116
0.180 0.214 -0.113
0.181 0.219 -0.115
0.190 0.233 -0.121
0.193 0.241 -0.124
0.135 -0.092 -0.071
0.138 -0.093 -0.073
0.208 -0.136 -0.109
0.207 -0.133 -0.108
0.207 -0.131 -0.108
0.209 -0.129 -0.108
0.220 -0.134 -0.114
0.304 -0.181 -0.157
0.314 -0.184 -0.162
0.319 -0.183 -0.163
0.317 -0.178 -0.162
0.319 -0.176 -0.163
0.320 -0.173 -0.163
0.321 -0.170 -0.163
0.321 -0.166 -0.163
0.323 -0.164 -0.164
0.326 -0.161 -0.164
0.326 -0.158 -0.164
0.330 -0.156 -0.166
0.332 -0.154 -0.167
0.334 -0.151 -0.167
0.335 -0.148 -0.168
1.353 -0.487 -0.668
1.332 -0.466 -0.657
1.332 -0.453 -0.656
1.344 -0.443 -0.661
1.339 -0.428 -0.658
1.329 -0.412 -0.652
1.322 -0.397 -0.648
1.324 -0.384 -0.648
1.325 -0.371 -0.648
1.320 -0.357 -0.645
1.329 -0.346 -0.648
0.289 -0.053 -0.140
0.301 -0.052 -0.146
0.295 -0.048 -0.143
0.295 -0.046 -0.143
0.291 -0.042 -0.141
0.294 -0.040 -0.142
0.298 -0.038 -0.144
0.301 -0.035 -0.145
0.295 -0.032 -0.142
0.302 -0.030 -0.146
0.306 -0.027 -0.148
0.301 -0.024 -0.145
0.310 -0.022 -0.150
0.315 -0.019 -0.152
0.298 -0.015 -0.144
0.308 -0.013 -0.148
0.312 -0.010 -0.150
0.301 -0.007 -0.145
0.312 -0.001 -0.150
0.316 0.008 -0.153
0.320 0.023 -0.154
0.320 0.026 -0.155
0.312 0.028 -0.151
0.310 0.031 -0.150
0.299 0.033 -0.145
0.302 0.036 -0.146
0.309 0.040 -0.150
0.319 0.044 -0.155
0.309 0.045 -0.150
0.282 0.047 -0.137
0.290 0.051 -0.141
0.298 0.055 -0.145
0.337 0.079 -0.165
0.283 0.077 -0.139
0.286 0.081 -0.140
0.327 0.103 -0.161
0.312 0.101 -0.154
0.335 0.143 -0.168
0.216 0.208 -0.125
0.213 0.207 -0.123
0.213 0.211 -0.124
0.210 0.212 -0.123
0.218 0.224 -0.129
0.225 0.235 -0.134
0.187 0.208 -0.113
0.184 0.209 -0.112
0.183 0.211 -0.112
0.182 0.213 -0.112
0.182 0.217 -0.113
0.184 0.222 -0.114
0.189 0.231 -0.118
0.189 0.235 -0.118
0.184 0.233 -0.116
0.178 0.228 -0.113
0.212 -0.139 -0.109
0.207 -0.133 -0.106
0.208 -0.131 -0.106
0.209 -0.129 -0.106
0.219 -0.133 -0.111
0.303 -0.180 -0.153
0.312 -0.182 -0.157
0.314 -0.180 -0.158
0.317 -0.178 -0.159
0.316 -0.174 -0.158
0.318 -0.171 -0.158
0.318 -0.168 -0.158
0.319 -0.165 -0.159
0.320 -0.162 -0.159
0.320 -0.159 -0.158
0.325 -0.157 -0.160
0.327 -0.155 -0.161
0.330 -0.153 -0.162
0.331 -0.149 -0.162
0.333 -0.147 -0.163
1.378 -0.509 -0.667
1.373 -0.493 -0.664
1.353 -0.472 -0.653
1.342 -0.455 -0.647
1.348 -0.444 -0.649
1.341 -0.428 -0.645
1.326 -0.410 -0.637
1.317 -0.394 -0.632
1.320 -0.382 -0.632
1.327 -0.371 -0.635
1.329 -0.359 -0.635
1.329 -0.346 -0.635
0.286 -0.052 -0.136
0.288 -0.050 -0.136
0.286 -0.047 -0.136
0.290 -0.045 -0.137
0.294 -0.043 -0.139
0.289 -0.039 -0.137
0.287 -0.036 -0.136
0.291 -0.034 -0.137
0.288 -0.031 -0.136
0.288 -0.028 -0.136
0.287 -0.025 -0.135
0.298 -0.024 -0.141
0.308 -0.022 -0.145
0.313 -0.019 -0.148
0.311 -0.016 -0.147
0.297 -0.012 -0.140
0.297 -0.010 -0.140
0.301 -0.007 -0.142
0.307 -0.004 -0.145
0.308 -0.001 -0.145
0.308 0.004 -0.145
0.310 0.007 -0.146
0.313 0.010 -0.148
0.307 0.036 -0.145
0.318 0.044 -0.151
0.330 0.048 -0.157
0.293 0.049 -0.139
0.287 0.050 -0.137
0.307 0.063 -0.146
0.295 0.069 -0.141
0.303 0.077 -0.145
0.288 0.076 -0.138
0.287 0.078 -0.138
0.285 0.081 -0.137
0.298 0.090 -0.144
0.341 0.146 -0.168
0.224 0.197 -0.124
0.216 0.193 -0.120
0.211 0.192 -0.117
0.210 0.194 -0.117
0.210 0.198 -0.118
0.214 0.205 -0.121
0.214 0.208 -0.122
0.214 0.212 -0.122
0.213 0.214 -0.122
0.216 0.221 -0.124
0.226 0.235 -0.131
0.206 0.222 -0.121
0.196 0.215 -0.116
0.184 0.205 -0.109
0.185 0.209 -0.110
0.190 0.218 -0.114
0.189 0.220 -0.113
0.189 0.224 -0.114
0.190 0.228 -0.115
0.188 0.230 -0.115
0.187 0.232 -0.115
0.185 0.233 -0.114
0.181 0.231 -0.112
0.313 -0.223 -0.159
0.307 -0.216 -0.156
0.317 -0.219 -0.160
0.214 -0.142 -0.107
0.220 -0.143 -0.110
0.207 -0.133 -0.103
0.208 -0.131 -0.104
0.209 -0.129 -0.104
0.216 -0.131 -0.107
0.302 -0.180 -0.149
0.305 -0.178 -0.150
0.310 -0.177 -0.152
0.311 -0.174 -0.152
0.312 -0.171 -0.152
0.314 -0.169 -0.153
0.317 -0.167 -0.154
0.318 -0.164 -0.154
0.319 -0.161 -0.155
0.321 -0.159 -0.155
0.321 -0.155 -0.155
0.327 -0.155 -0.157
0.329 -0.152 -0.158
0.332 -0.150 -0.159
0.336 -0.148 -0.161
0.348 -0.132 -0.165
0.353 -0.130 -0.167
1.389 -0.498 -0.656
1.366 -0.476 -0.645
1.352 -0.458 -0.637
1.354 -0.445 -0.638
1.343 -0.428 -0.631
1.325 -0.409 -0.622
1.312 -0.392 -0.615
1.310 -0.379 -0.614
1.319 -0.368 -0.617
1.315 -0.354 -0.615
1.320 -0.343 -0.617
0.300 -0.055 -0.139
0.286 -0.050 -0.133
0.292 -0.048 -0.135
0.294 -0.045 -0.136
0.297 -0.043 -0.138
0.297 -0.040 -0.138
0.291 -0.037 -0.134
0.288 -0.034 -0.133
0.284 -0.030 -0.131
0.287 -0.028 -0.133
0.288 -0.025 -0.133
0.289 -0.023 -0.134
0.298 -0.021 -0.138
0.313 -0.019 -0.144
0.307 -0.016 -0.142
0.300 -0.012 -0.138
0.297 -0.010 -0.137
0.307 -0.007 -0.141
0.314 -0.004 -0.145
0.308 -0.001 -0.142
0.292 0.001 -0.135
0.283 0.004 -0.130
0.307 0.007 -0.142
0.310 0.019 -0.143
0.334 0.027 -0.154
0.288 0.048 -0.134
0.285 0.050 -0.133
0.295 0.057 -0.138
0.308 0.063 -0.143
0.301 0.064 -0.141
0.296 0.066 -0.138
0.292 0.071 -0.137
0.302 0.079 -0.142
0.294 0.080 -0.138
0.290 0.082 -0.136
0.307 0.096 -0.145
0.351 0.149 -0.169
0.364 0.159 -0.175
0.230 0.191 -0.123
0.221 0.186 -0.118
0.218 0.187 -0.117
0.218 0.191 -0.117
0.217 0.193 -0.117
0.214 0.194 -0.116
0.209 0.192 -0.114
0.212 0.199 -0.116
0.214 0.204 -0.118
0.215 0.208 -0.119
0.212 0.210 -0.119
0.211 0.212 -0.119
0.217 0.222 -0.122
0.217 0.225 -0.123
0.210 0.222 -0.120
0.206 0.222 -0.118
0.216 0.235 -0.124
0.207 0.233 -0.120
0.209 0.240 -0.123
0.182 0.225 -0.109
0.182 0.229 -0.110
0.183 0.233 -0.111
0.182 0.235 -0.110
0.326 -0.254 -0.165
0.325 -0.248 -0.164
0.316 -0.237 -0.158
0.318 -0.234 -0.159
0.319 -0.232 -0.159
0.317 -0.226 -0.157
0.323 -0.226 -0.160
0.312 -0.215 -0.154
0.222 -0.147 -0.109
0.217 -0.142 -0.106
0.209 -0.133 -0.102
0.208 -0.131 -0.101
0.209 -0.129 -0.101
0.211 -0.128 -0.102
0.298 -0.177 -0.144
0.307 -0.178 -0.148
0.309 -0.176 -0.148
0.311 -0.174 -0.149
0.311 -0.170 -0.149
0.310 -0.166 -0.148
0.315 -0.166 -0.150
0.315 -0.162 -0.149
0.317 -0.160 -0.150
0.321 -0.158 -0.152
0.323 -0.156 -0.152
0.325 -0.153 -0.153
0.330 -0.152 -0.155
0.334 -0.150 -0.157
0.338 -0.149 -0.158
0.278 -0.111 -0.129
0.355 -0.134 -0.165
0.359 -0.132 -0.166
0.364 -0.130 -0.168
1.348 -0.469 -0.622
1.360 -0.460 -0.627
1.355 -0.444 -0.624
1.342 -0.427 -0.617
1.329 -0.410 -0.610
1.319 -0.394 -0.605
1.321 -0.381 -0.605
1.309 -0.365 -0.599
1.312 -0.353 -0.600
1.317 -0.342 -0.602
0.298 -0.054 -0.135
0.298 -0.052 -0.135
0.292 -0.048 -0.132
0.296 -0.046 -0.134
0.298 -0.043 -0.135
0.300 -0.041 -0.136
0.295 -0.037 -0.134
0.288 -0.034 -0.130
0.285 -0.031 -0.129
0.296 -0.029 -0.134
0.298 -0.026 -0.135
0.295 -0.023 -0.133
0.301 -0.021 -0.136
0.309 -0.019 -0.140
0.308 -0.016 -0.139
0.299 -0.012 -0.135
0.301 -0.010 -0.136
0.302 -0.007 -0.136
0.305 -0.004 -0.138
0.305 -0.001 -0.138
0.296 0.002 -0.134
0.295 0.004 -0.133
0.305 0.007 -0.138
0.281 0.009 -0.127
0.301 0.016 -0.136
0.309 0.033 -0.140
0.282 0.047 -0.128
0.288 0.050 -0.131
0.299 0.067 -0.137
0.286 0.066 -0.131
0.296 0.072 -0.135
0.296 0.075 -0.136
0.314 0.082 -0.144
0.304 0.082 -0.139
0.303 0.085 -0.139
0.303 0.091 -0.140
0.307 0.096 -0.142
0.324 0.104 -0.150
0.344 0.146 -0.162
0.358 0.156 -0.168
0.251 0.187 -0.127
0.254 0.192 -0.129
0.249 0.195 -0.128
0.239 0.191 -0.123
0.232 0.188 -0.120
0.225 0.187 -0.117
0.221 0.186 -0.115
0.219 0.188 -0.115
0.219 0.191 -0.115
0.219 0.194 -0.116
0.214 0.194 -0.114
0.215 0.198 -0.115
0.217 0.203 -0.117
0.218 0.208 -0.118
0.215 0.208 -0.116
0.210 0.207 -0.115
0.210 0.211 -0.115
0.212 0.216 -0.117
0.211 0.218 -0.117
0.209 0.220 -0.116
0.218 0.241 -0.123
0.205 0.231 -0.117
0.213 0.243 -0.122
0.225 0.262 -0.130
0.222 0.262 -0.128
0.180 0.223 -0.106
0.182 0.228 -0.107
0.181 0.230 -0.107
0.182 0.234 -0.108
0.316 -0.262 -0.158
0.317 -0.258 -0.158
0.317 -0.255 -0.158
0.330 -0.260 -0.163
0.330 -0.256 -0.163
0.326 -0.249 -0.160
0.321 -0.240 -0.157
0.322 -0.237 -0.157
0.326 -0.236 -0.159
0.324 -0.231 -0.157
0.316 -0.221 -0.153
0.309 -0.212 -0.149
0.218 -0.142 -0.104
0.213 -0.136 -0.101
0.208 -0.130 -0.099
0.209 -0.129 -0.099
0.212 -0.128 -0.100
0.304 -0.176 -0.143
0.310 -0.176 -0.145
0.310 -0.173 -0.145
0.309 -0.169 -0.144
0.311 -0.167 -0.145
0.308 -0.162 -0.143
0.312 -0.160 -0.145
0.315 -0.158 -0.146
0.317 -0.156 -0.146
0.323 -0.155 -0.149
0.327 -0.154 -0.150
0.329 -0.151 -0.151
0.334 -0.150 -0.153
0.335 -0.147 -0.153
0.319 -0.133 -0.146
0.285 -0.113 -0.130
0.299 -0.116 -0.136
0.360 -0.136 -0.163
0.364 -0.134 -0.165
0.369 -0.132 -0.167
0.379 -0.131 -0.171
1.355 -0.444 -0.610
1.328 -0.422 -0.597
1.326 -0.408 -0.595
1.325 -0.395 -0.594
1.321 -0.380 -0.592
1.316 -0.366 -0.589
1.308 -0.351 -0.585
1.309 -0.339 -0.584
0.337 -0.065 -0.150
0.297 -0.051 -0.132
0.292 -0.048 -0.129
0.288 -0.044 -0.128
0.294 -0.043 -0.130
0.295 -0.040 -0.130
0.295 -0.037 -0.130
0.293 -0.034 -0.130
0.293 -0.031 -0.129
0.303 -0.030 -0.134
0.306 -0.027 -0.135
0.302 -0.024 -0.133
0.306 -0.021 -0.135
0.309 -0.019 -0.137
0.304 -0.015 -0.134
0.306 -0.013 -0.135
0.299 -0.010 -0.132
0.300 -0.007 -0.133
0.303 -0.004 -0.134
0.305 -0.001 -0.135
0.304 0.002 -0.134
0.307 0.004 -0.135
0.290 0.007 -0.128
0.278 0.009 -0.123
0.283 0.012 -0.125
0.297 0.029 -0.131
0.292 0.048 -0.130
0.289 0.050 -0.128
0.310 0.063 -0.138
0.303 0.065 -0.135
0.300 0.067 -0.134
0.289 0.067 -0.129
0.286 0.069 -0.128
0.319 0.080 -0.143
0.315 0.082 -0.141
0.309 0.084 -0.139
0.319 0.090 -0.143
0.322 0.094 -0.145
0.306 0.092 -0.138
0.322 0.103 -0.146
0.331 0.109 -0.150
0.329 0.112 -0.149
0.345 0.150 -0.159
0.264 0.182 -0.129
0.251 0.176 -0.123
0.248 0.178 -0.122
0.249 0.181 -0.123
0.246 0.183 -0.122
0.251 0.190 -0.125
0.257 0.198 -0.128
0.252 0.198 -0.126
0.244 0.195 -0.123
0.236 0.192 -0.119
0.227 0.187 -0.115
0.222 0.187 -0.113
0.221 0.189 -0.113
0.221 0.192 -0.114
0.216 0.192 -0.112
0.215 0.194 -0.112
0.213 0.195 -0.111
0.219 0.204 -0.115
0.218 0.207 -0.115
0.214 0.207 -0.113
0.209 0.206 -0.111
0.206 0.206 -0.110
0.205 0.208 -0.110
0.208 0.215 -0.112
0.231 0.251 -0.127
0.211 0.233 -0.117
0.205 0.230 -0.114
0.211 0.241 -0.118
0.199 0.238 -0.113
0.203 0.246 -0.116
0.201 0.248 -0.115
0.176 0.220 -0.101
0.179 0.228 -0.104
0.186 0.239 -0.108
0.317 -0.280 -0.157
0.328 -0.285 -0.162
0.332 -0.284 -0.164
0.324 -0.272 -0.159
0.325 -0.269 -0.159
0.325 -0.264 -0.158
0.327 -0.262 -0.159
0.324 -0.255 -0.157
0.329 -0.254 -0.158
0.327 -0.249 -0.157
0.324 -0.242 -0.155
0.324 -0.238 -0.154
0.323 -0.233 -0.154
0.321 -0.228 -0.152
0.318 -0.222 -0.150
0.316 -0.217 -0.149
0.310 -0.208 -0.145
0.213 -0.136 -0.099
0.207 -0.129 -0.096
0.208 -0.128 -0.096
0.213 -0.128 -0.098
0.303 -0.176 -0.139
0.307 -0.175 -0.141
0.310 -0.172 -0.142
0.309 -0.169 -0.141
0.308 -0.165 -0.140
0.306 -0.160 -0.139
0.311 -0.159 -0.141
0.313 -0.157 -0.142
0.315 -0.155 -0.142
0.322 -0.154 -0.145
0.324 -0.152 -0.146
0.328 -0.151 -0.147
0.329 -0.147 -0.147
0.332 -0.146 -0.149
0.312 -0.121 -0.138
0.361 -0.136 -0.160
0.366 -0.134 -0.162
0.374 -0.133 -0.165
0.378 -0.131 -0.167
0.376 -0.127 -0.166
0.376 -0.123 -0.165
1.314 -0.417 -0.577
1.319 -0.405 -0.579
1.319 -0.392 -0.578
1.322 -0.380 -0.579
1.316 -0.366 -0.576
1.304 -0.350 -0.570
1.310 -0.338 -0.572
0.341 -0.068 -0.148
0.291 -0.050 -0.126
0.284 -0.046 -0.123
0.290 -0.044 -0.125
0.295 -0.043 -0.128
0.298 -0.040 -0.129
0.294 -0.037 -0.127
0.299 -0.035 -0.129
0.312 -0.033 -0.135
0.305 -0.030 -0.132
0.304 -0.027 -0.131
0.308 -0.024 -0.133
0.298 -0.021 -0.129
0.306 -0.018 -0.132
0.313 -0.016 -0.135
0.303 -0.013 -0.131
0.300 -0.010 -0.129
0.297 -0.007 -0.128
0.301 -0.004 -0.130
0.297 -0.001 -0.128
0.306 0.002 -0.132
0.307 0.004 -0.132
0.289 0.007 -0.125
0.286 0.009 -0.123
0.292 0.012 -0.126
0.296 0.015 -0.128
0.309 0.025 -0.134
0.302 0.027 -0.131
0.319 0.049 -0.139
0.316 0.067 -0.138
0.311 0.069 -0.136
0.300 0.069 -0.131
0.304 0.073 -0.133
0.310 0.078 -0.136
0.323 0.084 -0.142
0.314 0.085 -0.138
0.309 0.087 -0.136
0.315 0.091 -0.138
0.318 0.099 -0.140
0.333 0.107 -0.147
0.320 0.106 -0.142
0.318 0.108 -0.141
0.285 0.106 -0.127
0.265 0.159 -0.124
0.259 0.159 -0.121
0.255 0.159 -0.119
0.265 0.169 -0.125
0.264 0.172 -0.125
0.260 0.172 -0.123
0.253 0.171 -0.120
0.255 0.175 -0.121
0.251 0.176 -0.120
0.247 0.176 -0.118
0.246 0.179 -0.118
0.244 0.180 -0.118
0.252 0.190 -0.122
0.262 0.201 -0.128
0.260 0.203 -0.127
0.249 0.198 -0.122
0.242 0.196 -0.120
0.233 0.192 -0.115
0.224 0.187 -0.111
0.222 0.189 -0.111
0.220 0.191 -0.111
0.220 0.194 -0.111
0.220 0.197 -0.111
0.215 0.197 -0.110
0.218 0.203 -0.111
0.217 0.206 -0.112
0.218 0.210 -0.113
0.214 0.210 -0.111
0.209 0.208 -0.109
0.205 0.208 -0.108
0.205 0.211 -0.108
0.216 0.226 -0.115
0.225 0.240 -0.120
0.228 0.247 -0.122
0.213 0.234 -0.115
0.205 0.230 -0.111
0.212 0.241 -0.115
0.205 0.245 -0.114
0.209 0.257 -0.117
0.181 0.226 -0.102
0.186 0.236 -0.105
0.195 0.251 -0.111
0.321 -0.302 -0.158
0.328 -0.303 -0.161
0.337 -0.307 -0.165
0.339 -0.303 -0.165
0.323 -0.285 -0.157
0.325 -0.282 -0.157
0.326 -0.278 -0.157
0.325 -0.273 -0.156
0.325 -0.268 -0.155
0.329 -0.267 -0.156
0.326 -0.261 -0.155
0.324 -0.254 -0.153
0.322 -0.249 -0.152
0.323 -0.245 -0.151
0.323 -0.241 -0.151
0.321 -0.236 -0.150
0.318 -0.229 -0.148
0.317 -0.225 -0.147
0.317 -0.220 -0.146
0.314 -0.215 -0.144
0.312 -0.209 -0.143
0.213 -0.135 -0.097
0.208 -0.130 -0.094
0.209 -0.128 -0.095
0.210 -0.126 -0.095
0.302 -0.174 -0.135
0.304 -0.172 -0.136
0.308 -0.171 -0.138
0.309 -0.168 -0.138
0.307 -0.164 -0.137
0.307 -0.160 -0.136
0.312 -0.160 -0.138
0.314 -0.157 -0.139
0.316 -0.155 -0.139
0.319 -0.153 -0.140
0.324 -0.152 -0.142
0.326 -0.149 -0.143
0.329 -0.147 -0.144
0.330 -0.144 -0.144
0.320 -0.124 -0.139
0.358 -0.135 -0.155
0.367 -0.134 -0.158
0.373 -0.133 -0.161
0.378 -0.131 -0.163
0.381 -0.128 -0.164
0.381 -0.124 -0.164
0.387 -0.123 -0.166
1.304 -0.387 -0.558
1.308 -0.376 -0.559
1.307 -0.363 -0.558
1.314 -0.352 -0.561
1.303 -0.336 -0.555
0.332 -0.067 -0.141
0.324 -0.062 -0.138
0.299 -0.054 -0.127
0.286 -0.049 -0.121
0.288 -0.047 -0.122
0.288 -0.044 -0.122
0.295 -0.043 -0.125
0.291 -0.039 -0.123
0.291 -0.037 -0.123
0.318 -0.034 -0.134
0.302 -0.029 -0.127
0.298 -0.026 -0.125
0.298 -0.023 -0.126
0.302 -0.021 -0.127
0.296 -0.018 -0.125
0.310 -0.016 -0.131
0.314 -0.013 -0.132
0.304 -0.010 -0.128
0.300 -0.007 -0.126
0.300 -0.004 -0.126
0.309 -0.001 -0.130
0.308 0.002 -0.130
0.305 0.004 -0.128
0.300 0.007 -0.126
0.297 0.010 -0.125
0.299 0.013 -0.126
0.302 0.016 -0.127
0.302 0.024 -0.127
0.309 0.027 -0.131
0.322 0.035 -0.136
0.298 0.038 -0.126
0.318 0.043 -0.134
0.323 0.047 -0.137
0.308 0.051 -0.131
0.300 0.055 -0.127
0.310 0.066 -0.132
0.311 0.069 -0.133
0.313 0.072 -0.134
0.321 0.077 -0.137
0.324 0.081 -0.138
0.320 0.083 -0.137
0.312 0.084 -0.134
0.305 0.085 -0.131
0.307 0.089 -0.132
0.312 0.094 -0.134
0.319 0.099 -0.137
0.318 0.108 -0.137
0.292 0.102 -0.127
0.282 0.101 -0.122
0.341 0.147 -0.150
0.316 0.171 -0.142
0.282 0.162 -0.128
0.271 0.160 -0.123
0.275 0.165 -0.125
0.258 0.158 -0.118
0.260 0.162 -0.119
0.260 0.165 -0.119
0.261 0.169 -0.120
0.260 0.172 -0.120
0.259 0.175 -0.120
0.256 0.176 -0.119
0.256 0.179 -0.119
0.249 0.177 -0.117
0.247 0.179 -0.116
0.246 0.181 -0.116
0.271 0.204 -0.129
0.277 0.212 -0.132
0.274 0.214 -0.131
0.255 0.203 -0.122
0.248 0.200 -0.119
0.239 0.196 -0.115
0.227 0.190 -0.110
0.223 0.190 -0.109
0.223 0.193 -0.109
0.225 0.198 -0.111
0.228 0.204 -0.113
0.227 0.207 -0.113
0.219 0.203 -0.109
0.219 0.207 -0.110
0.217 0.208 -0.109
0.215 0.210 -0.109
0.212 0.210 -0.108
0.207 0.209 -0.106
0.205 0.211 -0.106
0.232 0.247 -0.121
0.213 0.238 -0.113
0.212 0.240 -0.113
0.216 0.249 -0.116
0.215 0.264 -0.117
0.315 -0.335 -0.157
0.322 -0.327 -0.158
0.330 -0.330 -0.162
0.338 -0.332 -0.165
0.336 -0.325 -0.163
0.326 -0.310 -0.157
0.328 -0.307 -0.158
0.332 -0.307 -0.159
0.334 -0.303 -0.159
0.331 -0.296 -0.157
0.328 -0.288 -0.155
0.325 -0.281 -0.153
0.323 -0.275 -0.151
0.322 -0.270 -0.150
0.323 -0.266 -0.151
0.322 -0.261 -0.149
0.317 -0.252 -0.146
0.320 -0.251 -0.147
0.320 -0.247 -0.147
0.317 -0.240 -0.145
0.318 -0.237 -0.145
0.315 -0.231 -0.143
0.315 -0.227 -0.143
0.315 -0.223 -0.142
0.313 -0.217 -0.141
0.309 -0.211 -0.139
0.302 -0.202 -0.135
0.217 -0.138 -0.096
0.208 -0.130 -0.092
0.209 -0.128 -0.092
0.211 -0.127 -0.093
0.299 -0.173 -0.131
0.300 -0.170 -0.131
0.302 -0.167 -0.132
0.305 -0.166 -0.133
0.306 -0.163 -0.133
0.309 -0.161 -0.134
0.312 -0.159 -0.135
0.315 -0.157 -0.136
0.317 -0.155 -0.136
0.320 -0.153 -0.138
0.321 -0.150 -0.138
0.326 -0.149 -0.140
0.329 -0.147 -0.141
0.330 -0.144 -0.141
0.293 -0.122 -0.125
0.351 -0.132 -0.148
0.362 -0.132 -0.152
0.370 -0.132 -0.156
0.377 -0.130 -0.159
0.383 -0.128 -0.161
0.384 -0.125 -0.161
0.383 -0.121 -0.160
0.392 -0.120 -0.164
1.294 -0.383 -0.541
1.298 -0.372 -0.542
1.301 -0.360 -0.543
1.302 -0.348 -0.543
1.285 -0.331 -0.535
0.329 -0.066 -0.136
0.328 -0.063 -0.136
0.285 -0.052 -0.118
0.291 -0.050 -0.120
0.294 -0.048 -0.121
0.293 -0.045 -0.121
0.286 -0.041 -0.118
0.284 -0.038 -0.117
0.284 -0.036 -0.117
0.295 -0.034 -0.122
0.300 -0.032 -0.123
0.295 -0.029 -0.122
0.292 -0.026 -0.120
0.299 -0.023 -0.123
0.297 -0.021 -0.122
0.309 -0.019 -0.127
0.307 -0.016 -0.126
0.308 -0.013 -0.127
0.301 -0.010 -0.124
0.300 -0.007 -0.123
0.302 -0.004 -0.124
0.313 -0.001 -0.129
0.312 0.002 -0.129
0.303 0.004 -0.125
0.306 0.007 -0.126
0.312 0.010 -0.128
0.311 0.013 -0.128
0.314 0.016 -0.129
0.318 0.019 -0.131
0.309 0.022 -0.127
0.309 0.030 -0.127
0.300 0.038 -0.124
0.305 0.041 -0.126
0.311 0.051 -0.129
0.292 0.053 -0.121
0.302 0.058 -0.126
0.301 0.061 -0.125
0.311 0.066 -0.129
0.314 0.069 -0.131
0.321 0.074 -0.134
0.335 0.081 -0.140
0.337 0.084 -0.141
0.328 0.085 -0.137
0.316 0.085 -0.132
0.319 0.089 -0.133
0.308 0.089 -0.129
0.299 0.089 -0.126
0.307 0.098 -0.129
0.333 0.109 -0.140
0.318 0.108 -0.134
0.293 0.102 -0.124
0.281 0.101 -0.119
0.293 0.108 -0.124
0.335 0.145 -0.144
0.331 0.146 -0.142
0.302 0.160 -0.132
0.290 0.157 -0.127
0.280 0.155 -0.123
0.278 0.157 -0.122
0.276 0.159 -0.122
0.276 0.162 -0.122
0.276 0.166 -0.123
0.277 0.169 -0.123
0.270 0.168 -0.121
0.271 0.172 -0.122
0.269 0.174 -0.121
0.269 0.178 -0.121
0.262 0.176 -0.118
0.265 0.182 -0.120
0.257 0.179 -0.117
0.255 0.181 -0.117
0.257 0.186 -0.118
0.250 0.184 -0.115
0.260 0.195 -0.120
0.277 0.212 -0.129
0.278 0.216 -0.129
0.263 0.208 -0.123
0.259 0.208 -0.121
0.234 0.195 -0.111
0.227 0.193 -0.108
0.227 0.196 -0.109
0.229 0.201 -0.110
0.233 0.208 -0.112
0.232 0.211 -0.112
0.231 0.213 -0.112
0.227 0.213 -0.111
0.226 0.217 -0.111
0.221 0.215 -0.109
0.219 0.217 -0.109
0.214 0.215 -0.107
0.215 0.220 -0.108
0.324 -0.359 -0.160
0.332 -0.358 -0.162
0.328 -0.348 -0.159
0.328 -0.343 -0.159
0.328 -0.337 -0.158
0.330 -0.335 -0.158
0.334 -0.333 -0.160
0.337 -0.331 -0.160
0.334 -0.323 -0.158
0.328 -0.312 -0.155
0.326 -0.306 -0.153
0.322 -0.297 -0.151
0.326 -0.296 -0.152
0.328 -0.293 -0.152
0.327 -0.287 -0.151
0.324 -0.280 -0.149
0.322 -0.274 -0.147
0.321 -0.268 -0.146
0.321 -0.264 -0.146
0.321 -0.259 -0.145
0.318 -0.253 -0.143
0.319 -0.249 -0.143
0.321 -0.246 -0.144
0.319 -0.241 -0.143
0.312 -0.232 -0.139
0.313 -0.228 -0.139
0.314 -0.225 -0.139
0.314 -0.222 -0.138
0.311 -0.216 -0.137
0.305 -0.207 -0.133
0.299 -0.200 -0.130
0.219 -0.139 -0.095
0.210 -0.131 -0.091
0.208 -0.127 -0.089
0.207 -0.124 -0.089
0.216 -0.127 -0.093
0.290 -0.167 -0.124
0.294 -0.166 -0.125
0.298 -0.165 -0.127
0.302 -0.164 -0.128
0.305 -0.162 -0.129
0.308 -0.160 -0.130
0.311 -0.158 -0.131
0.313 -0.156 -0.132
0.316 -0.154 -0.133
0.318 -0.152 -0.133
0.320 -0.150 -0.134
0.325 -0.148 -0.135
0.331 -0.148 -0.138
0.334 -0.145 -0.139
0.272 -0.108 -0.113
0.351 -0.132 -0.145
0.355 -0.130 -0.146
0.361 -0.128 -0.148
0.376 -0.130 -0.154
0.377 -0.126 -0.155
0.381 -0.124 -0.156
0.385 -0.121 -0.157
0.393 -0.120 -0.160
0.401 -0.119 -0.164
1.293 -0.370 -0.527
1.293 -0.357 -0.526
1.291 -0.345 -0.525
1.292 -0.332 -0.525
0.340 -0.068 -0.137
0.335 -0.064 -0.135
0.282 -0.051 -0.114
0.285 -0.049 -0.115
0.295 -0.048 -0.119
0.296 -0.045 -0.119
0.285 -0.041 -0.115
0.280 -0.038 -0.113
0.285 -0.036 -0.115
0.292 -0.034 -0.117
0.296 -0.032 -0.119
0.296 -0.029 -0.119
0.292 -0.026 -0.117
0.289 -0.023 -0.116
0.312 -0.022 -0.125
0.299 -0.018 -0.120
0.293 -0.015 -0.118
0.293 -0.012 -0.117
0.296 -0.010 -0.119
0.300 -0.007 -0.120
0.304 -0.004 -0.122
0.288 -0.001 -0.116
0.307 0.001 -0.123
0.306 0.004 -0.123
0.312 0.007 -0.125
0.325 0.011 -0.131
0.318 0.019 -0.128
0.308 0.022 -0.124
0.302 0.024 -0.122
0.296 0.026 -0.119
0.308 0.033 -0.124
0.310 0.042 -0.125
0.314 0.048 -0.127
0.315 0.052 -0.127
0.308 0.053 -0.125
0.290 0.056 -0.117
0.297 0.060 -0.120
0.305 0.064 -0.124
0.310 0.068 -0.126
0.315 0.073 -0.128
0.334 0.080 -0.136
0.333 0.083 -0.136
0.329 0.085 -0.134
0.330 0.089 -0.135
0.332 0.092 -0.136
0.323 0.093 -0.132
0.304 0.091 -0.124
0.295 0.091 -0.121
0.303 0.097 -0.125
0.305 0.100 -0.126
0.313 0.106 -0.129
0.301 0.105 -0.124
0.315 0.136 -0.132
0.330 0.146 -0.138
0.321 0.145 -0.135
0.302 0.140 -0.127
0.289 0.137 -0.122
0.293 0.142 -0.124
0.303 0.150 -0.129
0.296 0.150 -0.125
0.298 0.154 -0.127
0.295 0.156 -0.126
0.288 0.155 -0.123
0.282 0.156 -0.121
0.282 0.159 -0.121
0.283 0.162 -0.122
0.282 0.165 -0.122
0.281 0.168 -0.122
0.282 0.172 -0.122
0.278 0.173 -0.121
0.275 0.174 -0.120
0.277 0.179 -0.121
0.273 0.180 -0.120
0.275 0.184 -0.121
0.265 0.181 -0.117
0.261 0.181 -0.116
0.260 0.187 -0.116
0.258 0.190 -0.116
0.265 0.198 -0.120
0.233 0.200 -0.108
0.234 0.205 -0.109
0.237 0.211 -0.112
0.239 0.217 -0.113
0.227 0.217 -0.109
0.244 0.237 -0.117
0.328 -0.390 -0.161
0.333 -0.392 -0.163
0.336 -0.383 -0.163
0.333 -0.375 -0.161
0.330 -0.366 -0.159
0.331 -0.361 -0.158
0.331 -0.356 -0.158
0.334 -0.353 -0.158
0.331 -0.345 -0.156
0.330 -0.339 -0.155
0.332 -0.336 -0.155
0.334 -0.332 -0.155
0.331 -0.324 -0.153
0.327 -0.315 -0.151
0.324 -0.307 -0.149
0.321 -0.300 -0.147
0.320 -0.295 -0.146
0.320 -0.289 -0.145
0.323 -0.288 -0.146
0.323 -0.283 -0.145
0.323 -0.278 -0.145
0.323 -0.274 -0.144
0.322 -0.269 -0.143
0.320 -0.262 -0.142
0.320 -0.258 -0.141
0.320 -0.254 -0.141
0.318 -0.248 -0.139
0.320 -0.246 -0.140
0.315 -0.238 -0.137
0.315 -0.233 -0.136
0.312 -0.227 -0.135
0.311 -0.223 -0.134
0.312 -0.220 -0.134
0.310 -0.215 -0.133
0.305 -0.208 -0.130
0.300 -0.200 -0.128
0.289 -0.190 -0.123
0.212 -0.131 -0.089
0.210 -0.128 -0.088
0.212 -0.127 -0.089
0.213 -0.125 -0.089
0.256 -0.142 -0.106
0.260 -0.141 -0.107
0.301 -0.160 -0.124
0.305 -0.159 -0.126
0.307 -0.156 -0.126
0.311 -0.155 -0.127
0.315 -0.153 -0.129
0.318 -0.152 -0.130
0.321 -0.150 -0.131
0.326 -0.148 -0.133
0.330 -0.147 -0.134
0.338 -0.147 -0.137
0.306 -0.127 -0.124
0.354 -0.132 -0.142
0.355 -0.129 -0.143
0.359 -0.127 -0.144
0.368 -0.127 -0.147
0.377 -0.126 -0.151
0.382 -0.124 -0.152
0.389 -0.122 -0.155
0.393 -0.120 -0.156
0.398 -0.118 -0.158
1.290 -0.356 -0.512
1.293 -0.345 -0.513
1.299 -0.334 -0.515
0.361 -0.072 -0.142
0.293 -0.053 -0.115
0.282 -0.048 -0.111
0.291 -0.047 -0.115
0.293 -0.045 -0.115
0.292 -0.042 -0.115
0.291 -0.039 -0.114
0.288 -0.036 -0.113
0.293 -0.034 -0.115
0.301 -0.032 -0.118
0.313 -0.030 -0.123
0.301 -0.026 -0.118
0.285 -0.022 -0.112
0.299 -0.021 -0.117
0.286 -0.017 -0.112
0.287 -0.015 -0.112
0.290 -0.012 -0.113
0.300 -0.010 -0.117
0.308 -0.007 -0.120
0.289 -0.001 -0.113
0.292 0.001 -0.114
0.312 0.004 -0.122
0.320 0.007 -0.125
0.304 0.018 -0.119
0.297 0.021 -0.116
0.295 0.023 -0.116
0.295 0.026 -0.116
0.296 0.029 -0.116
0.314 0.034 -0.123
0.329 0.038 -0.129
0.317 0.040 -0.125
0.319 0.043 -0.125
0.309 0.053 -0.122
0.302 0.055 -0.119
0.295 0.057 -0.117
0.295 0.059 -0.117
0.306 0.064 -0.121
0.312 0.069 -0.124
0.318 0.073 -0.126
0.318 0.076 -0.126
0.321 0.080 -0.128
0.321 0.083 -0.128
0.324 0.087 -0.129
0.324 0.090 -0.129
0.321 0.092 -0.128
0.320 0.095 -0.128
0.310 0.095 -0.124
0.325 0.103 -0.130
0.315 0.103 -0.126
0.310 0.105 -0.125
0.326 0.113 -0.131
0.331 0.119 -0.133
0.325 0.120 -0.131
0.334 0.130 -0.135
0.321 0.128 -0.130
0.318 0.130 -0.129
0.314 0.132 -0.128
0.316 0.136 -0.129
0.321 0.141 -0.131
0.310 0.140 -0.127
0.302 0.140 -0.124
0.297 0.140 -0.122
0.295 0.143 -0.122
0.297 0.147 -0.123
0.300 0.151 -0.124
0.297 0.153 -0.123
0.296 0.156 -0.123
0.293 0.158 -0.122
0.291 0.160 -0.122
0.293 0.165 -0.123
0.298 0.171 -0.125
0.295 0.173 -0.124
0.290 0.173 -0.123
0.286 0.174 -0.121
0.283 0.176 -0.120
0.283 0.179 -0.121
0.282 0.182 -0.121
0.288 0.189 -0.124
0.285 0.191 -0.123
0.336 -0.422 -0.164
0.332 -0.412 -0.161
0.330 -0.404 -0.159
0.329 -0.397 -0.159
0.327 -0.389 -0.157
0.330 -0.387 -0.158
0.337 -0.384 -0.159
0.334 -0.375 -0.157
0.329 -0.364 -0.154
0.327 -0.357 -0.153
0.330 -0.354 -0.153
0.331 -0.350 -0.153
0.330 -0.343 -0.152
0.328 -0.336 -0.150
0.330 -0.332 -0.150
0.328 -0.326 -0.149
0.324 -0.316 -0.146
0.323 -0.310 -0.145
0.321 -0.304 -0.143
0.320 -0.298 -0.143
0.317 -0.291 -0.141
0.318 -0.287 -0.140
0.319 -0.283 -0.140
0.321 -0.281 -0.141
0.322 -0.277 -0.141
0.323 -0.274 -0.141
0.321 -0.267 -0.139
0.319 -0.261 -0.138
0.319 -0.257 -0.137
0.317 -0.251 -0.136
0.316 -0.246 -0.135
0.313 -0.240 -0.133
0.313 -0.236 -0.133
0.313 -0.232 -0.132
0.310 -0.225 -0.130
0.309 -0.221 -0.130
0.309 -0.217 -0.129
0.308 -0.213 -0.128
0.306 -0.207 -0.127
0.300 -0.200 -0.124
0.294 -0.193 -0.122
0.213 -0.132 -0.088
0.210 -0.128 -0.086
0.209 -0.125 -0.085
0.212 -0.124 -0.086
0.226 -0.130 -0.092
0.248 -0.140 -0.101
0.246 -0.135 -0.099
0.247 -0.133 -0.100
0.255 -0.135 -0.103
0.301 -0.156 -0.121
0.306 -0.155 -0.122
0.309 -0.154 -0.124
0.315 -0.153 -0.126
0.318 -0.152 -0.127
0.321 -0.150 -0.128
0.325 -0.148 -0.129
0.331 -0.147 -0.131
0.333 -0.145 -0.132
0.354 -0.132 -0.139
0.356 -0.129 -0.139
0.359 -0.127 -0.140
0.367 -0.126 -0.143
0.376 -0.126 -0.146
0.380 -0.123 -0.148
0.386 -0.121 -0.150
0.391 -0.119 -0.152
0.393 -0.116 -0.152
0.402 -0.115 -0.156
1.299 -0.346 -0.502
1.282 -0.329 -0.495
0.371 -0.074 -0.143
0.293 -0.053 -0.112
0.289 -0.049 -0.111
0.287 -0.046 -0.110
0.293 -0.045 -0.112
0.292 -0.042 -0.112
0.291 -0.039 -0.112
0.289 -0.036 -0.111
0.289 -0.033 -0.111
0.305 -0.032 -0.117
0.308 -0.030 -0.118
0.302 -0.026 -0.115
0.293 -0.023 -0.112
0.292 -0.020 -0.112
0.297 -0.018 -0.113
0.294 -0.015 -0.112
0.298 -0.012 -0.114
0.309 -0.010 -0.118
0.323 -0.007 -0.123
0.318 -0.004 -0.121
0.304 -0.001 -0.116
0.315 0.004 -0.120
0.326 0.008 -0.124
0.306 0.010 -0.117
0.294 0.012 -0.112
0.287 0.015 -0.110
0.289 0.017 -0.110
0.288 0.020 -0.110
0.293 0.023 -0.112
0.299 0.026 -0.114
0.309 0.030 -0.118
0.315 0.034 -0.121
0.319 0.037 -0.122
0.317 0.040 -0.122
0.315 0.042 -0.121
0.322 0.046 -0.124
0.312 0.048 -0.120
0.297 0.048 -0.114
0.302 0.058 -0.116
0.292 0.059 -0.113
0.305 0.064 -0.118
0.317 0.070 -0.122
0.322 0.074 -0.125
0.319 0.076 -0.123
0.309 0.077 -0.120
0.313 0.081 -0.121
0.319 0.086 -0.124
0.312 0.087 -0.121
0.311 0.090 -0.121
0.320 0.099 -0.125
0.323 0.106 -0.126
0.316 0.106 -0.124
0.319 0.111 -0.125
0.327 0.117 -0.129
0.328 0.120 -0.129
0.321 0.121 -0.126
0.316 0.123 -0.125
0.328 0.131 -0.130
0.324 0.132 -0.128
0.320 0.134 -0.127
0.315 0.135 -0.125
0.316 0.139 -0.126
0.313 0.141 -0.125
0.305 0.141 -0.122
0.303 0.143 -0.121
0.300 0.145 -0.121
0.303 0.150 -0.122
0.299 0.151 -0.121
0.296 0.153 -0.120
0.299 0.157 -0.121
0.301 0.162 -0.122
0.308 0.172 -0.126
0.307 0.175 -0.126
0.319 -0.423 -0.154
0.321 -0.419 -0.154
0.332 -0.428 -0.159
0.342 -0.435 -0.163
0.342 -0.430 -0.162
0.338 -0.418 -0.160
0.333 -0.407 -0.157
0.337 -0.405 -0.158
0.331 -0.393 -0.154
0.332 -0.389 -0.154
0.332 -0.383 -0.154
0.330 -0.375 -0.152
0.331 -0.370 -0.152
0.328 -0.362 -0.150
0.327 -0.355 -0.148
0.328 -0.352 -0.148
0.329 -0.347 -0.148
0.327 -0.340 -0.146
0.325 -0.333 -0.145
0.325 -0.327 -0.144
0.323 -0.320 -0.143
0.322 -0.314 -0.141
0.321 -0.308 -0.141
0.321 -0.303 -0.140
0.319 -0.297 -0.138
0.318 -0.291 -0.137
0.316 -0.285 -0.136
0.318 -0.282 -0.136
0.320 -0.279 -0.137
0.320 -0.275 -0.136
0.319 -0.269 -0.135
0.318 -0.264 -0.134
0.318 -0.260 -0.134
0.312 -0.250 -0.130
0.312 -0.247 -0.130
0.313 -0.243 -0.130
0.311 -0.238 -0.129
0.311 -0.234 -0.128
0.309 -0.229 -0.127
0.308 -0.223 -0.126
0.307 -0.219 -0.126
0.306 -0.215 -0.125
0.304 -0.209 -0.123
0.301 -0.204 -0.122
0.298 -0.198 -0.121
0.286 -0.187 -0.115
0.222 -0.137 -0.089
0.209 -0.127 -0.083
0.209 -0.124 -0.083
0.210 -0.123 -0.083
0.215 -0.123 -0.085
0.250 -0.141 -0.099
0.245 -0.135 -0.097
0.245 -0.132 -0.096
0.248 -0.131 -0.097
0.305 -0.155 -0.119
0.310 -0.154 -0.121
0.315 -0.153 -0.122
0.319 -0.152 -0.124
0.321 -0.149 -0.124
0.323 -0.147 -0.125
0.326 -0.145 -0.126
0.333 -0.144 -0.128
0.355 -0.132 -0.135
0.355 -0.129 -0.135
0.358 -0.127 -0.136
0.364 -0.125 -0.138
0.374 -0.125 -0.142
0.375 -0.121 -0.142
0.379 -0.119 -0.144
0.390 -0.119 -0.148
0.397 -0.117 -0.150
0.402 -0.115 -0.152
0.417 -0.115 -0.157
0.360 -0.075 -0.135
0.361 -0.072 -0.135
0.348 -0.066 -0.130
0.297 -0.054 -0.111
0.291 -0.050 -0.109
0.291 -0.047 -0.109
0.290 -0.044 -0.108
0.287 -0.041 -0.107
0.288 -0.039 -0.107
0.288 -0.036 -0.107
0.295 -0.034 -0.110
0.300 -0.032 -0.112
0.307 -0.030 -0.114
0.303 -0.027 -0.113
0.296 -0.023 -0.110
0.295 -0.020 -0.110
0.303 -0.018 -0.113
0.301 -0.015 -0.112
0.303 -0.013 -0.113
0.322 -0.010 -0.120
0.326 -0.007 -0.121
0.328 -0.004 -0.122
0.322 -0.001 -0.120
0.317 0.002 -0.118
0.322 0.005 -0.120
0.314 0.007 -0.117
0.306 0.010 -0.114
0.293 0.012 -0.109
0.293 0.015 -0.109
0.293 0.018 -0.109
0.296 0.021 -0.110
0.296 0.023 -0.110
0.304 0.027 -0.114
0.312 0.030 -0.116
0.310 0.033 -0.116
0.309 0.036 -0.116
0.307 0.038 -0.115
0.318 0.043 -0.119
0.309 0.044 -0.116
0.298 0.046 -0.112
0.286 0.046 -0.107
0.296 0.051 -0.111
0.312 0.057 -0.117
0.302 0.061 -0.114
0.306 0.064 -0.115
0.312 0.069 -0.118
0.319 0.076 -0.120
0.308 0.077 -0.116
0.311 0.080 -0.117
0.320 0.086 -0.121
0.314 0.087 -0.119
0.308 0.089 -0.117
0.324 0.103 -0.123
0.319 0.104 -0.122
0.313 0.105 -0.120
0.301 0.104 -0.115
0.319 0.117 -0.122
0.327 0.123 -0.126
0.318 0.123 -0.123
0.326 0.129 -0.125
0.330 0.134 -0.127
0.320 0.134 -0.124
0.316 0.136 -0.123
0.317 0.139 -0.123
0.317 0.142 -0.123
0.311 0.143 -0.121
0.309 0.145 -0.121
0.308 0.149 -0.121
0.305 0.150 -0.120
0.301 0.152 -0.118
0.298 0.153 -0.118
0.332 0.182 -0.132
0.330 -0.441 -0.155
0.329 -0.435 -0.155
0.331 -0.432 -0.155
0.332 -0.428 -0.155
0.337 -0.429 -0.157
0.338 -0.424 -0.156
0.337 -0.416 -0.155
0.337 -0.411 -0.154
0.336 -0.404 -0.153
0.337 -0.399 -0.153
0.334 -0.390 -0.151
0.329 -0.379 -0.148
0.331 -0.375 -0.148
0.331 -0.370 -0.147
0.329 -0.362 -0.146
0.327 -0.355 -0.145
0.326 -0.348 -0.143
0.327 -0.344 -0.143
0.326 -0.338 -0.142
0.325 -0.331 -0.141
0.324 -0.325 -0.140
0.322 -0.319 -0.138
0.320 -0.311 -0.137
0.320 -0.307 -0.136
0.319 -0.301 -0.135
0.318 -0.295 -0.134
0.318 -0.291 -0.134
0.318 -0.286 -0.133
0.318 -0.281 -0.133
0.319 -0.278 -0.132
0.317 -0.271 -0.131
0.316 -0.266 -0.130
0.314 -0.261 -0.129
0.309 -0.252 -0.126
0.308 -0.247 -0.125
0.310 -0.245 -0.126
0.311 -0.241 -0.126
0.311 -0.237 -0.125
0.309 -0.232 -0.124
0.307 -0.226 -0.123
0.306 -0.222 -0.122
0.305 -0.217 -0.121
0.303 -0.212 -0.120
0.301 -0.207 -0.119
0.300 -0.203 -0.118
0.298 -0.198 -0.117
0.293 -0.191 -0.115
0.209 -0.127 -0.081
0.208 -0.124 -0.081
0.210 -0.122 -0.081
0.215 -0.123 -0.083
0.254 -0.142 -0.098
0.244 -0.134 -0.094
0.244 -0.132 -0.093
0.245 -0.130 -0.094
0.260 -0.134 -0.099
0.306 -0.155 -0.116
0.309 -0.153 -0.117
0.315 -0.153 -0.119
0.318 -0.151 -0.120
0.320 -0.149 -0.121
0.320 -0.145 -0.121
0.321 -0.142 -0.120
0.333 -0.144 -0.125
0.310 -0.128 -0.116
0.319 -0.122 -0.119
0.353 -0.132 -0.131
0.356 -0.129 -0.132
0.359 -0.127 -0.133
0.366 -0.126 -0.136
0.369 -0.123 -0.136
0.372 -0.120 -0.137
0.377 -0.118 -0.139
0.393 -0.119 -0.145
0.405 -0.119 -0.149
0.408 -0.116 -0.150
0.419 -0.115 -0.154
0.430 -0.114 -0.158
0.382 -0.083 -0.139
0.371 -0.077 -0.135
0.362 -0.072 -0.132
0.358 -0.068 -0.131
0.298 -0.054 -0.109
0.290 -0.050 -0.106
0.289 -0.047 -0.105
0.283 -0.043 -0.103
0.279 -0.040 -0.101
0.281 -0.038 -0.102
0.285 -0.035 -0.103
0.291 -0.034 -0.106
0.302 -0.032 -0.110
0.307 -0.030 -0.111
0.308 -0.027 -0.112
0.314 -0.025 -0.114
0.309 -0.021 -0.112
0.295 -0.018 -0.107
0.302 -0.015 -0.110
0.309 -0.013 -0.112
0.312 -0.010 -0.113
0.322 -0.007 -0.117
0.321 -0.004 -0.116
0.313 -0.001 -0.113
0.307 0.001 -0.111
0.300 0.004 -0.109
0.316 0.007 -0.114
0.308 0.010 -0.112
0.310 0.013 -0.112
0.316 0.016 -0.115
0.324 0.019 -0.118
0.308 0.021 -0.112
0.308 0.024 -0.112
0.305 0.027 -0.111
0.308 0.030 -0.112
0.318 0.034 -0.116
0.314 0.036 -0.114
0.311 0.039 -0.113
0.316 0.042 -0.115
0.300 0.043 -0.109
0.285 0.044 -0.104
0.284 0.046 -0.104
0.305 0.052 -0.111
0.316 0.057 -0.116
0.319 0.061 -0.117
0.313 0.063 -0.114
0.313 0.066 -0.115
0.312 0.068 -0.114
0.303 0.069 -0.111
0.306 0.073 -0.112
0.315 0.078 -0.116
0.317 0.082 -0.117
0.314 0.084 -0.116
0.310 0.086 -0.114
0.310 0.089 -0.115
0.316 0.094 -0.117
0.320 0.098 -0.118
0.315 0.100 -0.117
0.306 0.100 -0.114
0.302 0.101 -0.112
0.294 0.102 -0.109
0.292 0.104 -0.109
0.321 0.118 -0.120
0.312 0.118 -0.117
0.318 0.123 -0.119
0.325 0.129 -0.122
0.328 0.133 -0.123
0.323 0.135 -0.122
0.324 0.139 -0.122
0.326 0.143 -0.123
0.322 0.144 -0.122
0.314 0.144 -0.119
0.315 0.148 -0.120
0.322 0.155 -0.123
0.314 0.154 -0.120
0.340 0.175 -0.130
0.334 -0.447 -0.153
0.335 -0.442 -0.153
0.335 -0.437 -0.153
0.333 -0.428 -0.151
0.330 -0.419 -0.149
0.332 -0.416 -0.149
0.334 -0.412 -0.150
0.334 -0.407 -0.149
0.335 -0.402 -0.149
0.334 -0.396 -0.148
0.332 -0.388 -0.146
0.330 -0.380 -0.145
0.331 -0.375 -0.144
0.332 -0.370 -0.144
0.329 -0.362 -0.142
0.321 -0.347 -0.138
0.324 -0.346 -0.139
0.325 -0.341 -0.138
0.325 -0.336 -0.138
0.324 -0.329 -0.136
0.322 -0.323 -0.135
0.320 -0.316 -0.134
0.319 -0.310 -0.133
0.317 -0.304 -0.131
0.316 -0.298 -0.130
0.318 -0.295 -0.131
0.316 -0.288 -0.129
0.316 -0.284 -0.129
0.318 -0.280 -0.129
0.315 -0.273 -0.127
0.314 -0.268 -0.126
0.314 -0.265 -0.126
0.312 -0.259 -0.125
0.310 -0.253 -0.123
0.308 -0.246 -0.122
0.309 -0.244 -0.122
0.311 -0.241 -0.122
0.309 -0.236 -0.121
0.307 -0.230 -0.120
0.306 -0.225 -0.119
0.303 -0.219 -0.118
0.302 -0.215 -0.117
0.300 -0.210 -0.116
0.299 -0.205 -0.115
0.297 -0.201 -0.114
0.298 -0.197 -0.114
0.299 -0.194 -0.114
0.210 -0.127 -0.079
0.207 -0.123 -0.078
0.209 -0.122 -0.079
0.214 -0.122 -0.080
0.249 -0.139 -0.093
0.245 -0.135 -0.091
0.244 -0.131 -0.091
0.245 -0.129 -0.091
0.251 -0.129 -0.093
0.305 -0.154 -0.113
0.309 -0.153 -0.114
0.313 -0.152 -0.115
0.317 -0.150 -0.116
0.319 -0.148 -0.117
0.320 -0.145 -0.117
0.320 -0.142 -0.117
0.329 -0.143 -0.120
0.348 -0.129 -0.126
0.356 -0.129 -0.129
0.361 -0.127 -0.130
0.365 -0.125 -0.132
0.367 -0.122 -0.132
0.370 -0.120 -0.133
0.378 -0.119 -0.136
0.397 -0.121 -0.142
0.405 -0.119 -0.145
0.423 -0.120 -0.151
0.423 -0.116 -0.151
0.433 -0.115 -0.155
0.438 -0.112 -0.156
0.394 -0.086 -0.140
0.380 -0.079 -0.135
0.377 -0.075 -0.134
0.293 -0.053 -0.104
0.288 -0.049 -0.102
0.287 -0.046 -0.102
0.282 -0.043 -0.100
0.281 -0.040 -0.099
0.283 -0.038 -0.100
0.287 -0.036 -0.101
0.289 -0.033 -0.102
0.299 -0.032 -0.106
0.304 -0.029 -0.107
0.311 -0.027 -0.110
0.316 -0.025 -0.111
0.316 -0.022 -0.111
0.323 -0.016 -0.114
0.311 -0.013 -0.110
0.305 -0.010 -0.107
0.305 -0.007 -0.108
0.310 -0.004 -0.109
0.297 -0.001 -0.105
0.293 0.001 -0.103
0.304 0.004 -0.107
0.313 0.007 -0.111
0.324 0.010 -0.114
0.317 0.013 -0.112
0.322 0.016 -0.114
0.325 0.019 -0.115
0.309 0.021 -0.109
0.307 0.024 -0.109
0.312 0.027 -0.110
0.317 0.031 -0.112
0.320 0.034 -0.113
0.320 0.037 -0.113
0.307 0.038 -0.109
0.311 0.042 -0.110
0.308 0.044 -0.109
0.295 0.045 -0.105
0.297 0.048 -0.105
0.309 0.053 -0.110
0.319 0.058 -0.113
0.318 0.060 -0.113
0.318 0.064 -0.113
0.322 0.067 -0.115
0.312 0.068 -0.111
0.304 0.069 -0.109
0.293 0.070 -0.105
0.311 0.077 -0.111
0.323 0.083 -0.116
0.307 0.082 -0.110
0.303 0.084 -0.109
0.307 0.088 -0.110
0.305 0.090 -0.110
0.306 0.097 -0.110
0.300 0.098 -0.108
0.299 0.100 -0.108
0.291 0.101 -0.105
0.290 0.103 -0.105
0.283 0.103 -0.103
0.320 0.120 -0.116
0.314 0.121 -0.114
0.343 0.150 -0.126
0.337 0.151 -0.124
0.334 -0.452 -0.150
0.332 -0.444 -0.148
0.334 -0.441 -0.148
0.337 -0.439 -0.149
0.334 -0.429 -0.147
0.329 -0.417 -0.144
0.326 -0.408 -0.143
0.331 -0.408 -0.144
0.330 -0.401 -0.143
0.330 -0.395 -0.142
0.332 -0.392 -0.143
0.329 -0.383 -0.141
0.329 -0.378 -0.140
0.331 -0.375 -0.140
0.333 -0.371 -0.140
0.328 -0.360 -0.138
0.324 -0.350 -0.135
0.321 -0.342 -0.134
0.323 -0.338 -0.133
0.322 -0.333 -0.133
0.320 -0.325 -0.131
0.318 -0.318 -0.130
0.318 -0.313 -0.129
0.317 -0.307 -0.128
0.315 -0.301 -0.127
0.314 -0.295 -0.126
0.314 -0.290 -0.125
0.317 -0.289 -0.126
0.315 -0.282 -0.125
0.311 -0.275 -0.123
0.310 -0.269 -0.122
0.314 -0.268 -0.123
0.314 -0.264 -0.122
0.313 -0.258 -0.121
0.310 -0.252 -0.120
0.310 -0.248 -0.120
0.307 -0.242 -0.118
0.308 -0.238 -0.118
0.306 -0.233 -0.117
0.305 -0.228 -0.116
0.303 -0.223 -0.115
0.302 -0.218 -0.114
0.298 -0.212 -0.112
0.296 -0.206 -0.111
0.294 -0.202 -0.110
0.294 -0.198 -0.110
0.296 -0.196 -0.110
0.294 -0.191 -0.109
0.210 -0.127 -0.077
0.206 -0.122 -0.075
0.207 -0.121 -0.076
0.210 -0.120 -0.076
0.244 -0.136 -0.089
0.245 -0.134 -0.089
0.243 -0.131 -0.088
0.245 -0.129 -0.088
0.250 -0.129 -0.090
0.300 -0.152 -0.108
0.309 -0.153 -0.111
0.311 -0.151 -0.111
0.315 -0.149 -0.113
0.318 -0.147 -0.114
0.319 -0.144 -0.114
0.321 -0.142 -0.114
0.307 -0.132 -0.109
0.303 -0.128 -0.107
0.294 -0.112 -0.104
0.346 -0.129 -0.122
0.352 -0.127 -0.124
0.359 -0.126 -0.126
0.364 -0.125 -0.128
0.367 -0.122 -0.129
0.369 -0.119 -0.129
0.384 -0.120 -0.134
0.394 -0.120 -0.138
0.410 -0.120 -0.143
0.418 -0.119 -0.145
0.431 -0.118 -0.150
0.434 -0.115 -0.151
0.451 -0.115 -0.156
0.391 -0.081 -0.135
0.379 -0.075 -0.131
0.294 -0.053 -0.102
0.289 -0.049 -0.100
0.286 -0.046 -0.098
0.288 -0.044 -0.099
0.291 -0.041 -0.100
0.292 -0.039 -0.101
0.290 -0.036 -0.100
0.298 -0.034 -0.102
0.292 -0.031 -0.100
0.299 -0.029 -0.103
0.308 -0.027 -0.106
0.314 -0.024 -0.108
0.311 -0.021 -0.107
0.341 -0.020 -0.117
0.335 -0.017 -0.115
0.297 -0.010 -0.102
0.294 -0.007 -0.101
0.298 -0.004 -0.102
0.304 -0.001 -0.104
0.299 0.001 -0.103
0.315 0.004 -0.108
0.327 0.008 -0.112
0.328 0.011 -0.113
0.317 0.013 -0.109
0.310 0.016 -0.106
0.309 0.019 -0.106
0.315 0.022 -0.108
0.317 0.025 -0.109
0.313 0.027 -0.108
0.321 0.031 -0.110
0.317 0.034 -0.109
0.309 0.036 -0.106
0.311 0.039 -0.107
0.312 0.042 -0.108
0.308 0.044 -0.106
0.310 0.047 -0.107
0.321 0.052 -0.111
0.322 0.055 -0.111
0.319 0.058 -0.110
0.318 0.061 -0.110
0.321 0.064 -0.111
0.327 0.068 -0.113
0.317 0.069 -0.110
0.307 0.070 -0.107
0.317 0.075 -0.110
0.302 0.075 -0.105
0.311 0.080 -0.108
0.308 0.085 -0.107
0.289 0.085 -0.101
0.282 0.086 -0.099
0.287 0.090 -0.101
0.301 0.098 -0.106
0.297 0.099 -0.104
0.290 0.100 -0.102
0.283 0.101 -0.100
0.279 0.102 -0.099
0.323 0.121 -0.114
0.322 0.124 -0.114
3.092 1.223 -1.098
0.347 0.152 -0.124
0.338 0.151 -0.121
0.355 0.189 -0.129
0.354 0.205 -0.131
0.327 -0.442 -0.142
0.329 -0.439 -0.143
0.331 -0.436 -0.143
0.333 -0.433 -0.143
0.329 -0.422 -0.141
0.327 -0.414 -0.140
0.325 -0.405 -0.138
0.321 -0.395 -0.136
0.325 -0.394 -0.137
0.327 -0.392 -0.137
0.325 -0.383 -0.135
0.324 -0.377 -0.135
0.327 -0.374 -0.135
0.330 -0.372 -0.136
0.327 -0.363 -0.134
0.325 -0.356 -0.133
0.325 -0.350 -0.132
0.318 -0.338 -0.128
0.319 -0.334 -0.128
0.320 -0.329 -0.128
0.318 -0.322 -0.127
0.317 -0.316 -0.126
0.316 -0.311 -0.125
0.315 -0.305 -0.124
0.313 -0.298 -0.122
0.311 -0.292 -0.121
0.311 -0.288 -0.121
0.311 -0.283 -0.120
0.313 -0.280 -0.120
0.308 -0.271 -0.118
0.310 -0.269 -0.118
0.312 -0.266 -0.119
0.313 -0.262 -0.118
0.311 -0.256 -0.117
0.309 -0.251 -0.116
0.306 -0.244 -0.114
0.303 -0.238 -0.113
0.304 -0.235 -0.113
0.303 -0.230 -0.112
0.303 -0.226 -0.112
0.302 -0.222 -0.111
0.300 -0.217 -0.110
0.292 -0.207 -0.107
0.289 -0.202 -0.106
0.286 -0.196 -0.104
0.229 -0.143 -0.082
0.226 -0.139 -0.081
0.211 -0.127 -0.075
0.208 -0.123 -0.074
0.208 -0.121 -0.074
0.209 -0.119 -0.074
0.234 -0.131 -0.083
0.243 -0.133 -0.086
0.243 -0.130 -0.086
0.244 -0.129 -0.086
0.247 -0.127 -0.086
0.308 -0.152 -0.108
0.312 -0.151 -0.109
0.315 -0.149 -0.109
0.318 -0.147 -0.110
0.321 -0.145 -0.111
0.322 -0.142 -0.111
0.322 -0.139 -0.111
0.315 -0.133 -0.108
0.310 -0.127 -0.106
0.298 -0.120 -0.102
0.290 -0.111 -0.099
0.352 -0.127 -0.120
0.357 -0.126 -0.122
0.364 -0.124 -0.124
0.368 -0.122 -0.125
0.375 -0.121 -0.127
0.387 -0.121 -0.131
0.398 -0.121 -0.135
0.407 -0.119 -0.138
0.417 -0.118 -0.141
0.427 -0.117 -0.144
0.441 -0.116 -0.149
0.447 -0.114 -0.151
0.432 -0.106 -0.145
0.371 -0.081 -0.125
0.388 -0.080 -0.130
0.382 -0.076 -0.128
0.298 -0.053 -0.100
0.284 -0.048 -0.095
0.286 -0.046 -0.096
0.292 -0.044 -0.098
0.296 -0.042 -0.099
0.298 -0.040 -0.100
0.296 -0.037 -0.099
0.293 -0.034 -0.098
0.305 -0.032 -0.102
0.306 -0.029 -0.102
0.310 -0.027 -0.103
0.312 -0.024 -0.104
0.318 -0.022 -0.106
0.328 -0.020 -0.109
0.337 -0.017 -0.112
0.291 -0.009 -0.097
0.290 -0.007 -0.097
0.301 -0.004 -0.100
0.309 -0.001 -0.103
0.323 0.002 -0.108
0.320 0.004 -0.107
0.327 0.008 -0.109
0.320 0.010 -0.107
0.305 0.013 -0.102
0.299 0.015 -0.100
0.315 0.019 -0.105
0.315 0.022 -0.105
0.303 0.024 -0.101
0.316 0.028 -0.106
0.319 0.031 -0.107
0.308 0.033 -0.103
0.309 0.036 -0.103
0.312 0.039 -0.104
0.316 0.042 -0.106
0.307 0.044 -0.103
0.304 0.046 -0.102
0.309 0.050 -0.104
0.323 0.055 -0.109
