VERSION .7
FIELDS x y z
SIZE 4 4 4
TYPE F F F
COUNT 1 1 1
WIDTH     2586
HEIGHT 1
VIEWPOINT 0 0 0 1 0 0 0
POINTS     2586
DATA ascii
0.294 0.115 0.074
0.293 0.118 0.074
0.293 0.121 0.074
0.294 0.124 0.074
0.290 0.125 0.073
0.280 0.124 0.071
0.278 0.126 0.071
0.290 0.134 0.074
0.300 0.142 0.077
0.301 0.146 0.077
0.295 0.146 0.075
0.289 0.146 0.074
0.284 0.147 0.073
0.292 0.154 0.075
0.300 0.161 0.078
0.294 0.162 0.076
0.295 0.165 0.077
0.294 0.168 0.076
0.291 0.170 0.076
0.291 0.173 0.076
0.288 0.175 0.076
0.285 0.176 0.075
0.281 0.177 0.074
0.278 0.179 0.074
0.275 0.180 0.073
0.273 0.182 0.073
0.271 0.184 0.073
0.269 0.186 0.072
0.266 0.187 0.072
0.263 0.188 0.071
0.262 0.191 0.071
0.261 0.194 0.071
0.261 0.197 0.072
0.259 0.199 0.071
0.259 0.202 0.071
0.258 0.205 0.072
0.258 0.209 0.072
0.256 0.211 0.072
0.256 0.214 0.072
0.255 0.217 0.072
0.252 0.218 0.071
0.248 0.218 0.071
0.241 0.216 0.069
0.240 0.219 0.069
0.240 0.222 0.069
0.239 0.225 0.070
0.237 0.227 0.069
0.233 0.227 0.068
0.219 0.218 0.065
0.216 0.218 0.064
0.211 0.217 0.063
0.206 0.214 0.062
0.202 0.214 0.061
0.201 0.217 0.061
0.204 0.224 0.063
0.203 0.226 0.063
0.202 0.229 0.063
0.203 0.234 0.064
0.214 0.251 0.068
0.220 0.261 0.070
0.220 0.267 0.070
0.219 0.269 0.070
0.212 0.265 0.069
0.207 0.271 0.068
0.200 0.265 0.066
0.100 -0.138 0.034
0.100 -0.137 0.034
0.101 -0.136 0.034
0.102 -0.135 0.034
0.102 -0.134 0.034
0.102 -0.132 0.034
0.103 -0.131 0.034
0.103 -0.130 0.034
0.102 -0.127 0.033
0.102 -0.125 0.033
0.103 -0.124 0.033
0.102 -0.122 0.033
0.104 -0.121 0.033
0.104 -0.120 0.033
0.103 -0.117 0.033
0.102 -0.114 0.032
0.104 -0.114 0.032
0.107 -0.116 0.033
0.107 -0.114 0.033
0.112 -0.118 0.035
0.267 -0.269 0.081
0.271 -0.268 0.082
0.271 -0.264 0.082
0.275 -0.264 0.082
0.277 -0.262 0.083
0.280 -0.260 0.083
0.278 -0.255 0.082
0.277 -0.249 0.081
0.274 -0.243 0.080
0.275 -0.239 0.080
0.277 -0.237 0.080
0.277 -0.234 0.080
0.273 -0.226 0.078
0.272 -0.223 0.078
0.275 -0.221 0.079
0.222 -0.173 0.063
0.223 -0.170 0.063
0.210 -0.158 0.059
0.207 -0.153 0.058
0.202 -0.147 0.056
0.200 -0.143 0.056
0.203 -0.143 0.056
0.210 -0.145 0.058
0.211 -0.143 0.058
0.209 -0.139 0.057
0.201 -0.132 0.055
0.196 -0.126 0.053
0.197 -0.125 0.054
0.200 -0.124 0.054
0.202 -0.123 0.055
0.202 -0.121 0.055
0.174 -0.102 0.047
0.169 -0.097 0.045
0.168 -0.095 0.045
0.169 -0.094 0.045
0.170 -0.092 0.045
0.170 -0.090 0.045
0.173 -0.090 0.046
0.186 -0.095 0.049
0.206 -0.103 0.054
0.206 -0.101 0.054
0.207 -0.099 0.055
0.209 -0.098 0.055
0.211 -0.097 0.055
0.212 -0.095 0.056
0.198 -0.087 0.052
0.212 -0.091 0.055
0.215 -0.090 0.056
0.217 -0.089 0.056
0.214 -0.085 0.055
0.208 -0.081 0.054
0.194 -0.073 0.050
0.187 -0.069 0.048
0.185 -0.066 0.048
0.185 -0.065 0.048
0.186 -0.063 0.048
0.188 -0.062 0.048
0.189 -0.060 0.048
0.195 -0.061 0.050
0.231 -0.069 0.059
0.244 -0.071 0.062
0.248 -0.070 0.063
0.306 -0.080 0.078
0.314 -0.079 0.080
0.315 -0.077 0.080
0.306 -0.072 0.078
0.318 -0.071 0.081
0.309 -0.067 0.078
0.308 -0.064 0.078
0.310 -0.061 0.079
0.314 -0.059 0.079
0.301 -0.054 0.076
0.289 -0.049 0.073
0.275 -0.044 0.069
0.276 -0.042 0.070
0.278 -0.039 0.070
0.280 -0.037 0.070
0.280 -0.035 0.071
0.277 -0.032 0.070
0.278 -0.029 0.070
0.281 -0.027 0.071
0.282 -0.024 0.071
0.277 -0.021 0.070
0.278 -0.019 0.070
0.284 -0.017 0.072
0.288 -0.014 0.072
0.286 -0.012 0.072
0.282 -0.009 0.071
0.280 -0.006 0.070
0.292 -0.004 0.073
0.292 -0.001 0.073
0.290 0.001 0.073
0.291 0.004 0.073
0.292 0.007 0.073
0.282 0.009 0.071
0.275 0.011 0.069
0.280 0.014 0.071
0.288 0.017 0.073
0.292 0.020 0.074
0.285 0.022 0.072
0.280 0.024 0.070
0.277 0.026 0.070
0.273 0.029 0.069
0.282 0.032 0.071
0.285 0.035 0.072
0.289 0.038 0.073
0.289 0.041 0.073
0.285 0.043 0.072
0.293 0.047 0.074
0.288 0.049 0.073
0.279 0.050 0.071
0.289 0.054 0.073
0.292 0.058 0.074
0.292 0.060 0.074
0.293 0.063 0.074
0.292 0.066 0.074
0.291 0.069 0.074
0.285 0.070 0.073
0.280 0.071 0.071
0.258 0.068 0.066
0.259 0.071 0.066
0.259 0.073 0.066
0.261 0.076 0.067
0.293 0.091 0.075
0.291 0.094 0.075
0.292 0.097 0.075
0.292 0.100 0.076
0.293 0.103 0.076
0.295 0.107 0.076
0.298 0.111 0.077
0.293 0.112 0.076
0.289 0.113 0.075
0.287 0.115 0.075
0.288 0.119 0.075
0.289 0.122 0.076
0.287 0.124 0.075
0.284 0.126 0.075
0.278 0.126 0.073
0.273 0.127 0.072
0.266 0.126 0.070
0.268 0.130 0.071
0.288 0.143 0.077
0.286 0.145 0.076
0.281 0.145 0.075
0.280 0.148 0.075
0.287 0.155 0.077
0.288 0.159 0.078
0.288 0.162 0.078
0.288 0.165 0.078
0.290 0.169 0.079
0.286 0.170 0.078
0.281 0.171 0.077
0.279 0.173 0.076
0.277 0.175 0.076
0.275 0.177 0.076
0.273 0.179 0.075
0.269 0.180 0.075
0.268 0.182 0.075
0.267 0.185 0.075
0.265 0.187 0.074
0.262 0.188 0.074
0.261 0.190 0.074
0.260 0.193 0.074
0.260 0.196 0.074
0.259 0.199 0.074
0.257 0.201 0.074
0.257 0.205 0.074
0.256 0.208 0.074
0.255 0.210 0.074
0.253 0.212 0.074
0.252 0.215 0.074
0.249 0.216 0.073
0.244 0.215 0.072
0.238 0.214 0.071
0.237 0.216 0.071
0.235 0.218 0.071
0.235 0.222 0.071
0.231 0.222 0.070
0.227 0.222 0.070
0.223 0.222 0.069
0.220 0.223 0.068
0.214 0.220 0.067
0.209 0.219 0.066
0.206 0.219 0.065
0.205 0.222 0.065
0.206 0.226 0.066
0.207 0.231 0.067
0.205 0.233 0.066
0.202 0.233 0.066
0.204 0.239 0.067
0.210 0.250 0.069
0.213 0.258 0.071
0.209 0.258 0.070
0.202 0.252 0.068
0.193 0.246 0.065
0.191 0.247 0.065
0.198 0.260 0.068
0.221 0.294 0.076
0.100 -0.138 0.035
0.101 -0.137 0.035
0.101 -0.136 0.035
0.102 -0.135 0.035
0.102 -0.134 0.035
0.102 -0.132 0.035
0.103 -0.131 0.035
0.103 -0.130 0.035
0.104 -0.129 0.035
0.102 -0.125 0.035
0.103 -0.124 0.035
0.105 -0.125 0.035
0.104 -0.122 0.035
0.103 -0.119 0.034
0.104 -0.118 0.034
0.104 -0.116 0.034
0.105 -0.116 0.034
0.107 -0.116 0.035
0.109 -0.117 0.035
0.109 -0.114 0.035
0.114 -0.118 0.036
0.268 -0.265 0.084
0.270 -0.263 0.084
0.272 -0.262 0.085
0.275 -0.260 0.085
0.276 -0.257 0.085
0.276 -0.253 0.085
0.275 -0.248 0.084
0.274 -0.243 0.083
0.274 -0.240 0.083
0.277 -0.238 0.083
0.277 -0.234 0.083
0.273 -0.227 0.082
0.274 -0.224 0.081
0.275 -0.222 0.081
0.233 -0.184 0.069
0.225 -0.175 0.066
0.212 -0.162 0.062
0.207 -0.156 0.060
0.203 -0.151 0.059
0.205 -0.149 0.059
0.204 -0.146 0.059
0.207 -0.146 0.060
0.207 -0.143 0.059
0.209 -0.142 0.060
0.206 -0.137 0.059
0.207 -0.136 0.059
0.203 -0.131 0.057
0.192 -0.122 0.054
0.200 -0.124 0.056
0.194 -0.118 0.055
0.171 -0.102 0.048
0.169 -0.099 0.047
0.169 -0.098 0.047
0.169 -0.095 0.047
0.170 -0.094 0.047
0.182 -0.099 0.050
0.209 -0.111 0.058
0.214 -0.112 0.059
0.215 -0.110 0.059
0.214 -0.107 0.059
0.214 -0.105 0.059
0.207 -0.100 0.057
0.210 -0.099 0.057
0.210 -0.096 0.057
0.211 -0.095 0.057
0.213 -0.094 0.058
0.204 -0.088 0.055
0.215 -0.090 0.058
0.215 -0.088 0.058
0.212 -0.084 0.057
0.211 -0.082 0.057
0.211 -0.080 0.057
0.212 -0.078 0.057
0.213 -0.076 0.057
0.196 -0.068 0.052
0.187 -0.064 0.050
0.187 -0.062 0.050
0.189 -0.060 0.050
0.190 -0.059 0.051
0.192 -0.058 0.051
0.194 -0.057 0.051
0.200 -0.056 0.053
0.295 -0.078 0.078
0.302 -0.077 0.080
0.302 -0.074 0.080
0.297 -0.070 0.078
0.295 -0.066 0.078
0.293 -0.063 0.077
0.296 -0.061 0.078
0.298 -0.059 0.078
0.295 -0.055 0.077
0.292 -0.052 0.077
0.285 -0.048 0.075
0.278 -0.045 0.073
0.277 -0.042 0.072
0.278 -0.039 0.073
0.281 -0.037 0.073
0.275 -0.034 0.072
0.275 -0.031 0.072
0.279 -0.029 0.073
0.281 -0.027 0.073
0.277 -0.024 0.072
0.276 -0.021 0.072
0.277 -0.019 0.072
0.282 -0.017 0.074
0.287 -0.014 0.075
0.288 -0.012 0.075
0.285 -0.009 0.074
0.282 -0.006 0.074
0.284 -0.004 0.074
0.290 -0.001 0.076
0.289 0.001 0.075
0.288 0.004 0.075
0.290 0.007 0.076
0.281 0.009 0.073
0.277 0.011 0.072
0.284 0.014 0.074
0.292 0.017 0.076
0.282 0.019 0.074
0.279 0.022 0.073
0.275 0.024 0.072
0.271 0.026 0.071
0.268 0.028 0.070
0.279 0.032 0.073
0.287 0.035 0.075
0.295 0.039 0.077
0.287 0.041 0.075
0.281 0.043 0.074
0.280 0.045 0.073
0.279 0.047 0.073
0.280 0.050 0.074
0.282 0.053 0.074
0.292 0.058 0.077
0.291 0.060 0.077
0.290 0.063 0.076
0.290 0.066 0.077
0.285 0.067 0.075
0.275 0.067 0.073
0.266 0.068 0.070
0.255 0.067 0.068
0.257 0.070 0.068
0.260 0.074 0.069
0.259 0.076 0.069
0.286 0.086 0.076
0.294 0.092 0.078
0.289 0.093 0.077
0.289 0.096 0.077
0.289 0.099 0.078
0.284 0.100 0.076
0.290 0.105 0.078
0.286 0.106 0.077
0.286 0.109 0.077
0.284 0.111 0.077
0.282 0.113 0.076
0.282 0.116 0.077
0.283 0.119 0.077
0.283 0.122 0.077
0.280 0.124 0.076
0.274 0.124 0.075
0.268 0.125 0.074
0.265 0.126 0.073
0.266 0.129 0.073
0.266 0.132 0.073
0.277 0.140 0.077
0.277 0.143 0.077
0.277 0.146 0.077
0.277 0.149 0.077
0.282 0.155 0.079
0.281 0.158 0.079
0.281 0.161 0.079
0.282 0.165 0.079
0.279 0.166 0.079
0.276 0.168 0.078
0.274 0.170 0.078
0.273 0.172 0.078
0.270 0.174 0.077
0.267 0.175 0.076
0.263 0.175 0.076
0.262 0.178 0.076
0.263 0.182 0.076
0.259 0.183 0.075
0.259 0.186 0.076
0.258 0.189 0.076
0.258 0.192 0.076
0.258 0.195 0.076
0.256 0.198 0.076
0.255 0.200 0.076
0.254 0.203 0.076
0.254 0.206 0.076
0.252 0.208 0.076
0.251 0.211 0.076
0.250 0.213 0.076
0.246 0.214 0.075
0.243 0.215 0.075
0.241 0.216 0.074
0.234 0.214 0.073
0.229 0.213 0.071
0.229 0.217 0.072
0.225 0.217 0.071
0.223 0.218 0.071
0.220 0.219 0.070
0.218 0.221 0.070
0.214 0.221 0.069
0.211 0.221 0.069
0.206 0.220 0.068
0.202 0.219 0.067
0.207 0.228 0.069
0.206 0.230 0.069
0.207 0.235 0.069
0.205 0.237 0.069
0.207 0.244 0.071
0.201 0.240 0.069
0.200 0.242 0.069
0.197 0.244 0.068
0.196 0.246 0.068
0.193 0.246 0.068
0.194 0.251 0.069
0.197 0.259 0.070
0.197 0.262 0.070
0.101 -0.138 0.037
0.101 -0.137 0.037
0.101 -0.135 0.037
0.102 -0.134 0.037
0.102 -0.132 0.036
0.103 -0.131 0.037
0.103 -0.130 0.037
0.103 -0.129 0.036
0.105 -0.129 0.037
0.105 -0.127 0.037
0.104 -0.124 0.036
0.104 -0.123 0.036
0.103 -0.119 0.035
0.104 -0.118 0.035
0.104 -0.117 0.035
0.105 -0.116 0.035
0.108 -0.117 0.036
0.110 -0.118 0.037
0.106 -0.111 0.035
0.109 -0.113 0.036
0.116 -0.119 0.038
0.267 -0.261 0.086
0.270 -0.259 0.087
0.272 -0.258 0.087
0.273 -0.254 0.087
0.274 -0.252 0.087
0.275 -0.248 0.087
0.274 -0.244 0.086
0.274 -0.240 0.086
0.275 -0.237 0.086
0.276 -0.234 0.086
0.273 -0.228 0.084
0.274 -0.224 0.084
0.273 -0.220 0.084
0.205 -0.157 0.062
0.202 -0.153 0.061
0.206 -0.153 0.062
0.207 -0.151 0.062
0.207 -0.148 0.062
0.208 -0.146 0.062
0.209 -0.145 0.062
0.205 -0.140 0.061
0.206 -0.138 0.061
0.209 -0.137 0.062
0.208 -0.134 0.061
0.202 -0.128 0.059
0.181 -0.113 0.053
0.171 -0.104 0.050
0.171 -0.102 0.050
0.171 -0.101 0.050
0.172 -0.100 0.050
0.208 -0.115 0.060
0.208 -0.113 0.060
0.210 -0.112 0.060
0.211 -0.111 0.060
0.213 -0.109 0.061
0.216 -0.108 0.061
0.216 -0.106 0.061
0.212 -0.102 0.060
0.206 -0.097 0.058
0.208 -0.096 0.059
0.211 -0.095 0.059
0.210 -0.092 0.059
0.201 -0.086 0.056
0.212 -0.089 0.059
0.211 -0.086 0.059
0.212 -0.085 0.059
0.213 -0.083 0.059
0.211 -0.080 0.059
0.211 -0.078 0.058
0.211 -0.076 0.058
0.215 -0.075 0.060
0.222 -0.075 0.061
0.216 -0.071 0.060
0.194 -0.062 0.053
0.190 -0.059 0.052
0.192 -0.058 0.053
0.193 -0.056 0.053
0.194 -0.055 0.053
0.195 -0.053 0.053
0.196 -0.052 0.054
0.208 -0.053 0.057
0.278 -0.063 0.076
0.288 -0.062 0.078
0.290 -0.060 0.079
0.291 -0.057 0.079
0.291 -0.055 0.079
0.285 -0.051 0.077
0.278 -0.047 0.076
0.276 -0.044 0.075
0.278 -0.042 0.075
0.281 -0.040 0.076
0.283 -0.037 0.077
0.280 -0.035 0.076
0.276 -0.032 0.075
0.278 -0.029 0.075
0.281 -0.027 0.076
0.277 -0.024 0.075
0.276 -0.021 0.075
0.278 -0.019 0.075
0.280 -0.017 0.076
0.282 -0.014 0.076
0.283 -0.012 0.076
0.283 -0.009 0.077
0.283 -0.006 0.076
0.283 -0.004 0.077
0.283 -0.001 0.077
0.285 0.001 0.077
0.288 0.004 0.078
0.289 0.007 0.078
0.281 0.009 0.076
0.278 0.011 0.075
0.282 0.014 0.076
0.285 0.017 0.077
0.280 0.019 0.076
0.280 0.022 0.076
0.278 0.024 0.075
0.267 0.026 0.072
0.264 0.028 0.072
0.273 0.031 0.074
0.285 0.035 0.077
0.290 0.038 0.079
0.286 0.041 0.078
0.279 0.042 0.076
0.277 0.045 0.075
0.283 0.048 0.077
0.286 0.051 0.078
0.288 0.054 0.078
0.288 0.057 0.078
0.290 0.060 0.079
0.288 0.063 0.079
0.287 0.065 0.079
0.283 0.067 0.078
0.267 0.066 0.073
0.257 0.065 0.070
0.254 0.067 0.070
0.259 0.071 0.071
0.260 0.074 0.072
0.270 0.079 0.075
0.287 0.087 0.079
0.291 0.091 0.081
0.290 0.093 0.080
0.289 0.096 0.080
0.285 0.097 0.079
0.279 0.098 0.078
0.277 0.100 0.077
0.279 0.104 0.078
0.278 0.106 0.078
0.279 0.109 0.078
0.278 0.112 0.078
0.276 0.114 0.078
0.276 0.117 0.078
0.276 0.119 0.078
0.272 0.121 0.077
0.266 0.121 0.075
0.264 0.123 0.075
0.267 0.127 0.076
0.268 0.130 0.076
0.268 0.133 0.076
0.266 0.135 0.076
0.269 0.139 0.077
0.269 0.142 0.077
0.270 0.146 0.078
0.271 0.149 0.078
0.271 0.152 0.079
0.271 0.156 0.079
0.273 0.160 0.080
0.268 0.160 0.079
0.267 0.162 0.078
0.263 0.163 0.077
0.260 0.164 0.077
0.259 0.167 0.077
0.257 0.169 0.076
0.259 0.173 0.077
0.262 0.178 0.078
0.259 0.180 0.078
0.261 0.184 0.079
0.257 0.185 0.078
0.255 0.186 0.077
0.253 0.189 0.077
0.253 0.192 0.078
0.254 0.196 0.078
0.251 0.197 0.078
0.251 0.201 0.078
0.249 0.202 0.078
0.250 0.207 0.078
0.250 0.210 0.078
0.247 0.211 0.078
0.244 0.212 0.077
0.239 0.212 0.076
0.238 0.215 0.076
0.228 0.209 0.073
0.225 0.210 0.073
0.222 0.211 0.072
0.217 0.210 0.071
0.214 0.210 0.071
0.209 0.208 0.069
0.209 0.212 0.070
0.209 0.216 0.070
0.207 0.217 0.070
0.198 0.211 0.067
0.201 0.218 0.069
0.201 0.222 0.069
0.204 0.229 0.071
0.205 0.234 0.071
0.207 0.240 0.073
0.201 0.236 0.071
0.198 0.237 0.070
0.194 0.236 0.069
0.194 0.240 0.070
0.195 0.245 0.071
0.197 0.251 0.072
0.195 0.252 0.071
0.192 0.253 0.071
0.206 0.275 0.076
0.101 -0.138 0.038
0.101 -0.136 0.038
0.102 -0.135 0.038
0.102 -0.135 0.038
0.102 -0.132 0.038
0.103 -0.131 0.038
0.103 -0.131 0.038
0.103 -0.129 0.038
0.104 -0.128 0.038
0.103 -0.125 0.037
0.104 -0.124 0.037
0.104 -0.122 0.037
0.104 -0.120 0.037
0.104 -0.118 0.037
0.104 -0.117 0.036
0.105 -0.116 0.037
0.109 -0.119 0.038
0.109 -0.117 0.038
0.104 -0.110 0.036
0.113 -0.117 0.039
0.107 -0.110 0.036
0.260 -0.255 0.087
0.267 -0.257 0.089
0.265 -0.251 0.088
0.271 -0.253 0.089
0.271 -0.249 0.089
0.272 -0.246 0.089
0.274 -0.243 0.089
0.270 -0.236 0.087
0.272 -0.234 0.088
0.271 -0.230 0.087
0.271 -0.226 0.087
0.271 -0.222 0.086
0.270 -0.218 0.086
0.209 -0.161 0.066
0.206 -0.156 0.064
0.207 -0.154 0.065
0.208 -0.152 0.065
0.206 -0.148 0.064
0.208 -0.147 0.064
0.209 -0.145 0.064
0.207 -0.141 0.064
0.205 -0.137 0.063
0.206 -0.136 0.063
0.207 -0.134 0.063
0.173 -0.107 0.052
0.171 -0.104 0.051
0.171 -0.102 0.051
0.177 -0.104 0.053
0.208 -0.120 0.062
0.207 -0.117 0.062
0.206 -0.114 0.061
0.207 -0.113 0.061
0.207 -0.111 0.061
0.208 -0.109 0.061
0.211 -0.108 0.062
0.213 -0.107 0.063
0.215 -0.106 0.063
0.215 -0.103 0.063
0.207 -0.097 0.061
0.209 -0.096 0.061
0.210 -0.094 0.061
0.209 -0.092 0.061
0.207 -0.089 0.060
0.199 -0.083 0.058
0.212 -0.087 0.061
0.212 -0.085 0.061
0.210 -0.082 0.061
0.207 -0.079 0.060
0.210 -0.077 0.060
0.214 -0.077 0.061
0.218 -0.076 0.062
0.222 -0.076 0.064
0.225 -0.074 0.064
0.230 -0.074 0.066
0.231 -0.072 0.066
0.207 -0.062 0.059
0.194 -0.056 0.055
0.194 -0.055 0.055
0.195 -0.053 0.055
0.196 -0.052 0.055
0.197 -0.050 0.056
0.198 -0.048 0.056
0.198 -0.047 0.056
0.199 -0.045 0.056
0.200 -0.043 0.056
0.208 -0.043 0.058
0.217 -0.043 0.061
0.271 -0.046 0.076
0.274 -0.044 0.077
0.277 -0.042 0.078
0.281 -0.040 0.079
0.283 -0.038 0.079
0.276 -0.034 0.077
0.276 -0.032 0.077
0.278 -0.029 0.078
0.277 -0.027 0.078
0.273 -0.024 0.077
0.276 -0.021 0.077
0.279 -0.019 0.078
0.280 -0.017 0.078
0.279 -0.014 0.078
0.281 -0.012 0.079
0.281 -0.009 0.079
0.281 -0.006 0.079
0.283 -0.004 0.079
0.282 -0.001 0.079
0.282 0.001 0.079
0.285 0.004 0.080
0.288 0.007 0.081
0.286 0.009 0.080
0.279 0.011 0.078
0.277 0.014 0.077
0.273 0.016 0.076
0.283 0.019 0.079
0.286 0.022 0.080
0.268 0.023 0.075
0.264 0.025 0.074
0.265 0.028 0.074
0.270 0.031 0.076
0.283 0.035 0.080
0.287 0.038 0.081
0.285 0.041 0.080
0.283 0.043 0.080
0.281 0.045 0.079
0.286 0.049 0.081
0.289 0.052 0.082
0.289 0.055 0.082
0.291 0.058 0.082
0.287 0.060 0.081
0.284 0.062 0.080
0.274 0.062 0.078
0.277 0.065 0.078
0.262 0.064 0.074
0.238 0.061 0.068
0.248 0.066 0.071
0.250 0.069 0.071
0.258 0.073 0.074
0.274 0.080 0.078
0.281 0.085 0.080
0.289 0.091 0.083
0.291 0.094 0.083
0.287 0.095 0.082
0.276 0.095 0.079
0.272 0.096 0.078
0.272 0.099 0.078
0.271 0.101 0.078
0.270 0.103 0.078
0.270 0.106 0.078
0.270 0.109 0.079
0.270 0.111 0.078
0.267 0.113 0.078
0.264 0.115 0.077
0.259 0.115 0.076
0.259 0.118 0.076
0.261 0.122 0.077
0.258 0.123 0.076
0.267 0.130 0.079
0.266 0.132 0.079
0.265 0.135 0.078
0.260 0.135 0.077
0.260 0.138 0.078
0.262 0.142 0.078
0.261 0.144 0.078
0.259 0.146 0.078
0.258 0.149 0.078
0.248 0.146 0.075
0.248 0.149 0.075
0.250 0.152 0.076
0.251 0.156 0.077
0.254 0.161 0.078
0.254 0.164 0.078
0.256 0.169 0.079
0.259 0.173 0.080
0.261 0.178 0.081
0.263 0.183 0.082
0.253 0.179 0.079
0.252 0.182 0.079
0.250 0.183 0.078
0.250 0.187 0.079
0.250 0.190 0.079
0.250 0.193 0.080
0.251 0.198 0.080
0.249 0.199 0.080
0.249 0.203 0.080
0.252 0.209 0.082
0.241 0.203 0.078
0.242 0.207 0.079
0.235 0.205 0.077
0.228 0.202 0.075
0.224 0.202 0.074
0.225 0.207 0.075
0.219 0.204 0.073
0.214 0.204 0.072
0.209 0.202 0.071
0.207 0.203 0.070
0.205 0.204 0.070
0.203 0.207 0.070
0.205 0.212 0.071
0.205 0.216 0.072
0.202 0.215 0.071
0.196 0.212 0.069
0.199 0.220 0.071
0.202 0.227 0.072
0.203 0.231 0.073
0.200 0.232 0.073
0.198 0.233 0.072
0.196 0.235 0.072
0.197 0.240 0.073
0.196 0.243 0.073
0.196 0.246 0.073
0.197 0.252 0.074
0.192 0.249 0.073
0.189 0.249 0.072
0.172 0.230 0.066
0.101 -0.138 0.039
0.101 -0.137 0.039
0.102 -0.136 0.039
0.102 -0.135 0.039
0.101 -0.132 0.039
0.104 -0.133 0.039
0.103 -0.131 0.039
0.103 -0.129 0.039
0.105 -0.129 0.039
0.105 -0.127 0.039
0.105 -0.126 0.039
0.105 -0.124 0.039
0.104 -0.121 0.038
0.104 -0.119 0.038
0.103 -0.116 0.037
0.110 -0.122 0.040
0.108 -0.118 0.039
0.108 -0.116 0.039
0.102 -0.108 0.036
0.113 -0.118 0.040
0.118 -0.122 0.042
0.124 -0.125 0.043
0.126 -0.125 0.044
0.257 -0.248 0.089
0.259 -0.246 0.089
0.260 -0.243 0.089
0.261 -0.240 0.089
0.263 -0.238 0.089
0.263 -0.235 0.089
0.266 -0.233 0.089
0.266 -0.230 0.089
0.265 -0.225 0.088
0.265 -0.221 0.088
0.265 -0.218 0.087
0.257 -0.208 0.085
0.254 -0.202 0.083
0.217 -0.167 0.071
0.207 -0.157 0.067
0.206 -0.153 0.066
0.204 -0.149 0.066
0.204 -0.147 0.065
0.205 -0.145 0.066
0.206 -0.143 0.065
0.207 -0.141 0.066
0.205 -0.138 0.065
0.203 -0.134 0.064
0.192 -0.124 0.060
0.176 -0.112 0.055
0.174 -0.109 0.054
0.175 -0.107 0.054
0.194 -0.117 0.060
0.206 -0.122 0.064
0.211 -0.122 0.065
0.207 -0.117 0.064
0.208 -0.116 0.064
0.207 -0.113 0.064
0.206 -0.110 0.063
0.207 -0.109 0.063
0.211 -0.108 0.064
0.211 -0.106 0.064
0.207 -0.102 0.063
0.207 -0.100 0.063
0.212 -0.100 0.064
0.211 -0.097 0.064
0.213 -0.096 0.064
0.212 -0.093 0.064
0.208 -0.089 0.062
0.209 -0.088 0.062
0.210 -0.086 0.063
0.209 -0.084 0.062
0.206 -0.080 0.061
0.202 -0.077 0.060
0.206 -0.076 0.061
0.213 -0.077 0.063
0.218 -0.076 0.065
0.221 -0.075 0.065
0.225 -0.075 0.067
0.231 -0.074 0.068
0.236 -0.074 0.070
0.233 -0.070 0.069
0.243 -0.071 0.072
0.246 -0.069 0.072
0.210 -0.055 0.061
0.207 -0.052 0.060
0.198 -0.049 0.058
0.199 -0.047 0.058
0.199 -0.045 0.058
0.199 -0.043 0.058
0.200 -0.041 0.058
0.204 -0.040 0.059
0.206 -0.039 0.060
0.208 -0.037 0.060
0.209 -0.035 0.061
0.210 -0.034 0.061
0.212 -0.032 0.061
0.227 -0.032 0.066
0.270 -0.033 0.078
0.273 -0.031 0.079
0.275 -0.029 0.080
0.273 -0.026 0.079
0.271 -0.024 0.079
0.275 -0.021 0.080
0.278 -0.019 0.080
0.277 -0.016 0.080
0.278 -0.014 0.081
0.279 -0.011 0.081
0.279 -0.009 0.081
0.278 -0.006 0.080
0.279 -0.004 0.081
0.279 -0.001 0.081
0.278 0.001 0.080
0.279 0.004 0.081
0.281 0.006 0.081
0.282 0.009 0.082
0.281 0.012 0.081
0.278 0.014 0.080
0.279 0.017 0.081
0.292 0.020 0.085
0.267 0.021 0.077
0.263 0.023 0.076
0.264 0.025 0.077
0.269 0.028 0.078
0.283 0.032 0.082
0.285 0.035 0.083
0.282 0.038 0.082
0.284 0.040 0.082
0.284 0.043 0.083
0.286 0.046 0.083
0.285 0.049 0.083
0.287 0.052 0.084
0.286 0.054 0.084
0.283 0.056 0.083
0.282 0.059 0.082
0.271 0.059 0.079
0.258 0.059 0.076
0.246 0.060 0.072
0.241 0.062 0.071
0.249 0.068 0.073
0.262 0.075 0.077
0.275 0.081 0.081
0.282 0.086 0.083
0.289 0.091 0.086
0.284 0.092 0.084
0.280 0.093 0.083
0.269 0.092 0.080
0.263 0.093 0.078
0.263 0.096 0.079
0.265 0.099 0.079
0.263 0.101 0.079
0.263 0.103 0.079
0.261 0.105 0.078
0.259 0.107 0.078
0.257 0.109 0.077
0.253 0.110 0.076
0.252 0.112 0.076
0.255 0.116 0.077
0.256 0.119 0.078
0.258 0.123 0.079
0.258 0.126 0.079
0.262 0.130 0.080
0.260 0.132 0.080
0.255 0.133 0.078
0.256 0.136 0.079
0.255 0.138 0.079
0.253 0.140 0.079
0.250 0.141 0.078
0.244 0.141 0.076
0.244 0.144 0.076
0.244 0.146 0.077
0.246 0.150 0.077
0.247 0.154 0.078
0.248 0.158 0.079
0.251 0.163 0.080
0.254 0.167 0.081
0.259 0.174 0.083
0.258 0.176 0.083
0.251 0.175 0.081
0.249 0.176 0.080
0.248 0.179 0.080
0.247 0.182 0.080
0.246 0.184 0.080
0.248 0.189 0.081
0.249 0.193 0.082
0.249 0.196 0.082
0.249 0.200 0.083
0.249 0.203 0.083
0.242 0.201 0.081
0.239 0.202 0.080
0.232 0.200 0.079
0.222 0.194 0.076
0.219 0.195 0.075
0.216 0.195 0.074
0.211 0.194 0.073
0.212 0.199 0.074
0.205 0.195 0.071
0.202 0.196 0.071
0.204 0.201 0.072
0.205 0.205 0.073
0.206 0.210 0.074
0.205 0.213 0.074
0.207 0.218 0.075
0.204 0.219 0.074
0.201 0.219 0.073
0.210 0.232 0.077
0.203 0.229 0.075
0.200 0.229 0.075
0.202 0.235 0.076
0.198 0.234 0.075
0.198 0.238 0.075
0.199 0.243 0.076
0.200 0.249 0.077
0.199 0.251 0.077
0.195 0.250 0.076
0.195 0.253 0.076
0.187 0.247 0.074
0.190 0.255 0.075
0.101 -0.137 0.041
0.102 -0.137 0.041
0.102 -0.135 0.041
0.103 -0.134 0.041
0.103 -0.133 0.041
0.105 -0.133 0.041
0.105 -0.132 0.041
0.105 -0.129 0.040
0.106 -0.128 0.041
0.106 -0.127 0.040
0.105 -0.124 0.040
0.105 -0.122 0.040
0.103 -0.118 0.039
0.106 -0.120 0.040
0.113 -0.126 0.042
0.107 -0.117 0.040
0.106 -0.114 0.039
0.101 -0.107 0.037
0.112 -0.118 0.041
0.120 -0.124 0.044
0.120 -0.122 0.043
0.114 -0.114 0.041
0.119 -0.117 0.043
0.251 -0.239 0.089
0.252 -0.236 0.089
0.255 -0.235 0.090
0.258 -0.234 0.090
0.259 -0.231 0.090
0.260 -0.229 0.090
0.261 -0.226 0.090
0.260 -0.221 0.089
0.260 -0.217 0.089
0.258 -0.212 0.088
0.255 -0.207 0.087
0.252 -0.201 0.085
0.216 -0.166 0.072
0.206 -0.156 0.069
0.203 -0.151 0.067
0.202 -0.148 0.067
0.203 -0.146 0.067
0.200 -0.142 0.066
0.201 -0.140 0.066
0.205 -0.140 0.067
0.207 -0.139 0.067
0.199 -0.131 0.065
0.181 -0.117 0.059
0.178 -0.113 0.058
0.178 -0.111 0.057
0.202 -0.121 0.065
0.207 -0.122 0.066
0.207 -0.120 0.066
0.214 -0.121 0.068
0.214 -0.119 0.068
0.209 -0.114 0.066
0.208 -0.111 0.066
0.208 -0.109 0.066
0.209 -0.107 0.066
0.209 -0.105 0.066
0.207 -0.102 0.065
0.206 -0.100 0.065
0.208 -0.098 0.065
0.209 -0.097 0.065
0.214 -0.096 0.066
0.212 -0.094 0.066
0.205 -0.088 0.064
0.209 -0.088 0.065
0.203 -0.083 0.063
0.206 -0.083 0.064
0.204 -0.080 0.063
0.202 -0.077 0.062
0.209 -0.078 0.064
0.213 -0.077 0.065
0.216 -0.076 0.066
0.219 -0.075 0.067
0.225 -0.074 0.069
0.231 -0.074 0.070
0.234 -0.073 0.071
0.238 -0.072 0.072
0.241 -0.070 0.073
0.249 -0.070 0.075
0.262 -0.072 0.079
0.273 -0.072 0.082
0.275 -0.070 0.083
0.273 -0.067 0.082
0.262 -0.062 0.079
0.214 -0.042 0.064
0.208 -0.039 0.062
0.207 -0.037 0.062
0.207 -0.035 0.062
0.209 -0.034 0.063
0.210 -0.032 0.063
0.211 -0.030 0.063
0.212 -0.028 0.063
0.215 -0.027 0.064
0.216 -0.025 0.065
0.231 -0.024 0.069
0.263 -0.025 0.079
0.272 -0.024 0.081
0.274 -0.021 0.082
0.274 -0.019 0.082
0.275 -0.016 0.082
0.276 -0.014 0.082
0.275 -0.011 0.082
0.274 -0.009 0.082
0.274 -0.006 0.082
0.274 -0.004 0.082
0.274 -0.001 0.082
0.273 0.001 0.082
0.273 0.004 0.081
0.278 0.006 0.083
0.285 0.009 0.085
0.284 0.012 0.085
0.280 0.014 0.084
0.284 0.017 0.085
0.263 0.018 0.079
0.257 0.020 0.077
0.264 0.023 0.079
0.268 0.026 0.080
0.273 0.029 0.082
0.281 0.032 0.084
0.280 0.035 0.084
0.277 0.037 0.083
0.279 0.040 0.084
0.285 0.043 0.086
0.286 0.046 0.086
0.285 0.049 0.086
0.284 0.051 0.085
0.279 0.053 0.084
0.278 0.055 0.084
0.273 0.057 0.083
0.265 0.058 0.080
0.243 0.055 0.074
0.227 0.054 0.069
0.229 0.057 0.070
0.237 0.061 0.072
0.245 0.065 0.075
0.254 0.070 0.077
0.269 0.076 0.082
0.275 0.081 0.084
0.285 0.087 0.087
0.286 0.090 0.087
0.281 0.091 0.086
0.269 0.090 0.082
0.260 0.089 0.080
0.256 0.090 0.079
0.254 0.092 0.078
0.253 0.094 0.078
0.252 0.097 0.078
0.253 0.100 0.078
0.253 0.102 0.078
0.250 0.104 0.078
0.248 0.105 0.077
0.249 0.108 0.078
0.251 0.112 0.078
0.251 0.115 0.079
0.251 0.117 0.079
0.253 0.121 0.079
0.251 0.123 0.079
0.249 0.124 0.079
0.251 0.128 0.079
0.252 0.131 0.080
0.251 0.134 0.080
0.250 0.136 0.080
0.247 0.137 0.079
0.245 0.138 0.079
0.246 0.142 0.079
0.247 0.145 0.080
0.248 0.149 0.080
0.246 0.151 0.080
0.245 0.153 0.080
0.246 0.156 0.080
0.246 0.160 0.081
0.249 0.164 0.082
0.255 0.171 0.084
0.251 0.172 0.083
0.246 0.172 0.082
0.245 0.174 0.082
0.247 0.178 0.083
0.246 0.181 0.083
0.246 0.184 0.083
0.247 0.189 0.084
0.248 0.192 0.084
0.246 0.194 0.084
0.243 0.195 0.083
0.236 0.193 0.081
0.233 0.194 0.081
0.230 0.194 0.080
0.220 0.190 0.077
0.216 0.189 0.076
0.213 0.190 0.075
0.207 0.187 0.073
0.202 0.187 0.072
0.200 0.187 0.072
0.198 0.189 0.071
0.197 0.191 0.071
0.203 0.200 0.074
0.210 0.211 0.077
0.209 0.213 0.077
0.205 0.213 0.076
0.205 0.216 0.076
0.204 0.219 0.077
0.206 0.225 0.078
0.202 0.224 0.077
0.200 0.226 0.077
0.199 0.228 0.077
0.203 0.237 0.079
0.206 0.244 0.080
0.200 0.240 0.078
0.199 0.243 0.079
0.202 0.252 0.080
0.204 0.258 0.082
0.202 0.259 0.081
0.195 0.255 0.079
0.193 0.255 0.078
0.190 0.254 0.078
0.102 -0.138 0.042
0.102 -0.137 0.042
0.103 -0.136 0.042
0.104 -0.135 0.042
0.105 -0.135 0.042
0.105 -0.133 0.042
0.106 -0.132 0.042
0.106 -0.130 0.042
0.106 -0.129 0.042
0.106 -0.127 0.042
0.105 -0.124 0.041
0.104 -0.121 0.041
0.108 -0.124 0.042
0.114 -0.128 0.044
0.108 -0.120 0.042
0.106 -0.116 0.041
0.098 -0.106 0.038
0.101 -0.107 0.038
0.102 -0.107 0.039
0.120 -0.124 0.045
0.115 -0.117 0.043
0.112 -0.112 0.042
0.112 -0.110 0.041
0.243 -0.232 0.089
0.247 -0.231 0.090
0.251 -0.232 0.091
0.251 -0.228 0.091
0.255 -0.228 0.092
0.257 -0.226 0.092
0.257 -0.223 0.092
0.257 -0.219 0.091
0.257 -0.215 0.091
0.254 -0.210 0.089
0.250 -0.203 0.088
0.247 -0.197 0.086
0.247 -0.194 0.086
0.201 -0.153 0.069
0.199 -0.149 0.069
0.201 -0.148 0.069
0.201 -0.145 0.069
0.200 -0.141 0.068
0.200 -0.140 0.068
0.205 -0.140 0.069
0.206 -0.138 0.069
0.185 -0.122 0.062
0.182 -0.118 0.061
0.180 -0.115 0.060
0.189 -0.118 0.063
0.209 -0.129 0.070
0.203 -0.123 0.067
0.203 -0.120 0.067
0.207 -0.120 0.068
0.212 -0.121 0.070
0.213 -0.119 0.070
0.211 -0.116 0.069
0.211 -0.113 0.069
0.210 -0.110 0.068
0.208 -0.107 0.067
0.207 -0.105 0.067
0.208 -0.103 0.067
0.207 -0.100 0.067
0.205 -0.097 0.066
0.209 -0.097 0.067
0.204 -0.092 0.065
0.207 -0.091 0.066
0.209 -0.090 0.067
0.200 -0.084 0.064
0.204 -0.084 0.065
0.205 -0.082 0.065
0.205 -0.080 0.065
0.206 -0.078 0.065
0.209 -0.078 0.066
0.217 -0.078 0.069
0.213 -0.075 0.067
0.218 -0.075 0.069
0.223 -0.074 0.070
0.230 -0.074 0.072
0.233 -0.073 0.073
0.237 -0.072 0.074
0.243 -0.071 0.076
0.249 -0.071 0.078
0.263 -0.072 0.082
0.268 -0.071 0.084
0.272 -0.069 0.085
0.272 -0.067 0.085
0.270 -0.064 0.084
0.270 -0.061 0.084
0.270 -0.058 0.084
0.268 -0.056 0.083
0.266 -0.053 0.082
0.265 -0.050 0.082
0.265 -0.048 0.082
0.257 -0.044 0.079
0.248 -0.040 0.077
0.222 -0.032 0.069
0.215 -0.029 0.067
0.215 -0.027 0.066
0.215 -0.025 0.066
0.216 -0.023 0.067
0.219 -0.021 0.067
0.222 -0.019 0.068
0.272 -0.019 0.084
0.270 -0.016 0.083
0.267 -0.013 0.082
0.268 -0.011 0.082
0.268 -0.009 0.083
0.270 -0.006 0.083
0.271 -0.004 0.083
0.270 -0.001 0.083
0.272 0.001 0.084
0.276 0.004 0.085
0.285 0.007 0.088
0.286 0.009 0.088
0.278 0.011 0.086
0.275 0.014 0.085
0.264 0.016 0.081
0.256 0.018 0.079
0.257 0.020 0.079
0.266 0.023 0.082
0.271 0.026 0.084
0.274 0.029 0.085
0.273 0.031 0.084
0.275 0.034 0.085
0.273 0.036 0.085
0.277 0.040 0.086
0.279 0.042 0.087
0.283 0.046 0.088
0.282 0.048 0.088
0.278 0.050 0.087
0.277 0.053 0.086
0.277 0.055 0.086
0.273 0.057 0.085
0.262 0.057 0.082
0.222 0.053 0.069
0.222 0.055 0.070
0.235 0.060 0.074
0.249 0.066 0.078
0.258 0.071 0.081
0.263 0.075 0.083
0.277 0.082 0.087
0.280 0.085 0.088
0.279 0.088 0.088
0.271 0.088 0.086
0.262 0.088 0.083
0.255 0.088 0.081
0.249 0.088 0.079
0.247 0.090 0.078
0.245 0.092 0.078
0.243 0.093 0.077
0.244 0.096 0.078
0.247 0.100 0.079
0.247 0.102 0.079
0.246 0.105 0.079
0.247 0.108 0.080
0.248 0.111 0.080
0.246 0.112 0.080
0.245 0.114 0.079
0.243 0.116 0.079
0.244 0.119 0.080
0.244 0.122 0.080
0.242 0.124 0.079
0.247 0.129 0.081
0.248 0.132 0.081
0.245 0.133 0.081
0.244 0.135 0.081
0.245 0.139 0.081
0.246 0.142 0.082
0.248 0.146 0.082
0.248 0.149 0.083
0.246 0.151 0.083
0.244 0.153 0.082
0.243 0.155 0.082
0.242 0.157 0.082
0.244 0.161 0.083
0.250 0.168 0.085
0.246 0.169 0.084
0.238 0.166 0.082
0.238 0.169 0.082
0.244 0.176 0.084
0.246 0.182 0.085
0.246 0.185 0.086
0.247 0.189 0.087
0.246 0.191 0.086
0.233 0.184 0.082
0.221 0.178 0.078
0.222 0.182 0.079
0.209 0.177 0.075
0.210 0.181 0.076
0.209 0.184 0.076
0.206 0.184 0.075
0.200 0.182 0.073
0.197 0.182 0.073
0.196 0.184 0.072
0.196 0.188 0.073
0.196 0.191 0.073
0.203 0.201 0.076
0.208 0.209 0.079
0.207 0.212 0.079
0.203 0.211 0.078
0.204 0.215 0.078
0.203 0.218 0.079
0.202 0.221 0.079
0.201 0.224 0.079
0.195 0.221 0.077
0.197 0.226 0.078
0.205 0.239 0.082
0.205 0.244 0.083
0.202 0.244 0.082
0.197 0.241 0.080
0.200 0.249 0.082
0.204 0.258 0.084
0.201 0.259 0.084
0.196 0.256 0.082
0.192 0.254 0.081
0.193 0.259 0.081
0.102 -0.139 0.044
0.103 -0.138 0.044
0.103 -0.136 0.043
0.104 -0.136 0.044
0.105 -0.135 0.044
0.105 -0.134 0.044
0.105 -0.132 0.044
0.105 -0.130 0.043
0.105 -0.129 0.043
0.105 -0.127 0.043
0.105 -0.125 0.043
0.118 -0.137 0.048
0.116 -0.133 0.047
0.109 -0.124 0.044
0.107 -0.119 0.042
0.106 -0.117 0.042
0.099 -0.107 0.039
0.100 -0.107 0.039
0.102 -0.107 0.040
0.115 -0.119 0.044
0.113 -0.115 0.043
0.111 -0.112 0.043
0.110 -0.108 0.042
0.121 -0.118 0.046
0.241 -0.227 0.091
0.243 -0.225 0.091
0.247 -0.225 0.092
0.247 -0.222 0.092
0.253 -0.223 0.093
0.252 -0.219 0.093
0.253 -0.216 0.092
0.251 -0.211 0.091
0.250 -0.206 0.091
0.247 -0.201 0.089
0.244 -0.195 0.088
0.243 -0.191 0.087
0.238 -0.184 0.085
0.201 -0.153 0.072
0.198 -0.148 0.070
0.201 -0.147 0.071
0.204 -0.147 0.072
0.203 -0.144 0.071
0.204 -0.142 0.071
0.205 -0.140 0.071
0.200 -0.135 0.070
0.185 -0.122 0.064
0.181 -0.117 0.062
0.185 -0.118 0.064
0.204 -0.128 0.070
0.206 -0.127 0.071
0.202 -0.122 0.069
0.201 -0.119 0.069
0.207 -0.120 0.070
0.211 -0.120 0.071
0.213 -0.119 0.072
0.212 -0.116 0.072
0.215 -0.115 0.072
0.213 -0.112 0.072
0.207 -0.107 0.069
0.208 -0.105 0.070
0.208 -0.103 0.069
0.209 -0.101 0.069
0.208 -0.098 0.069
0.209 -0.097 0.069
0.209 -0.095 0.069
0.207 -0.092 0.068
0.208 -0.090 0.068
0.209 -0.088 0.069
0.206 -0.085 0.068
0.208 -0.083 0.068
0.208 -0.081 0.068
0.207 -0.079 0.068
0.211 -0.079 0.069
0.214 -0.077 0.070
0.219 -0.077 0.071
0.215 -0.074 0.070
0.221 -0.074 0.072
0.225 -0.073 0.073
0.229 -0.072 0.074
0.235 -0.071 0.076
0.244 -0.072 0.079
0.251 -0.071 0.081
0.256 -0.070 0.082
0.266 -0.070 0.086
0.268 -0.068 0.086
0.269 -0.066 0.086
0.268 -0.063 0.086
0.267 -0.061 0.086
0.265 -0.058 0.085
0.264 -0.055 0.085
0.263 -0.052 0.084
0.261 -0.049 0.083
0.257 -0.046 0.082
0.257 -0.044 0.082
0.258 -0.042 0.082
0.257 -0.039 0.082
0.262 -0.037 0.083
0.262 -0.035 0.084
0.259 -0.032 0.082
0.243 -0.028 0.077
0.220 -0.023 0.070
0.218 -0.021 0.070
0.219 -0.019 0.070
0.219 -0.017 0.070
0.222 -0.015 0.070
0.263 -0.013 0.084
0.262 -0.011 0.083
0.263 -0.008 0.083
0.264 -0.006 0.084
0.267 -0.004 0.085
0.268 -0.001 0.085
0.273 0.001 0.087
0.279 0.004 0.089
0.282 0.006 0.090
0.275 0.009 0.087
0.259 0.011 0.082
0.257 0.013 0.082
0.253 0.015 0.080
0.252 0.017 0.080
0.259 0.020 0.083
0.266 0.023 0.085
0.266 0.026 0.085
0.270 0.029 0.086
0.272 0.031 0.087
0.272 0.034 0.087
0.271 0.036 0.086
0.275 0.039 0.088
0.276 0.042 0.088
0.276 0.045 0.088
0.276 0.047 0.088
0.274 0.050 0.088
0.274 0.052 0.088
0.273 0.054 0.088
0.268 0.056 0.086
0.256 0.056 0.082
0.239 0.054 0.077
0.222 0.053 0.072
0.222 0.055 0.071
0.237 0.061 0.076
0.251 0.067 0.081
0.258 0.071 0.084
0.266 0.076 0.086
0.273 0.081 0.089
0.273 0.083 0.089
0.266 0.084 0.087
0.262 0.085 0.085
0.258 0.086 0.084
0.245 0.084 0.080
0.246 0.087 0.080
0.244 0.089 0.080
0.241 0.090 0.079
0.241 0.093 0.079
0.242 0.095 0.080
0.242 0.098 0.080
0.244 0.101 0.081
0.245 0.104 0.081
0.245 0.107 0.081
0.242 0.108 0.081
0.241 0.110 0.080
0.239 0.112 0.080
0.237 0.114 0.079
0.240 0.118 0.081
0.239 0.120 0.080
0.235 0.120 0.079
0.237 0.124 0.080
0.240 0.128 0.081
0.242 0.132 0.082
0.242 0.134 0.082
0.242 0.137 0.083
0.245 0.142 0.084
0.244 0.144 0.084
0.243 0.146 0.084
0.243 0.149 0.084
0.242 0.151 0.084
0.240 0.153 0.083
0.239 0.155 0.083
0.240 0.159 0.084
0.246 0.166 0.086
0.242 0.167 0.085
0.237 0.166 0.084
0.236 0.168 0.084
0.244 0.177 0.087
0.248 0.183 0.089
0.245 0.185 0.088
0.243 0.186 0.088
0.240 0.187 0.087
0.222 0.176 0.081
0.212 0.171 0.077
0.205 0.168 0.075
0.197 0.164 0.072
0.198 0.168 0.073
0.202 0.175 0.075
0.205 0.181 0.077
0.204 0.183 0.077
0.197 0.180 0.075
0.196 0.181 0.074
0.193 0.182 0.074
0.194 0.186 0.074
0.199 0.194 0.077
0.202 0.200 0.079
0.202 0.203 0.079
0.202 0.207 0.079
0.201 0.210 0.080
0.204 0.216 0.081
0.202 0.218 0.081
0.201 0.220 0.081
0.198 0.220 0.080
0.196 0.223 0.080
0.197 0.227 0.081
0.202 0.236 0.083
0.201 0.239 0.083
0.194 0.235 0.081
0.195 0.239 0.082
0.193 0.241 0.082
0.196 0.248 0.083
0.195 0.252 0.084
0.192 0.251 0.083
0.191 0.253 0.083
0.195 0.263 0.085
0.103 -0.138 0.045
0.103 -0.137 0.045
0.104 -0.137 0.045
0.105 -0.136 0.045
0.105 -0.133 0.045
0.105 -0.132 0.045
0.105 -0.130 0.045
0.105 -0.128 0.044
0.105 -0.127 0.044
0.120 -0.143 0.050
0.117 -0.137 0.049
0.109 -0.126 0.045
0.105 -0.120 0.043
0.106 -0.119 0.044
0.098 -0.108 0.040
0.098 -0.107 0.040
0.100 -0.106 0.040
0.101 -0.107 0.041
0.113 -0.117 0.045
0.111 -0.113 0.044
0.108 -0.108 0.043
0.102 -0.101 0.040
0.112 -0.109 0.044
0.231 -0.218 0.089
0.239 -0.222 0.092
0.240 -0.219 0.092
0.241 -0.216 0.092
0.244 -0.216 0.093
0.247 -0.215 0.094
0.247 -0.211 0.093
0.247 -0.208 0.093
0.247 -0.204 0.092
0.245 -0.199 0.091
0.236 -0.189 0.087
0.233 -0.184 0.086
0.224 -0.173 0.082
0.200 -0.153 0.073
0.197 -0.147 0.072
0.198 -0.146 0.072
0.202 -0.147 0.073
0.205 -0.146 0.074
0.206 -0.144 0.074
0.196 -0.135 0.071
0.188 -0.127 0.067
0.186 -0.123 0.066
0.187 -0.122 0.067
0.203 -0.130 0.072
0.207 -0.130 0.073
0.206 -0.127 0.073
0.204 -0.123 0.072
0.200 -0.119 0.070
0.203 -0.118 0.071
0.211 -0.121 0.074
0.212 -0.118 0.074
0.213 -0.117 0.074
0.214 -0.115 0.074
0.212 -0.112 0.073
0.208 -0.108 0.072
0.208 -0.105 0.072
0.211 -0.104 0.072
0.209 -0.101 0.072
0.210 -0.100 0.072
0.211 -0.098 0.072
0.210 -0.095 0.072
0.209 -0.092 0.071
0.208 -0.090 0.071
0.208 -0.088 0.070
0.207 -0.085 0.070
0.210 -0.085 0.071
0.209 -0.082 0.071
0.210 -0.080 0.071
0.219 -0.081 0.074
0.217 -0.079 0.073
0.214 -0.075 0.072
0.215 -0.073 0.072
0.215 -0.072 0.072
0.221 -0.071 0.074
0.230 -0.072 0.077
0.237 -0.072 0.079
0.243 -0.071 0.081
0.249 -0.071 0.083
0.254 -0.070 0.084
0.260 -0.069 0.086
0.266 -0.068 0.088
0.266 -0.065 0.088
0.264 -0.062 0.087
0.261 -0.059 0.086
0.261 -0.057 0.086
0.259 -0.054 0.086
0.257 -0.051 0.085
0.255 -0.048 0.084
0.255 -0.046 0.084
0.256 -0.044 0.084
0.257 -0.041 0.084
0.255 -0.039 0.084
0.254 -0.036 0.083
0.256 -0.034 0.084
0.258 -0.032 0.085
0.259 -0.030 0.085
0.261 -0.028 0.085
0.260 -0.025 0.085
0.223 -0.019 0.073
0.221 -0.017 0.072
0.219 -0.015 0.072
0.221 -0.013 0.072
0.222 -0.011 0.073
0.257 -0.011 0.084
0.258 -0.008 0.084
0.260 -0.006 0.085
0.263 -0.004 0.086
0.277 -0.001 0.091
0.282 0.001 0.092
0.283 0.004 0.093
0.271 0.006 0.089
0.254 0.008 0.083
0.243 0.010 0.079
0.246 0.012 0.081
0.253 0.015 0.083
0.254 0.018 0.083
0.255 0.020 0.084
0.260 0.023 0.085
0.256 0.025 0.084
0.263 0.028 0.086
0.270 0.031 0.089
0.269 0.034 0.089
0.267 0.036 0.088
0.271 0.039 0.089
0.272 0.042 0.090
0.272 0.044 0.090
0.269 0.046 0.089
0.270 0.049 0.089
0.267 0.051 0.088
0.260 0.052 0.086
0.252 0.053 0.084
0.243 0.053 0.081
0.226 0.052 0.075
0.213 0.051 0.071
0.221 0.055 0.073
0.241 0.062 0.080
0.254 0.068 0.085
0.262 0.072 0.087
0.266 0.076 0.089
0.270 0.080 0.090
0.268 0.082 0.090
0.262 0.083 0.088
0.251 0.082 0.084
0.248 0.083 0.083
0.243 0.084 0.082
0.242 0.086 0.082
0.240 0.088 0.081
0.240 0.090 0.081
0.240 0.093 0.081
0.240 0.095 0.081
0.238 0.097 0.081
0.238 0.099 0.081
0.240 0.103 0.082
0.240 0.105 0.082
0.236 0.106 0.081
0.234 0.107 0.080
0.233 0.109 0.080
0.234 0.112 0.081
0.233 0.114 0.080
0.230 0.115 0.080
0.230 0.118 0.080
0.232 0.121 0.081
0.238 0.127 0.083
0.238 0.130 0.083
0.238 0.132 0.083
0.239 0.136 0.084
0.233 0.135 0.082
0.234 0.139 0.083
0.236 0.142 0.084
0.236 0.145 0.084
0.236 0.148 0.084
0.237 0.151 0.085
0.235 0.153 0.085
0.240 0.159 0.087
0.245 0.166 0.089
0.242 0.166 0.088
0.236 0.165 0.086
0.238 0.170 0.087
0.244 0.178 0.090
0.245 0.182 0.090
0.241 0.182 0.089
0.221 0.173 0.083
0.214 0.170 0.080
0.204 0.165 0.077
0.194 0.160 0.073
0.194 0.162 0.074
0.195 0.166 0.074
0.197 0.171 0.076
0.210 0.185 0.081
0.206 0.185 0.080
0.199 0.182 0.078
0.193 0.179 0.076
0.194 0.183 0.076
0.197 0.189 0.078
0.198 0.193 0.079
0.202 0.200 0.081
0.201 0.203 0.081
0.199 0.204 0.080
0.199 0.207 0.081
0.200 0.213 0.082
0.201 0.217 0.083
0.198 0.217 0.082
0.197 0.220 0.082
0.195 0.222 0.082
0.194 0.224 0.082
0.193 0.226 0.082
0.193 0.230 0.083
0.190 0.231 0.082
0.189 0.233 0.082
0.191 0.239 0.084
0.190 0.241 0.083
0.188 0.243 0.083
0.188 0.246 0.084
0.187 0.248 0.083
0.187 0.251 0.084
0.103 -0.138 0.046
0.104 -0.137 0.046
0.104 -0.137 0.047
0.105 -0.136 0.047
0.105 -0.134 0.046
0.104 -0.131 0.046
0.105 -0.130 0.046
0.115 -0.141 0.050
0.118 -0.143 0.051
0.116 -0.138 0.050
0.108 -0.127 0.046
0.102 -0.118 0.044
0.106 -0.120 0.045
0.096 -0.108 0.041
0.097 -0.107 0.041
0.098 -0.106 0.041
0.099 -0.106 0.041
0.102 -0.107 0.042
0.109 -0.113 0.045
0.110 -0.112 0.045
0.103 -0.104 0.042
0.105 -0.104 0.042
0.109 -0.107 0.044
0.115 -0.111 0.046
0.233 -0.216 0.092
0.235 -0.215 0.093
0.236 -0.212 0.093
0.236 -0.209 0.092
0.240 -0.209 0.093
0.242 -0.207 0.094
0.241 -0.203 0.093
0.237 -0.196 0.091
0.234 -0.191 0.090
0.229 -0.184 0.088
0.226 -0.178 0.086
0.223 -0.173 0.085
0.204 -0.156 0.077
0.197 -0.148 0.074
0.198 -0.146 0.074
0.202 -0.147 0.076
0.204 -0.145 0.076
0.198 -0.139 0.074
0.189 -0.130 0.070
0.188 -0.127 0.069
0.188 -0.125 0.069
0.203 -0.132 0.074
0.202 -0.129 0.074
0.203 -0.128 0.074
0.206 -0.127 0.075
0.206 -0.125 0.075
0.201 -0.119 0.073
0.202 -0.118 0.073
0.208 -0.119 0.075
0.210 -0.118 0.075
0.208 -0.114 0.074
0.208 -0.112 0.074
0.210 -0.111 0.075
0.211 -0.109 0.075
0.209 -0.106 0.074
0.210 -0.104 0.074
0.206 -0.100 0.073
0.209 -0.099 0.074
0.208 -0.096 0.073
0.206 -0.094 0.072
0.207 -0.092 0.072
0.207 -0.090 0.072
0.207 -0.088 0.072
0.207 -0.085 0.072
0.201 -0.081 0.070
0.209 -0.082 0.072
0.211 -0.081 0.073
0.218 -0.081 0.076
0.221 -0.080 0.076
0.212 -0.075 0.073
0.213 -0.073 0.073
0.214 -0.071 0.074
0.217 -0.070 0.074
0.229 -0.072 0.079
0.235 -0.071 0.081
0.240 -0.070 0.082
0.245 -0.070 0.084
0.250 -0.069 0.086
0.255 -0.068 0.087
0.261 -0.067 0.089
0.264 -0.065 0.090
0.259 -0.061 0.088
0.258 -0.059 0.088
0.256 -0.056 0.087
0.255 -0.053 0.087
0.252 -0.050 0.085
0.249 -0.047 0.085
0.252 -0.045 0.085
0.254 -0.043 0.086
0.253 -0.041 0.085
0.252 -0.038 0.085
0.252 -0.036 0.085
0.251 -0.034 0.085
0.252 -0.031 0.085
0.257 -0.030 0.087
0.258 -0.027 0.087
0.255 -0.025 0.086
0.252 -0.022 0.085
0.249 -0.019 0.084
0.226 -0.016 0.076
0.220 -0.013 0.074
0.220 -0.011 0.074
0.219 -0.009 0.074
0.234 -0.007 0.079
0.278 -0.004 0.094
0.286 -0.001 0.096
0.288 0.001 0.097
0.278 0.004 0.094
0.260 0.006 0.088
0.247 0.008 0.083
0.244 0.010 0.082
0.247 0.013 0.083
0.251 0.015 0.085
0.254 0.018 0.086
0.252 0.020 0.085
0.248 0.022 0.084
0.252 0.024 0.085
0.262 0.028 0.088
0.269 0.031 0.091
0.268 0.033 0.091
0.264 0.035 0.089
0.266 0.038 0.090
0.267 0.041 0.091
0.268 0.043 0.091
0.266 0.046 0.090
0.256 0.046 0.087
0.250 0.048 0.085
0.235 0.047 0.080
0.236 0.049 0.080
0.226 0.050 0.077
0.218 0.050 0.075
0.217 0.052 0.074
0.222 0.055 0.076
0.243 0.063 0.083
0.256 0.068 0.088
0.263 0.073 0.090
0.262 0.075 0.090
0.263 0.078 0.091
0.262 0.080 0.090
0.252 0.080 0.087
0.243 0.079 0.084
0.237 0.080 0.082
0.240 0.083 0.083
0.237 0.084 0.082
0.234 0.086 0.082
0.237 0.089 0.083
0.237 0.091 0.083
0.235 0.093 0.082
0.235 0.095 0.082
0.234 0.098 0.082
0.234 0.100 0.082
0.233 0.102 0.082
0.231 0.104 0.082
0.230 0.105 0.081
0.230 0.108 0.081
0.230 0.111 0.082
0.229 0.113 0.082
0.227 0.114 0.081
0.226 0.116 0.081
0.230 0.121 0.083
0.228 0.122 0.082
0.229 0.125 0.082
0.230 0.129 0.083
0.230 0.131 0.083
0.233 0.135 0.085
0.232 0.137 0.084
0.230 0.139 0.084
0.231 0.142 0.085
0.231 0.145 0.085
0.231 0.148 0.085
0.233 0.152 0.086
0.236 0.157 0.088
0.245 0.166 0.091
0.241 0.166 0.090
0.235 0.165 0.088
0.238 0.171 0.090
0.243 0.177 0.092
0.241 0.179 0.092
0.225 0.170 0.086
0.211 0.162 0.081
0.209 0.164 0.080
0.204 0.163 0.079
0.197 0.160 0.077
0.193 0.159 0.075
0.195 0.164 0.077
0.199 0.170 0.078
0.200 0.174 0.079
0.204 0.180 0.081
0.208 0.187 0.083
0.195 0.179 0.078
0.195 0.181 0.079
0.196 0.185 0.079
0.197 0.190 0.080
0.197 0.193 0.081
0.197 0.197 0.081
0.196 0.199 0.081
0.195 0.201 0.082
0.193 0.202 0.081
0.191 0.203 0.081
0.191 0.207 0.081
0.191 0.211 0.082
0.190 0.213 0.082
0.191 0.217 0.083
0.190 0.220 0.083
0.188 0.221 0.082
0.186 0.223 0.082
0.185 0.225 0.082
0.186 0.230 0.083
0.186 0.233 0.084
0.185 0.236 0.084
0.184 0.238 0.084
0.185 0.243 0.085
0.184 0.244 0.084
0.177 0.239 0.082
0.103 -0.138 0.047
0.103 -0.138 0.048
0.104 -0.137 0.048
0.105 -0.136 0.048
0.105 -0.135 0.048
0.113 -0.143 0.051
0.115 -0.142 0.052
0.114 -0.140 0.051
0.113 -0.136 0.050
0.103 -0.122 0.045
0.103 -0.121 0.045
0.103 -0.119 0.045
0.096 -0.109 0.042
0.096 -0.108 0.042
0.097 -0.107 0.042
0.097 -0.106 0.042
0.099 -0.106 0.042
0.106 -0.111 0.045
0.105 -0.109 0.045
0.103 -0.105 0.043
0.100 -0.101 0.042
0.104 -0.104 0.044
0.107 -0.105 0.044
0.115 -0.111 0.048
0.221 -0.203 0.090
0.230 -0.207 0.093
0.232 -0.206 0.094
0.234 -0.204 0.094
0.236 -0.202 0.094
0.235 -0.198 0.093
0.232 -0.193 0.092
0.230 -0.188 0.091
0.229 -0.184 0.090
0.227 -0.179 0.089
0.218 -0.170 0.085
0.203 -0.155 0.079
0.200 -0.150 0.077
0.200 -0.148 0.077
0.201 -0.146 0.077
0.197 -0.141 0.076
0.191 -0.134 0.073
0.187 -0.129 0.071
0.194 -0.131 0.074
0.201 -0.134 0.076
0.203 -0.132 0.076
0.203 -0.130 0.077
0.204 -0.128 0.076
0.205 -0.127 0.077
0.204 -0.124 0.076
0.203 -0.121 0.075
0.203 -0.118 0.075
0.206 -0.118 0.076
0.206 -0.116 0.076
0.204 -0.112 0.075
0.203 -0.109 0.075
0.209 -0.110 0.077
0.212 -0.110 0.078
0.211 -0.107 0.077
0.206 -0.102 0.075
0.208 -0.101 0.076
0.200 -0.095 0.073
0.203 -0.094 0.074
0.204 -0.093 0.074
0.202 -0.090 0.073
0.205 -0.089 0.074
0.206 -0.087 0.074
0.206 -0.085 0.074
0.204 -0.082 0.073
0.202 -0.079 0.072
0.209 -0.080 0.075
0.214 -0.080 0.076
0.212 -0.077 0.076
0.211 -0.075 0.075
0.213 -0.073 0.076
0.215 -0.072 0.076
0.218 -0.071 0.077
0.226 -0.071 0.080
0.235 -0.072 0.083
0.238 -0.070 0.084
0.241 -0.069 0.085
0.244 -0.067 0.086
0.247 -0.066 0.087
0.255 -0.065 0.090
0.253 -0.062 0.089
0.252 -0.060 0.088
0.252 -0.057 0.088
0.252 -0.055 0.088
0.251 -0.052 0.088
0.246 -0.049 0.086
0.246 -0.047 0.086
0.247 -0.045 0.086
0.247 -0.042 0.086
0.249 -0.040 0.087
0.249 -0.038 0.087
0.249 -0.036 0.087
0.248 -0.033 0.086
0.247 -0.031 0.086
0.250 -0.029 0.087
0.252 -0.027 0.088
0.251 -0.024 0.087
0.249 -0.022 0.086
0.247 -0.019 0.086
0.246 -0.017 0.085
0.248 -0.015 0.086
0.221 -0.011 0.077
0.218 -0.009 0.076
0.216 -0.007 0.075
0.233 -0.005 0.081
0.283 -0.004 0.098
0.273 -0.001 0.095
0.272 0.001 0.094
0.262 0.004 0.091
0.253 0.006 0.088
0.251 0.008 0.087
0.252 0.010 0.087
0.248 0.013 0.086
0.243 0.015 0.084
0.245 0.017 0.085
0.245 0.019 0.085
0.246 0.022 0.086
0.254 0.025 0.088
0.259 0.028 0.090
0.263 0.030 0.091
0.266 0.033 0.093
0.263 0.035 0.092
0.261 0.038 0.091
0.261 0.040 0.091
0.262 0.043 0.091
0.247 0.043 0.086
0.240 0.044 0.084
0.228 0.044 0.080
0.222 0.045 0.078
0.213 0.045 0.075
0.214 0.047 0.075
0.221 0.051 0.078
0.235 0.056 0.083
0.245 0.061 0.086
0.255 0.066 0.090
0.258 0.069 0.091
0.263 0.073 0.093
0.264 0.076 0.093
0.261 0.077 0.092
0.253 0.078 0.090
0.247 0.078 0.088
0.238 0.078 0.085
0.232 0.078 0.083
0.229 0.079 0.082
0.231 0.082 0.083
0.230 0.084 0.082
0.230 0.086 0.082
0.231 0.089 0.083
0.230 0.091 0.083
0.231 0.094 0.083
0.230 0.096 0.083
0.230 0.099 0.083
0.230 0.101 0.083
0.222 0.100 0.081
0.225 0.103 0.082
0.226 0.106 0.082
0.224 0.108 0.082
0.225 0.111 0.083
0.223 0.112 0.082
0.221 0.114 0.082
0.222 0.117 0.082
0.222 0.119 0.082
0.223 0.122 0.083
0.225 0.125 0.084
0.226 0.129 0.084
0.226 0.132 0.085
0.228 0.136 0.086
0.227 0.137 0.085
0.228 0.141 0.086
0.228 0.143 0.086
0.227 0.146 0.086
0.230 0.150 0.088
0.235 0.157 0.090
0.241 0.164 0.093
0.238 0.164 0.092
0.238 0.168 0.092
0.254 0.182 0.099
0.245 0.179 0.096
0.232 0.173 0.091
0.216 0.164 0.085
0.209 0.161 0.082
0.195 0.153 0.077
0.189 0.151 0.075
0.191 0.155 0.076
0.192 0.158 0.077
0.195 0.164 0.079
0.199 0.170 0.080
0.199 0.173 0.081
0.199 0.176 0.081
0.195 0.176 0.080
0.196 0.180 0.081
0.193 0.180 0.080
0.196 0.186 0.082
0.197 0.190 0.083
0.195 0.192 0.083
0.189 0.189 0.080
0.188 0.191 0.080
0.192 0.198 0.082
0.188 0.197 0.081
0.186 0.199 0.081
0.185 0.201 0.081
0.184 0.203 0.081
0.184 0.206 0.082
0.186 0.212 0.083
0.187 0.217 0.084
0.185 0.218 0.083
0.182 0.218 0.083
0.182 0.221 0.083
0.181 0.223 0.083
0.182 0.228 0.084
0.180 0.230 0.084
0.179 0.232 0.084
0.181 0.238 0.085
0.180 0.240 0.085
0.103 -0.137 0.049
0.104 -0.137 0.049
0.109 -0.142 0.051
0.114 -0.145 0.053
0.110 -0.139 0.051
0.110 -0.137 0.051
0.107 -0.131 0.049
0.102 -0.124 0.047
0.101 -0.121 0.046
0.095 -0.112 0.043
0.097 -0.113 0.044
0.099 -0.113 0.045
0.099 -0.111 0.044
0.111 -0.123 0.049
0.106 -0.116 0.047
0.102 -0.110 0.045
0.101 -0.107 0.044
0.104 -0.109 0.045
0.100 -0.103 0.043
0.101 -0.102 0.043
0.102 -0.102 0.044
0.105 -0.103 0.045
0.110 -0.106 0.047
0.116 -0.110 0.049
0.217 -0.199 0.091
0.220 -0.199 0.092
0.228 -0.202 0.094
0.229 -0.200 0.094
0.231 -0.198 0.095
0.232 -0.196 0.095
0.227 -0.189 0.093
0.227 -0.186 0.092
0.224 -0.180 0.090
0.223 -0.177 0.090
0.221 -0.172 0.089
0.211 -0.161 0.084
0.205 -0.154 0.082
0.202 -0.149 0.080
0.196 -0.142 0.077
0.192 -0.137 0.076
0.191 -0.134 0.075
0.194 -0.134 0.076
0.200 -0.136 0.078
0.201 -0.134 0.078
0.203 -0.133 0.079
0.204 -0.131 0.079
0.204 -0.129 0.079
0.203 -0.125 0.078
0.203 -0.123 0.078
0.202 -0.121 0.077
0.200 -0.117 0.076
0.204 -0.117 0.078
0.205 -0.115 0.078
0.199 -0.110 0.075
0.202 -0.109 0.076
0.201 -0.106 0.076
0.200 -0.104 0.075
0.204 -0.104 0.077
0.203 -0.101 0.076
0.204 -0.099 0.076
0.205 -0.098 0.076
0.204 -0.095 0.076
0.205 -0.093 0.076
0.204 -0.091 0.076
0.203 -0.088 0.075
0.206 -0.087 0.076
0.206 -0.085 0.076
0.206 -0.083 0.076
0.208 -0.082 0.076
0.208 -0.080 0.076
0.209 -0.078 0.076
0.208 -0.076 0.076
0.212 -0.075 0.077
0.214 -0.073 0.078
0.217 -0.072 0.079
0.221 -0.071 0.080
0.227 -0.071 0.083
0.234 -0.071 0.085
0.235 -0.069 0.085
0.236 -0.067 0.086
0.240 -0.066 0.087
0.241 -0.064 0.087
0.244 -0.063 0.088
0.246 -0.061 0.089
0.248 -0.059 0.089
0.247 -0.056 0.089
0.246 -0.054 0.088
0.242 -0.051 0.087
0.244 -0.049 0.088
0.243 -0.046 0.087
0.242 -0.044 0.087
0.243 -0.042 0.087
0.244 -0.040 0.087
0.244 -0.037 0.087
0.244 -0.035 0.087
0.244 -0.033 0.087
0.243 -0.030 0.087
0.245 -0.028 0.087
0.246 -0.026 0.088
0.244 -0.024 0.087
0.243 -0.021 0.087
0.243 -0.019 0.087
0.245 -0.017 0.087
0.247 -0.015 0.088
0.252 -0.013 0.090
0.243 -0.008 0.087
0.245 -0.006 0.087
0.245 -0.003 0.087
0.252 -0.001 0.090
0.252 0.001 0.090
0.254 0.004 0.090
0.252 0.006 0.090
0.250 0.008 0.089
0.250 0.010 0.089
0.237 0.012 0.085
0.234 0.014 0.084
0.232 0.016 0.083
0.235 0.018 0.084
0.243 0.021 0.087
0.250 0.024 0.089
0.253 0.027 0.090
0.254 0.029 0.091
0.262 0.033 0.094
0.261 0.035 0.094
0.256 0.037 0.092
0.253 0.039 0.091
0.243 0.040 0.087
0.236 0.041 0.085
0.223 0.041 0.080
0.214 0.041 0.077
0.206 0.041 0.074
0.201 0.042 0.072
0.205 0.045 0.074
0.219 0.050 0.079
0.255 0.063 0.092
