VERSION .7
FIELDS x y z
SIZE 4 4 4
TYPE F F F
COUNT 1 1 1
WIDTH     2586
HEIGHT 1
VIEWPOINT 0 0 0 1 0 0 0
POINTS     2586
DATA ascii
0.268 0.130 0.079
0.265 0.132 0.078
0.262 0.133 0.078
0.263 0.137 0.078
0.262 0.139 0.078
0.260 0.141 0.078
0.259 0.143 0.078
0.259 0.146 0.078
0.259 0.149 0.078
0.252 0.148 0.076
0.247 0.147 0.075
0.248 0.151 0.075
0.251 0.156 0.076
0.254 0.161 0.078
0.255 0.164 0.078
0.257 0.169 0.079
0.259 0.173 0.080
0.259 0.177 0.080
0.255 0.177 0.079
0.251 0.178 0.078
0.252 0.181 0.079
0.250 0.183 0.079
0.248 0.185 0.078
0.248 0.188 0.078
0.250 0.193 0.079
0.249 0.196 0.080
0.251 0.201 0.080
0.250 0.204 0.081
0.251 0.208 0.081
0.251 0.211 0.082
0.249 0.214 0.082
0.245 0.214 0.080
0.235 0.209 0.078
0.234 0.211 0.078
0.226 0.208 0.075
0.219 0.205 0.074
0.218 0.207 0.074
0.215 0.208 0.073
0.213 0.209 0.072
0.212 0.212 0.073
0.212 0.216 0.073
0.212 0.219 0.073
0.206 0.216 0.072
0.203 0.217 0.071
0.199 0.216 0.070
0.199 0.220 0.071
0.193 0.216 0.069
0.201 0.229 0.072
0.200 0.232 0.072
0.202 0.238 0.074
0.203 0.244 0.075
0.201 0.245 0.074
0.196 0.243 0.073
0.196 0.246 0.073
0.198 0.253 0.075
0.204 0.265 0.077
0.205 0.270 0.078
0.187 0.249 0.071
0.101 -0.138 0.039
0.102 -0.138 0.039
0.102 -0.136 0.039
0.102 -0.134 0.039
0.102 -0.132 0.039
0.103 -0.133 0.039
0.103 -0.131 0.039
0.104 -0.130 0.039
0.104 -0.128 0.039
0.105 -0.127 0.039
0.104 -0.125 0.039
0.106 -0.124 0.039
0.106 -0.123 0.039
0.106 -0.122 0.039
0.106 -0.119 0.038
0.113 -0.125 0.041
0.111 -0.121 0.040
0.106 -0.114 0.038
0.104 -0.110 0.037
0.112 -0.117 0.040
0.117 -0.120 0.041
0.122 -0.123 0.043
0.123 -0.122 0.043
0.261 -0.252 0.090
0.260 -0.247 0.089
0.260 -0.243 0.089
0.264 -0.243 0.090
0.265 -0.240 0.090
0.265 -0.236 0.089
0.267 -0.234 0.089
0.266 -0.230 0.089
0.267 -0.226 0.089
0.265 -0.221 0.088
0.264 -0.217 0.087
0.263 -0.212 0.086
0.252 -0.201 0.083
0.237 -0.185 0.077
0.227 -0.175 0.074
0.209 -0.158 0.068
0.205 -0.153 0.066
0.211 -0.154 0.068
0.212 -0.152 0.068
0.204 -0.144 0.065
0.212 -0.147 0.067
0.208 -0.142 0.066
0.208 -0.140 0.066
0.206 -0.135 0.065
0.174 -0.111 0.054
0.174 -0.108 0.054
0.175 -0.107 0.055
0.195 -0.117 0.060
0.210 -0.124 0.065
0.210 -0.121 0.065
0.212 -0.120 0.065
0.212 -0.118 0.065
0.211 -0.115 0.065
0.209 -0.112 0.064
0.209 -0.109 0.064
0.210 -0.108 0.064
0.212 -0.107 0.064
0.213 -0.105 0.064
0.214 -0.103 0.065
0.212 -0.100 0.064
0.207 -0.095 0.062
0.210 -0.095 0.063
0.212 -0.093 0.064
0.211 -0.091 0.063
0.211 -0.088 0.063
0.208 -0.085 0.062
0.213 -0.085 0.064
0.215 -0.084 0.064
0.213 -0.081 0.063
0.212 -0.079 0.063
0.216 -0.078 0.064
0.220 -0.077 0.065
0.222 -0.076 0.066
0.225 -0.074 0.066
0.231 -0.074 0.068
0.230 -0.072 0.068
0.233 -0.070 0.069
0.246 -0.072 0.072
0.252 -0.071 0.074
0.205 -0.052 0.060
0.198 -0.048 0.058
0.198 -0.047 0.058
0.199 -0.045 0.058
0.200 -0.043 0.058
0.201 -0.042 0.059
0.202 -0.040 0.059
0.206 -0.039 0.060
0.208 -0.037 0.060
0.208 -0.035 0.061
0.210 -0.034 0.061
0.216 -0.033 0.063
0.226 -0.032 0.066
0.276 -0.034 0.080
0.277 -0.032 0.080
0.276 -0.029 0.080
0.278 -0.027 0.080
0.279 -0.024 0.081
0.279 -0.022 0.081
0.276 -0.019 0.080
0.276 -0.016 0.080
0.276 -0.014 0.080
0.275 -0.011 0.079
0.276 -0.009 0.080
0.280 -0.006 0.081
0.281 -0.004 0.081
0.279 -0.001 0.081
0.279 0.001 0.081
0.278 0.004 0.080
0.278 0.006 0.080
0.278 0.009 0.080
0.284 0.012 0.082
0.291 0.015 0.084
0.282 0.017 0.082
0.269 0.018 0.078
0.263 0.020 0.076
0.267 0.023 0.078
0.278 0.027 0.081
0.272 0.029 0.079
0.282 0.032 0.082
0.286 0.035 0.083
0.286 0.038 0.083
0.283 0.040 0.082
0.279 0.042 0.081
0.281 0.045 0.082
0.285 0.049 0.083
0.288 0.052 0.084
0.286 0.054 0.084
0.288 0.057 0.084
0.289 0.060 0.085
0.290 0.063 0.085
0.280 0.063 0.082
0.261 0.062 0.077
0.249 0.061 0.073
0.258 0.066 0.076
0.265 0.070 0.078
0.271 0.074 0.080
0.276 0.078 0.081
0.279 0.082 0.082
0.288 0.088 0.085
0.294 0.092 0.087
0.288 0.093 0.085
0.278 0.093 0.083
0.264 0.091 0.079
0.266 0.094 0.079
0.269 0.098 0.080
0.267 0.100 0.080
0.267 0.102 0.080
0.264 0.104 0.079
0.261 0.105 0.078
0.261 0.108 0.079
0.255 0.108 0.077
0.252 0.110 0.076
0.251 0.112 0.076
0.254 0.116 0.077
0.258 0.120 0.078
0.259 0.123 0.079
0.260 0.127 0.079
0.258 0.128 0.079
0.259 0.132 0.079
0.257 0.134 0.079
0.255 0.135 0.079
0.255 0.138 0.079
0.253 0.140 0.078
0.253 0.143 0.079
0.248 0.143 0.077
0.245 0.144 0.076
0.243 0.146 0.076
0.244 0.149 0.077
0.247 0.154 0.078
0.248 0.157 0.078
0.252 0.163 0.080
0.255 0.168 0.081
0.258 0.173 0.082
0.257 0.175 0.082
0.253 0.176 0.081
0.249 0.176 0.080
0.248 0.179 0.080
0.247 0.182 0.080
0.247 0.185 0.081
0.247 0.188 0.081
0.247 0.192 0.081
0.249 0.197 0.082
0.249 0.199 0.083
0.248 0.202 0.083
0.243 0.202 0.082
0.219 0.188 0.074
0.226 0.197 0.077
0.222 0.198 0.076
0.220 0.199 0.075
0.218 0.201 0.075
0.212 0.199 0.074
0.209 0.199 0.073
0.207 0.200 0.073
0.205 0.202 0.072
0.203 0.204 0.072
0.206 0.210 0.074
0.204 0.211 0.073
0.201 0.212 0.073
0.203 0.217 0.074
0.207 0.225 0.076
0.209 0.231 0.077
0.213 0.240 0.079
0.210 0.240 0.078
0.205 0.239 0.077
0.207 0.244 0.078
0.210 0.253 0.080
0.207 0.253 0.079
0.200 0.248 0.077
0.195 0.246 0.075
0.195 0.249 0.076
0.200 0.260 0.078
0.202 0.266 0.079
0.196 0.263 0.078
0.102 -0.138 0.041
0.102 -0.137 0.041
0.102 -0.135 0.041
0.103 -0.135 0.041
0.105 -0.134 0.041
0.105 -0.133 0.041
0.104 -0.130 0.041
0.104 -0.129 0.040
0.106 -0.128 0.041
0.105 -0.126 0.040
0.105 -0.124 0.040
0.105 -0.122 0.040
0.106 -0.121 0.040
0.107 -0.120 0.040
0.117 -0.131 0.044
0.109 -0.119 0.040
0.107 -0.115 0.039
0.101 -0.107 0.037
0.111 -0.116 0.040
0.121 -0.125 0.044
0.119 -0.120 0.043
0.121 -0.120 0.043
0.116 -0.114 0.042
0.258 -0.246 0.091
0.257 -0.241 0.091
0.254 -0.234 0.089
0.256 -0.233 0.090
0.259 -0.232 0.090
0.260 -0.228 0.090
0.261 -0.226 0.090
0.260 -0.221 0.089
0.260 -0.217 0.089
0.261 -0.215 0.089
0.257 -0.208 0.087
0.247 -0.197 0.083
0.238 -0.187 0.080
0.228 -0.176 0.076
0.219 -0.166 0.073
0.202 -0.151 0.067
0.203 -0.149 0.067
0.207 -0.149 0.068
0.204 -0.145 0.067
0.205 -0.142 0.067
0.211 -0.144 0.069
0.209 -0.140 0.068
0.201 -0.132 0.065
0.180 -0.116 0.058
0.176 -0.112 0.057
0.177 -0.111 0.057
0.199 -0.122 0.064
0.209 -0.126 0.067
0.210 -0.124 0.067
0.211 -0.122 0.067
0.211 -0.120 0.067
0.212 -0.118 0.067
0.213 -0.116 0.067
0.210 -0.113 0.067
0.210 -0.110 0.066
0.210 -0.108 0.066
0.208 -0.105 0.065
0.211 -0.104 0.066
0.211 -0.102 0.066
0.211 -0.099 0.066
0.209 -0.097 0.065
0.211 -0.095 0.066
0.212 -0.094 0.066
0.211 -0.091 0.065
0.210 -0.088 0.065
0.205 -0.084 0.063
0.210 -0.084 0.065
0.216 -0.084 0.067
0.215 -0.082 0.066
0.216 -0.080 0.066
0.218 -0.079 0.067
0.220 -0.077 0.067
0.222 -0.076 0.068
0.224 -0.074 0.068
0.231 -0.074 0.070
0.234 -0.073 0.071
0.235 -0.071 0.071
0.248 -0.072 0.075
0.252 -0.071 0.076
0.260 -0.071 0.079
0.273 -0.072 0.083
0.276 -0.070 0.083
0.273 -0.067 0.082
0.264 -0.062 0.080
0.216 -0.045 0.065
0.210 -0.042 0.063
0.209 -0.039 0.063
0.207 -0.037 0.062
0.208 -0.035 0.062
0.208 -0.033 0.062
0.209 -0.032 0.063
0.211 -0.030 0.063
0.214 -0.028 0.064
0.215 -0.027 0.064
0.216 -0.025 0.065
0.231 -0.024 0.069
0.262 -0.025 0.078
0.277 -0.024 0.083
0.273 -0.021 0.082
0.270 -0.019 0.081
0.271 -0.016 0.081
0.271 -0.014 0.081
0.271 -0.011 0.081
0.273 -0.009 0.082
0.275 -0.006 0.082
0.275 -0.004 0.082
0.276 -0.001 0.082
0.276 0.001 0.082
0.276 0.004 0.082
0.276 0.006 0.082
0.286 0.009 0.085
0.289 0.012 0.086
0.298 0.015 0.089
0.290 0.017 0.087
0.268 0.018 0.080
0.267 0.021 0.080
0.274 0.024 0.082
0.271 0.026 0.081
0.274 0.029 0.082
0.278 0.032 0.083
0.289 0.036 0.087
0.288 0.038 0.086
0.283 0.040 0.085
0.282 0.043 0.085
0.283 0.046 0.085
0.284 0.049 0.086
0.282 0.051 0.085
0.282 0.053 0.085
0.282 0.056 0.085
0.285 0.059 0.086
0.280 0.061 0.085
0.234 0.055 0.071
0.238 0.059 0.072
0.242 0.062 0.073
0.257 0.068 0.078
0.270 0.074 0.082
0.284 0.081 0.086
0.289 0.085 0.088
0.293 0.089 0.089
0.291 0.091 0.089
0.283 0.092 0.087
0.263 0.088 0.080
0.257 0.088 0.079
0.260 0.092 0.080
0.259 0.094 0.080
0.258 0.096 0.079
0.254 0.098 0.079
0.248 0.098 0.077
0.247 0.100 0.077
0.246 0.102 0.076
0.246 0.105 0.077
0.247 0.108 0.077
0.249 0.111 0.078
0.251 0.114 0.079
0.254 0.119 0.080
0.254 0.121 0.080
0.249 0.121 0.078
0.252 0.126 0.080
0.251 0.128 0.079
0.250 0.130 0.079
0.248 0.132 0.079
0.248 0.135 0.079
0.249 0.138 0.080
0.247 0.140 0.079
0.246 0.142 0.079
0.244 0.143 0.079
0.243 0.146 0.079
0.246 0.151 0.080
0.247 0.154 0.081
0.247 0.157 0.081
0.246 0.159 0.081
0.253 0.167 0.083
0.255 0.171 0.084
0.252 0.173 0.084
0.249 0.174 0.083
0.246 0.175 0.082
0.245 0.177 0.082
0.246 0.181 0.083
0.246 0.185 0.083
0.247 0.188 0.084
0.250 0.194 0.085
0.249 0.197 0.085
0.246 0.197 0.084
0.237 0.194 0.082
0.220 0.186 0.076
0.219 0.189 0.077
0.214 0.187 0.075
0.212 0.189 0.075
0.210 0.191 0.075
0.210 0.193 0.075
0.208 0.195 0.074
0.201 0.192 0.072
0.201 0.195 0.073
0.203 0.200 0.074
0.205 0.206 0.075
0.202 0.206 0.075
0.202 0.209 0.075
0.198 0.209 0.074
0.199 0.213 0.075
0.206 0.225 0.078
0.214 0.237 0.081
0.214 0.241 0.082
0.212 0.244 0.082
0.209 0.243 0.081
0.210 0.249 0.082
0.212 0.255 0.083
0.210 0.256 0.083
0.201 0.250 0.080
0.195 0.247 0.078
0.196 0.251 0.079
0.200 0.261 0.081
0.202 0.267 0.082
0.214 0.287 0.088
0.102 -0.139 0.042
0.102 -0.137 0.042
0.103 -0.136 0.042
0.104 -0.136 0.042
0.105 -0.135 0.043
0.105 -0.134 0.043
0.105 -0.132 0.042
0.105 -0.130 0.042
0.106 -0.129 0.042
0.106 -0.127 0.042
0.105 -0.124 0.041
0.105 -0.122 0.041
0.108 -0.124 0.042
0.116 -0.131 0.045
0.105 -0.117 0.040
0.105 -0.115 0.040
0.099 -0.107 0.038
0.100 -0.107 0.038
0.102 -0.107 0.039
0.123 -0.127 0.046
0.117 -0.119 0.044
0.110 -0.110 0.041
0.109 -0.108 0.040
0.250 -0.238 0.091
0.250 -0.235 0.091
0.251 -0.232 0.091
0.254 -0.231 0.092
0.255 -0.228 0.092
0.253 -0.223 0.091
0.254 -0.220 0.090
0.255 -0.218 0.091
0.256 -0.215 0.090
0.251 -0.207 0.088
0.249 -0.202 0.087
0.246 -0.197 0.086
0.238 -0.187 0.083
0.228 -0.176 0.079
0.210 -0.159 0.072
0.203 -0.152 0.070
0.202 -0.148 0.069
0.200 -0.144 0.068
0.205 -0.145 0.070
0.208 -0.145 0.071
0.210 -0.144 0.071
0.208 -0.140 0.070
0.192 -0.127 0.065
0.180 -0.117 0.060
0.179 -0.114 0.060
0.208 -0.128 0.069
0.210 -0.126 0.069
0.208 -0.123 0.069
0.210 -0.122 0.069
0.212 -0.120 0.070
0.212 -0.118 0.069
0.217 -0.119 0.071
0.216 -0.116 0.070
0.209 -0.110 0.068
0.208 -0.107 0.067
0.208 -0.105 0.067
0.207 -0.102 0.067
0.209 -0.101 0.067
0.209 -0.099 0.067
0.210 -0.097 0.067
0.206 -0.093 0.066
0.211 -0.093 0.067
0.211 -0.091 0.068
0.200 -0.084 0.064
0.209 -0.086 0.066
0.209 -0.084 0.066
0.214 -0.084 0.068
0.221 -0.084 0.070
0.219 -0.081 0.069
0.221 -0.080 0.070
0.219 -0.077 0.069
0.219 -0.075 0.069
0.225 -0.074 0.071
0.232 -0.075 0.073
0.238 -0.074 0.075
0.241 -0.073 0.076
0.246 -0.072 0.077
0.255 -0.072 0.080
0.262 -0.072 0.082
0.272 -0.072 0.085
0.274 -0.070 0.085
0.272 -0.067 0.085
0.272 -0.064 0.085
0.273 -0.062 0.085
0.274 -0.060 0.085
0.271 -0.056 0.084
0.268 -0.053 0.083
0.265 -0.050 0.082
0.264 -0.047 0.082
0.259 -0.044 0.080
0.253 -0.041 0.078
0.224 -0.032 0.069
0.218 -0.029 0.067
0.214 -0.027 0.066
0.215 -0.025 0.066
0.216 -0.023 0.067
0.218 -0.021 0.067
0.220 -0.019 0.068
0.266 -0.018 0.082
0.268 -0.016 0.083
0.267 -0.013 0.082
0.269 -0.011 0.083
0.270 -0.009 0.083
0.267 -0.006 0.082
0.266 -0.004 0.082
0.272 -0.001 0.084
0.274 0.001 0.084
0.275 0.004 0.085
0.294 0.007 0.091
0.290 0.009 0.089
0.286 0.012 0.088
0.288 0.015 0.089
0.280 0.017 0.086
0.274 0.019 0.085
0.270 0.021 0.083
0.269 0.023 0.083
0.276 0.027 0.085
0.277 0.029 0.086
0.275 0.032 0.085
0.281 0.035 0.087
0.286 0.038 0.088
0.280 0.040 0.087
0.283 0.043 0.088
0.285 0.046 0.088
0.280 0.048 0.087
0.282 0.051 0.088
0.280 0.053 0.087
0.279 0.056 0.087
0.273 0.057 0.085
0.261 0.057 0.082
0.238 0.054 0.074
0.229 0.054 0.072
0.234 0.058 0.073
0.243 0.062 0.076
0.249 0.066 0.078
0.286 0.079 0.090
0.292 0.083 0.092
0.293 0.086 0.092
0.291 0.089 0.092
0.288 0.090 0.091
0.277 0.090 0.088
0.262 0.088 0.083
0.253 0.087 0.080
0.250 0.089 0.080
0.250 0.091 0.080
0.246 0.092 0.078
0.244 0.094 0.078
0.244 0.096 0.078
0.244 0.099 0.078
0.244 0.101 0.078
0.244 0.104 0.078
0.245 0.107 0.079
0.246 0.110 0.079
0.246 0.112 0.079
0.247 0.116 0.080
0.245 0.117 0.080
0.247 0.121 0.080
0.246 0.123 0.080
0.245 0.125 0.080
0.243 0.127 0.080
0.242 0.129 0.080
0.241 0.131 0.079
0.244 0.135 0.081
0.245 0.139 0.081
0.245 0.142 0.081
0.245 0.144 0.081
0.245 0.147 0.082
0.245 0.150 0.082
0.247 0.154 0.083
0.245 0.156 0.083
0.243 0.158 0.082
0.246 0.162 0.083
0.249 0.168 0.085
0.245 0.168 0.084
0.245 0.171 0.084
0.243 0.173 0.084
0.243 0.176 0.084
0.245 0.181 0.085
0.245 0.184 0.085
0.245 0.187 0.086
0.247 0.192 0.087
0.247 0.195 0.087
0.226 0.182 0.080
0.219 0.179 0.078
0.213 0.178 0.076
0.216 0.183 0.077
0.213 0.183 0.077
0.212 0.186 0.077
0.208 0.186 0.076
0.205 0.186 0.075
0.208 0.192 0.077
0.200 0.188 0.074
0.200 0.192 0.075
0.201 0.195 0.075
0.201 0.199 0.076
0.203 0.204 0.077
0.207 0.212 0.079
0.205 0.213 0.078
0.200 0.211 0.077
0.200 0.215 0.077
0.198 0.216 0.077
0.202 0.225 0.079
0.211 0.238 0.083
0.208 0.240 0.083
0.206 0.240 0.082
0.205 0.243 0.082
0.208 0.251 0.084
0.207 0.254 0.084
0.201 0.250 0.082
0.197 0.249 0.081
0.198 0.255 0.082
0.196 0.255 0.082
0.196 0.260 0.082
0.196 0.263 0.083
0.103 -0.140 0.044
0.103 -0.138 0.044
0.103 -0.136 0.043
0.104 -0.136 0.044
0.105 -0.136 0.044
0.105 -0.134 0.044
0.105 -0.132 0.044
0.106 -0.130 0.043
0.106 -0.129 0.044
0.106 -0.127 0.043
0.106 -0.126 0.043
0.119 -0.139 0.048
0.117 -0.134 0.047
0.111 -0.126 0.045
0.104 -0.116 0.041
0.103 -0.113 0.041
0.099 -0.107 0.039
0.100 -0.107 0.039
0.101 -0.106 0.039
0.111 -0.113 0.043
0.109 -0.109 0.042
0.108 -0.107 0.041
0.243 -0.229 0.091
0.248 -0.229 0.093
0.250 -0.228 0.093
0.249 -0.223 0.092
0.248 -0.219 0.092
0.249 -0.216 0.091
0.251 -0.215 0.092
0.252 -0.212 0.092
0.248 -0.205 0.090
0.246 -0.200 0.089
0.241 -0.193 0.087
0.239 -0.188 0.086
0.207 -0.157 0.074
0.206 -0.154 0.073
0.203 -0.149 0.072
0.199 -0.144 0.070
0.200 -0.142 0.070
0.207 -0.145 0.073
0.207 -0.142 0.072
0.203 -0.137 0.071
0.186 -0.123 0.065
0.180 -0.117 0.062
0.192 -0.122 0.066
0.207 -0.130 0.071
0.208 -0.128 0.071
0.209 -0.126 0.071
0.210 -0.124 0.072
0.210 -0.122 0.071
0.212 -0.121 0.072
0.218 -0.122 0.074
0.221 -0.121 0.074
0.221 -0.118 0.074
0.210 -0.111 0.071
0.207 -0.107 0.069
0.208 -0.105 0.070
0.207 -0.102 0.069
0.205 -0.099 0.068
0.208 -0.098 0.069
0.208 -0.096 0.069
0.212 -0.096 0.070
0.207 -0.091 0.068
0.210 -0.091 0.069
0.210 -0.088 0.069
0.209 -0.086 0.069
0.209 -0.084 0.069
0.211 -0.083 0.069
0.214 -0.082 0.070
0.217 -0.080 0.071
0.208 -0.075 0.068
0.216 -0.076 0.070
0.217 -0.074 0.070
0.219 -0.073 0.071
0.232 -0.075 0.075
0.240 -0.075 0.078
0.243 -0.074 0.079
0.242 -0.071 0.078
0.257 -0.073 0.083
0.259 -0.071 0.083
0.269 -0.071 0.087
0.269 -0.069 0.087
0.269 -0.066 0.087
0.268 -0.063 0.086
0.270 -0.061 0.087
0.269 -0.058 0.086
0.267 -0.055 0.085
0.265 -0.053 0.085
0.263 -0.050 0.084
0.263 -0.047 0.084
0.263 -0.045 0.084
0.256 -0.041 0.082
0.259 -0.039 0.083
0.261 -0.037 0.083
0.260 -0.035 0.083
0.261 -0.032 0.083
0.245 -0.028 0.078
0.224 -0.024 0.071
0.216 -0.021 0.069
0.218 -0.019 0.069
0.219 -0.017 0.070
0.221 -0.015 0.070
0.265 -0.013 0.084
0.264 -0.011 0.084
0.263 -0.008 0.084
0.262 -0.006 0.083
0.262 -0.004 0.083
0.266 -0.001 0.084
0.278 0.001 0.088
0.286 0.007 0.091
0.288 0.009 0.091
0.280 0.012 0.089
0.267 0.013 0.085
0.273 0.016 0.087
0.272 0.019 0.087
0.269 0.021 0.085
0.267 0.023 0.085
0.271 0.026 0.086
0.273 0.029 0.087
0.271 0.031 0.086
0.268 0.033 0.086
0.274 0.037 0.087
0.279 0.040 0.089
0.280 0.043 0.089
0.279 0.045 0.089
0.278 0.048 0.089
0.273 0.049 0.087
0.281 0.053 0.090
0.271 0.054 0.087
0.263 0.055 0.084
0.252 0.055 0.081
0.236 0.054 0.076
0.230 0.055 0.074
0.239 0.059 0.077
0.248 0.064 0.080
0.253 0.067 0.082
0.283 0.078 0.092
0.290 0.083 0.094
0.284 0.084 0.092
0.282 0.086 0.092
0.277 0.087 0.090
0.268 0.087 0.087
0.259 0.087 0.084
0.250 0.086 0.082
0.248 0.088 0.081
0.246 0.090 0.081
0.244 0.091 0.080
0.243 0.094 0.080
0.243 0.096 0.080
0.242 0.098 0.080
0.241 0.100 0.080
0.243 0.103 0.080
0.243 0.106 0.081
0.242 0.108 0.080
0.241 0.110 0.080
0.240 0.112 0.080
0.239 0.114 0.080
0.240 0.117 0.080
0.240 0.120 0.081
0.239 0.122 0.081
0.238 0.124 0.081
0.237 0.127 0.080
0.239 0.130 0.081
0.240 0.133 0.082
0.242 0.137 0.083
0.243 0.140 0.083
0.245 0.144 0.084
0.245 0.148 0.085
0.243 0.149 0.084
0.239 0.150 0.083
0.240 0.153 0.083
0.241 0.156 0.084
0.241 0.160 0.084
0.247 0.167 0.087
0.244 0.168 0.086
0.239 0.167 0.085
0.240 0.171 0.085
0.241 0.175 0.086
0.251 0.185 0.090
0.245 0.185 0.088
0.238 0.182 0.086
0.233 0.181 0.084
0.216 0.174 0.079
0.208 0.171 0.076
0.208 0.173 0.077
0.205 0.174 0.076
0.209 0.180 0.078
0.208 0.183 0.078
0.210 0.188 0.079
0.209 0.190 0.079
0.198 0.183 0.075
0.203 0.191 0.077
0.204 0.195 0.078
0.204 0.198 0.079
0.202 0.200 0.079
0.202 0.203 0.079
0.207 0.212 0.081
0.208 0.217 0.082
0.205 0.217 0.082
0.200 0.216 0.080
0.198 0.217 0.080
0.195 0.218 0.079
0.203 0.230 0.083
0.204 0.235 0.084
0.199 0.233 0.082
0.198 0.236 0.082
0.200 0.242 0.084
0.200 0.246 0.084
0.199 0.248 0.084
0.196 0.248 0.083
0.193 0.248 0.083
0.191 0.250 0.082
0.191 0.253 0.083
0.193 0.259 0.084
0.104 -0.139 0.045
0.104 -0.138 0.045
0.105 -0.137 0.045
0.105 -0.136 0.045
0.106 -0.135 0.045
0.105 -0.131 0.045
0.105 -0.130 0.045
0.106 -0.130 0.045
0.107 -0.129 0.045
0.118 -0.140 0.049
0.117 -0.136 0.049
0.111 -0.128 0.046
0.107 -0.121 0.044
0.104 -0.116 0.043
0.098 -0.108 0.040
0.100 -0.108 0.040
0.100 -0.106 0.040
0.100 -0.105 0.040
0.117 -0.121 0.047
0.110 -0.112 0.044
0.105 -0.105 0.041
0.104 -0.103 0.041
0.110 -0.107 0.043
0.234 -0.221 0.091
0.238 -0.220 0.092
0.240 -0.219 0.092
0.241 -0.216 0.092
0.243 -0.214 0.092
0.244 -0.212 0.092
0.244 -0.209 0.092
0.244 -0.205 0.091
0.246 -0.203 0.092
0.245 -0.199 0.091
0.241 -0.193 0.089
0.229 -0.180 0.084
0.212 -0.164 0.078
0.212 -0.161 0.078
0.209 -0.156 0.076
0.203 -0.149 0.074
0.199 -0.144 0.072
0.201 -0.143 0.073
0.203 -0.142 0.073
0.204 -0.140 0.073
0.187 -0.126 0.067
0.185 -0.123 0.066
0.189 -0.123 0.067
0.205 -0.131 0.073
0.207 -0.130 0.073
0.208 -0.128 0.073
0.208 -0.126 0.073
0.210 -0.124 0.074
0.210 -0.122 0.074
0.213 -0.122 0.074
0.216 -0.121 0.075
0.220 -0.121 0.076
0.220 -0.118 0.076
0.207 -0.109 0.072
0.206 -0.106 0.071
0.206 -0.104 0.071
0.203 -0.100 0.070
0.204 -0.099 0.070
0.205 -0.097 0.070
0.208 -0.096 0.071
0.212 -0.096 0.072
0.212 -0.094 0.072
0.208 -0.090 0.070
0.208 -0.088 0.071
0.207 -0.085 0.070
0.212 -0.085 0.072
0.209 -0.082 0.071
0.212 -0.081 0.071
0.209 -0.078 0.070
0.213 -0.077 0.071
0.213 -0.075 0.072
0.215 -0.073 0.072
0.219 -0.073 0.073
0.228 -0.074 0.076
0.240 -0.075 0.080
0.239 -0.073 0.080
0.245 -0.072 0.082
0.246 -0.070 0.082
0.252 -0.069 0.084
0.257 -0.068 0.085
0.264 -0.068 0.088
0.263 -0.065 0.087
0.263 -0.062 0.087
0.264 -0.060 0.087
0.264 -0.057 0.087
0.263 -0.055 0.087
0.261 -0.052 0.086
0.259 -0.049 0.085
0.260 -0.047 0.086
0.261 -0.045 0.086
0.257 -0.042 0.085
0.258 -0.039 0.085
0.259 -0.037 0.085
0.260 -0.035 0.085
0.260 -0.032 0.085
0.260 -0.030 0.085
0.260 -0.027 0.085
0.255 -0.025 0.083
0.229 -0.020 0.075
0.219 -0.017 0.072
0.220 -0.015 0.072
0.222 -0.013 0.073
0.223 -0.011 0.073
0.261 -0.011 0.086
0.260 -0.008 0.085
0.260 -0.006 0.085
0.262 -0.004 0.086
0.277 -0.001 0.091
0.279 0.001 0.091
0.280 0.004 0.092
0.272 0.006 0.089
0.265 0.009 0.087
0.246 0.010 0.081
0.250 0.013 0.082
0.263 0.016 0.086
0.266 0.018 0.087
0.265 0.021 0.087
0.263 0.023 0.086
0.265 0.026 0.087
0.268 0.028 0.088
0.269 0.031 0.088
0.268 0.033 0.088
0.275 0.037 0.090
0.277 0.040 0.091
0.277 0.042 0.091
0.274 0.044 0.090
0.270 0.046 0.089
0.268 0.048 0.088
0.263 0.050 0.087
0.268 0.053 0.088
0.252 0.053 0.083
0.244 0.053 0.081
0.234 0.053 0.078
0.228 0.054 0.076
0.233 0.058 0.078
0.252 0.065 0.084
0.260 0.069 0.087
0.259 0.071 0.086
0.265 0.076 0.089
0.272 0.080 0.091
0.268 0.082 0.090
0.260 0.082 0.087
0.256 0.083 0.086
0.250 0.084 0.084
0.242 0.084 0.082
0.243 0.086 0.082
0.243 0.089 0.082
0.243 0.091 0.082
0.243 0.094 0.082
0.242 0.096 0.082
0.237 0.096 0.081
0.238 0.099 0.081
0.240 0.102 0.082
0.239 0.105 0.082
0.238 0.106 0.082
0.236 0.108 0.081
0.235 0.110 0.081
0.233 0.112 0.081
0.233 0.114 0.081
0.231 0.116 0.080
0.231 0.118 0.080
0.232 0.122 0.081
0.235 0.126 0.082
0.236 0.129 0.083
0.237 0.132 0.083
0.236 0.134 0.083
0.237 0.137 0.084
0.238 0.141 0.084
0.241 0.145 0.086
0.237 0.146 0.084
0.234 0.147 0.084
0.232 0.148 0.083
0.230 0.150 0.083
0.239 0.159 0.086
0.248 0.168 0.090
0.245 0.168 0.089
0.238 0.167 0.087
0.239 0.170 0.087
0.248 0.180 0.091
0.251 0.186 0.092
0.243 0.183 0.090
0.227 0.174 0.085
0.224 0.175 0.084
0.202 0.163 0.076
0.203 0.167 0.077
0.204 0.171 0.078
0.206 0.176 0.079
0.201 0.174 0.077
0.202 0.178 0.078
0.207 0.185 0.080
0.206 0.188 0.080
0.196 0.182 0.077
0.197 0.186 0.078
0.203 0.194 0.080
0.203 0.198 0.081
0.199 0.198 0.080
0.198 0.200 0.080
0.199 0.204 0.081
0.204 0.213 0.083
0.200 0.213 0.082
0.201 0.217 0.083
0.195 0.214 0.081
0.196 0.219 0.082
0.188 0.213 0.079
0.200 0.231 0.085
0.193 0.227 0.082
0.193 0.230 0.083
0.193 0.234 0.083
0.192 0.237 0.083
0.192 0.241 0.084
0.190 0.242 0.084
0.188 0.243 0.083
0.187 0.245 0.083
0.187 0.249 0.084
0.185 0.249 0.083
0.104 -0.140 0.047
0.105 -0.139 0.047
0.105 -0.138 0.047
0.105 -0.136 0.047
0.106 -0.135 0.047
0.105 -0.132 0.046
0.105 -0.131 0.046
0.111 -0.136 0.048
0.116 -0.137 0.050
0.111 -0.130 0.047
0.101 -0.117 0.043
0.103 -0.117 0.044
0.097 -0.108 0.041
0.097 -0.107 0.041
0.099 -0.107 0.041
0.099 -0.106 0.041
0.101 -0.107 0.042
0.110 -0.114 0.045
0.108 -0.110 0.044
0.103 -0.104 0.042
0.104 -0.103 0.042
0.110 -0.107 0.044
0.118 -0.114 0.047
0.233 -0.217 0.093
0.234 -0.214 0.092
0.235 -0.211 0.092
0.236 -0.209 0.092
0.238 -0.207 0.093
0.239 -0.205 0.093
0.238 -0.201 0.092
0.240 -0.199 0.092
0.239 -0.195 0.092
0.235 -0.188 0.090
0.228 -0.180 0.087
0.220 -0.171 0.083
0.212 -0.162 0.080
0.208 -0.156 0.078
0.202 -0.149 0.076
0.201 -0.145 0.075
0.206 -0.147 0.077
0.201 -0.141 0.075
0.189 -0.130 0.070
0.189 -0.127 0.070
0.190 -0.126 0.070
0.201 -0.131 0.074
0.204 -0.131 0.075
0.203 -0.128 0.074
0.206 -0.127 0.075
0.207 -0.125 0.075
0.206 -0.122 0.074
0.210 -0.122 0.076
0.211 -0.121 0.076
0.214 -0.120 0.077
0.216 -0.119 0.077
0.217 -0.117 0.077
0.211 -0.112 0.075
0.205 -0.106 0.073
0.199 -0.101 0.071
0.204 -0.101 0.072
0.203 -0.099 0.072
0.206 -0.098 0.073
0.205 -0.095 0.072
0.208 -0.094 0.073
0.211 -0.094 0.074
0.209 -0.090 0.073
0.206 -0.087 0.072
0.208 -0.086 0.073
0.202 -0.081 0.070
0.203 -0.080 0.070
0.208 -0.080 0.072
0.209 -0.078 0.073
0.209 -0.076 0.072
0.213 -0.075 0.074
0.217 -0.074 0.075
0.222 -0.074 0.077
0.236 -0.076 0.081
0.238 -0.075 0.082
0.242 -0.073 0.083
0.240 -0.071 0.082
0.244 -0.069 0.083
0.247 -0.068 0.085
0.254 -0.067 0.087
0.258 -0.066 0.088
0.260 -0.064 0.089
0.260 -0.061 0.088
0.259 -0.059 0.088
0.260 -0.057 0.088
0.260 -0.054 0.088
0.254 -0.050 0.086
0.254 -0.048 0.086
0.256 -0.046 0.087
0.253 -0.043 0.086
0.253 -0.041 0.086
0.253 -0.039 0.086
0.254 -0.036 0.086
0.257 -0.034 0.087
0.258 -0.032 0.087
0.257 -0.030 0.087
0.255 -0.027 0.086
0.254 -0.025 0.086
0.254 -0.022 0.086
0.255 -0.020 0.086
0.226 -0.016 0.076
0.221 -0.013 0.075
0.220 -0.011 0.074
0.219 -0.009 0.074
0.232 -0.007 0.078
0.261 -0.006 0.088
0.273 -0.004 0.092
0.277 -0.001 0.093
0.273 0.001 0.092
0.265 0.004 0.089
0.255 0.006 0.086
0.251 0.008 0.085
0.243 0.010 0.082
0.244 0.012 0.082
0.262 0.016 0.089
0.257 0.018 0.087
0.248 0.019 0.084
0.252 0.022 0.085
0.263 0.025 0.089
0.266 0.028 0.090
0.269 0.031 0.091
0.270 0.034 0.091
0.276 0.037 0.093
0.276 0.040 0.094
0.274 0.042 0.093
0.269 0.044 0.091
0.267 0.046 0.091
0.264 0.048 0.090
0.264 0.050 0.090
0.237 0.050 0.081
0.241 0.053 0.082
0.228 0.052 0.078
0.228 0.054 0.078
0.249 0.062 0.085
0.255 0.066 0.087
0.253 0.067 0.087
0.256 0.071 0.088
0.260 0.074 0.089
0.263 0.078 0.091
0.259 0.079 0.089
0.252 0.080 0.087
0.245 0.080 0.085
0.239 0.080 0.083
0.238 0.082 0.083
0.237 0.084 0.082
0.238 0.087 0.083
0.239 0.090 0.083
0.240 0.093 0.084
0.235 0.093 0.082
0.235 0.096 0.082
0.234 0.098 0.082
0.234 0.100 0.082
0.234 0.102 0.082
0.232 0.104 0.082
0.233 0.107 0.083
0.231 0.108 0.082
0.229 0.110 0.082
0.228 0.112 0.081
0.226 0.114 0.081
0.225 0.116 0.081
0.227 0.119 0.081
0.229 0.123 0.082
0.233 0.127 0.084
0.232 0.130 0.084
0.231 0.132 0.084
0.230 0.134 0.084
0.234 0.138 0.085
0.233 0.141 0.085
0.231 0.142 0.085
0.231 0.145 0.085
0.230 0.147 0.085
0.229 0.150 0.085
0.238 0.158 0.089
0.244 0.165 0.091
0.243 0.168 0.091
0.239 0.168 0.090
0.247 0.177 0.093
0.250 0.182 0.095
0.245 0.182 0.093
0.233 0.176 0.089
0.224 0.172 0.086
0.212 0.165 0.081
0.196 0.156 0.076
0.192 0.156 0.075
0.190 0.157 0.074
0.201 0.169 0.079
0.204 0.174 0.080
0.201 0.175 0.080
0.200 0.176 0.079
0.202 0.182 0.081
0.202 0.185 0.081
0.198 0.184 0.080
0.195 0.185 0.079
0.197 0.189 0.080
0.197 0.192 0.081
0.195 0.194 0.081
0.193 0.196 0.080
0.192 0.197 0.080
0.191 0.200 0.080
0.194 0.206 0.082
0.191 0.207 0.081
0.190 0.210 0.081
0.189 0.212 0.081
0.191 0.217 0.083
0.189 0.218 0.082
0.188 0.221 0.082
0.188 0.224 0.083
0.189 0.229 0.084
0.186 0.229 0.083
0.186 0.234 0.084
0.186 0.236 0.084
0.185 0.239 0.084
0.183 0.240 0.084
0.182 0.242 0.084
0.188 0.253 0.087
0.104 -0.140 0.048
0.104 -0.139 0.048
0.105 -0.137 0.048
0.104 -0.135 0.048
0.105 -0.134 0.048
0.115 -0.145 0.052
0.115 -0.143 0.052
0.110 -0.135 0.049
0.111 -0.134 0.050
0.107 -0.128 0.047
0.104 -0.122 0.046
0.100 -0.116 0.044
0.096 -0.109 0.042
0.096 -0.108 0.042
0.097 -0.108 0.042
0.098 -0.107 0.042
0.101 -0.109 0.043
0.111 -0.117 0.047
0.108 -0.112 0.046
0.103 -0.105 0.043
0.101 -0.102 0.042
0.103 -0.102 0.043
0.110 -0.107 0.046
0.112 -0.108 0.046
0.221 -0.206 0.090
0.226 -0.207 0.092
0.228 -0.206 0.092
0.232 -0.206 0.093
0.231 -0.202 0.093
0.233 -0.200 0.093
0.234 -0.197 0.093
0.234 -0.194 0.093
0.231 -0.189 0.091
0.231 -0.185 0.091
0.229 -0.181 0.090
0.225 -0.175 0.088
0.215 -0.164 0.083
0.208 -0.156 0.080
0.202 -0.149 0.078
0.205 -0.149 0.079
0.198 -0.141 0.076
0.191 -0.134 0.073
0.189 -0.130 0.072
0.193 -0.130 0.073
0.197 -0.131 0.075
0.201 -0.132 0.076
0.204 -0.131 0.077
0.204 -0.128 0.076
0.204 -0.126 0.076
0.202 -0.123 0.076
0.204 -0.122 0.076
0.206 -0.120 0.077
0.208 -0.119 0.077
0.208 -0.117 0.077
0.213 -0.117 0.078
0.212 -0.114 0.078
0.212 -0.112 0.078
0.202 -0.105 0.074
0.203 -0.103 0.074
0.206 -0.102 0.075
0.210 -0.102 0.076
0.203 -0.097 0.074
0.206 -0.096 0.074
0.205 -0.093 0.074
0.207 -0.092 0.074
0.209 -0.091 0.075
0.209 -0.088 0.075
0.207 -0.086 0.074
0.200 -0.081 0.072
0.202 -0.079 0.072
0.207 -0.079 0.074
0.208 -0.078 0.074
0.209 -0.076 0.074
0.213 -0.075 0.076
0.217 -0.075 0.077
0.224 -0.075 0.079
0.233 -0.075 0.082
0.242 -0.076 0.085
0.242 -0.074 0.085
0.239 -0.070 0.084
0.240 -0.068 0.085
0.244 -0.067 0.086
0.252 -0.067 0.089
0.255 -0.065 0.090
0.255 -0.063 0.089
0.249 -0.059 0.087
0.254 -0.058 0.089
0.254 -0.055 0.089
0.252 -0.053 0.088
0.250 -0.050 0.087
0.249 -0.047 0.087
0.247 -0.045 0.086
0.246 -0.042 0.086
0.248 -0.040 0.086
0.248 -0.038 0.086
0.248 -0.035 0.086
0.248 -0.033 0.086
0.252 -0.031 0.087
0.250 -0.029 0.087
0.250 -0.027 0.087
0.249 -0.024 0.086
0.248 -0.022 0.086
0.251 -0.020 0.087
0.250 -0.017 0.087
0.250 -0.015 0.087
0.225 -0.011 0.078
0.218 -0.009 0.075
0.217 -0.007 0.075
0.265 -0.004 0.092
0.270 -0.001 0.094
0.265 0.001 0.092
0.249 0.003 0.086
0.245 0.006 0.085
0.243 0.008 0.084
0.247 0.010 0.086
0.254 0.013 0.088
0.252 0.015 0.087
0.246 0.017 0.085
0.243 0.019 0.084
0.247 0.022 0.086
0.258 0.025 0.090
0.265 0.028 0.092
0.267 0.031 0.093
0.267 0.033 0.093
0.271 0.036 0.094
0.270 0.039 0.094
0.268 0.041 0.094
0.261 0.042 0.091
0.257 0.044 0.090
0.263 0.048 0.092
0.256 0.049 0.090
0.219 0.044 0.077
0.232 0.049 0.081
0.228 0.050 0.080
0.232 0.053 0.082
0.241 0.058 0.085
0.252 0.063 0.089
0.254 0.066 0.090
0.252 0.067 0.089
0.255 0.071 0.090
0.262 0.075 0.093
0.261 0.077 0.092
0.257 0.079 0.091
0.246 0.078 0.088
0.239 0.078 0.085
0.234 0.079 0.083
0.233 0.081 0.083
0.231 0.082 0.083
0.231 0.084 0.083
0.230 0.087 0.083
0.232 0.090 0.083
0.231 0.092 0.083
0.230 0.093 0.083
0.229 0.096 0.083
0.229 0.098 0.083
0.228 0.100 0.082
0.228 0.102 0.083
0.226 0.104 0.082
0.227 0.107 0.083
0.223 0.107 0.082
0.223 0.110 0.082
0.222 0.112 0.082
0.222 0.114 0.082
0.223 0.117 0.082
0.224 0.120 0.083
0.225 0.123 0.084
0.227 0.127 0.084
0.225 0.129 0.084
0.226 0.131 0.084
0.228 0.136 0.086
0.230 0.139 0.086
0.229 0.141 0.086
0.228 0.144 0.086
0.228 0.146 0.087
0.229 0.150 0.087
0.234 0.156 0.090
0.241 0.163 0.092
0.238 0.165 0.092
0.241 0.170 0.093
0.246 0.177 0.096
0.245 0.179 0.095
0.235 0.174 0.092
0.227 0.172 0.089
0.217 0.167 0.085
0.196 0.154 0.078
0.187 0.149 0.074
0.182 0.148 0.073
0.185 0.153 0.074
0.191 0.161 0.077
0.200 0.171 0.081
0.200 0.174 0.081
0.199 0.176 0.081
0.200 0.180 0.082
0.200 0.184 0.083
0.198 0.185 0.082
0.195 0.185 0.082
0.192 0.185 0.081
0.190 0.187 0.080
0.189 0.189 0.080
0.189 0.192 0.081
0.188 0.194 0.081
0.191 0.200 0.082
0.190 0.203 0.083
0.186 0.202 0.082
0.186 0.206 0.082
0.187 0.209 0.083
0.186 0.213 0.083
0.186 0.216 0.084
0.184 0.217 0.083
0.183 0.220 0.083
0.183 0.222 0.083
0.185 0.228 0.085
0.182 0.229 0.084
0.180 0.230 0.084
0.180 0.233 0.084
0.180 0.236 0.085
0.179 0.239 0.085
0.104 -0.138 0.049
0.104 -0.137 0.049
0.108 -0.140 0.051
0.116 -0.149 0.054
0.114 -0.143 0.053
0.114 -0.142 0.053
0.107 -0.132 0.049
0.105 -0.127 0.048
0.105 -0.125 0.048
0.096 -0.113 0.043
0.097 -0.113 0.044
0.100 -0.114 0.045
0.103 -0.116 0.046
0.109 -0.121 0.048
0.108 -0.118 0.048
0.103 -0.111 0.045
0.105 -0.111 0.046
0.105 -0.109 0.046
0.100 -0.102 0.043
0.101 -0.102 0.044
0.103 -0.102 0.044
0.105 -0.103 0.045
0.111 -0.107 0.047
0.117 -0.111 0.049
0.220 -0.202 0.092
0.224 -0.202 0.093
0.224 -0.199 0.093
0.225 -0.197 0.093
0.228 -0.196 0.094
0.229 -0.193 0.094
0.227 -0.189 0.093
0.228 -0.186 0.092
0.227 -0.183 0.092
0.228 -0.180 0.092
0.216 -0.168 0.087
0.214 -0.164 0.086
0.209 -0.157 0.083
0.203 -0.150 0.080
0.195 -0.142 0.077
0.193 -0.138 0.076
0.192 -0.135 0.076
0.194 -0.134 0.076
0.202 -0.137 0.079
0.205 -0.137 0.080
0.205 -0.134 0.079
0.203 -0.130 0.078
0.203 -0.128 0.078
0.203 -0.126 0.078
0.202 -0.123 0.078
0.202 -0.120 0.077
0.202 -0.118 0.077
0.204 -0.117 0.078
0.204 -0.115 0.078
0.201 -0.111 0.076
0.201 -0.109 0.076
0.200 -0.106 0.076
0.200 -0.104 0.075
0.206 -0.105 0.077
0.205 -0.102 0.077
0.205 -0.100 0.077
0.209 -0.100 0.078
0.204 -0.095 0.076
0.206 -0.094 0.076
0.207 -0.092 0.077
0.208 -0.090 0.077
0.209 -0.089 0.077
0.210 -0.087 0.077
0.211 -0.085 0.078
0.208 -0.082 0.077
0.207 -0.079 0.076
0.208 -0.078 0.076
0.211 -0.077 0.077
0.211 -0.075 0.077
0.215 -0.074 0.078
0.220 -0.074 0.080
0.229 -0.074 0.083
0.241 -0.076 0.087
0.235 -0.072 0.085
0.236 -0.069 0.085
0.237 -0.068 0.086
0.239 -0.066 0.086
0.246 -0.065 0.089
0.251 -0.064 0.091
0.248 -0.061 0.089
0.247 -0.059 0.089
0.247 -0.056 0.089
0.246 -0.054 0.088
0.246 -0.051 0.088
0.246 -0.049 0.088
0.244 -0.046 0.088
0.242 -0.044 0.087
0.242 -0.041 0.087
0.242 -0.039 0.087
0.244 -0.037 0.087
0.244 -0.035 0.087
0.243 -0.033 0.087
0.244 -0.030 0.087
0.245 -0.028 0.088
0.245 -0.026 0.088
0.245 -0.024 0.087
0.244 -0.021 0.087
0.244 -0.019 0.087
0.247 -0.017 0.088
0.248 -0.015 0.089
0.250 -0.013 0.089
0.233 -0.010 0.083
0.243 -0.008 0.086
0.249 -0.006 0.089
0.254 -0.003 0.091
0.259 -0.001 0.092
0.251 0.001 0.089
0.244 0.003 0.087
0.238 0.006 0.085
0.241 0.008 0.086
0.247 0.010 0.088
0.252 0.013 0.090
0.247 0.015 0.088
0.239 0.017 0.085
0.242 0.019 0.087
0.251 0.022 0.090
0.260 0.025 0.093
0.263 0.028 0.094
0.265 0.031 0.095
0.265 0.033 0.095
0.264 0.036 0.095
0.259 0.037 0.093
0.254 0.039 0.091
0.246 0.040 0.088
0.238 0.041 0.085
0.219 0.042 0.079
0.203 0.041 0.073
0.201 0.042 0.072
0.237 0.054 0.085
0.247 0.059 0.089
0.249 0.062 0.090
0.250 0.065 0.091
0.254 0.068 0.092
0.260 0.072 0.094
0.258 0.074 0.094
0.259 0.077 0.094
0.251 0.077 0.092
0.240 0.076 0.087
0.232 0.076 0.085
0.230 0.077 0.084
0.229 0.079 0.084
0.228 0.081 0.084
0.227 0.083 0.083
0.227 0.086 0.084
0.226 0.088 0.083
0.227 0.090 0.084
0.224 0.092 0.083
0.224 0.094 0.083
0.223 0.096 0.083
0.224 0.098 0.083
0.224 0.101 0.084
0.225 0.103 0.084
0.221 0.104 0.083
0.220 0.106 0.083
0.218 0.108 0.082
0.218 0.110 0.082
0.218 0.112 0.083
0.219 0.115 0.083
0.218 0.117 0.083
0.218 0.120 0.083
0.222 0.124 0.085
0.220 0.126 0.084
0.219 0.127 0.084
0.220 0.131 0.085
0.226 0.137 0.088
0.226 0.140 0.088
0.225 0.142 0.088
0.226 0.145 0.088
0.227 0.148 0.089
0.237 0.158 0.093
0.239 0.162 0.094
0.233 0.161 0.092
0.240 0.169 0.096
0.240 0.173 0.096
0.237 0.173 0.095
0.230 0.172 0.093
0.219 0.166 0.089
0.211 0.163 0.085
0.192 0.151 0.078
0.184 0.147 0.075
0.186 0.151 0.076
0.186 0.154 0.077
0.192 0.162 0.080
0.198 0.169 0.082
0.199 0.174 0.083
0.197 0.175 0.083
0.197 0.178 0.083
0.197 0.181 0.084
0.195 0.183 0.084
0.190 0.181 0.082
0.188 0.182 0.081
0.188 0.185 0.082
0.188 0.188 0.082
0.187 0.190 0.082
0.186 0.192 0.082
0.184 0.194 0.082
0.184 0.197 0.082
0.184 0.201 0.083
0.183 0.203 0.083
0.183 0.206 0.083
0.182 0.208 0.084
0.181 0.211 0.084
0.181 0.214 0.084
0.180 0.216 0.084
0.180 0.219 0.085
0.180 0.223 0.085
0.180 0.226 0.086
0.178 0.228 0.085
0.177 0.230 0.085
0.175 0.231 0.085
0.176 0.234 0.085
0.115 -0.154 0.056
0.116 -0.152 0.056
0.114 -0.148 0.055
0.110 -0.141 0.053
0.113 -0.142 0.054
0.112 -0.140 0.053
0.101 -0.125 0.048
0.096 -0.116 0.045
0.094 -0.113 0.044
0.093 -0.110 0.044
0.098 -0.114 0.045
0.104 -0.118 0.048
0.105 -0.118 0.048
0.105 -0.117 0.048
0.102 -0.111 0.046
0.103 -0.111 0.046
0.102 -0.108 0.046
0.097 -0.101 0.043
0.101 -0.103 0.045
0.102 -0.103 0.045
0.103 -0.103 0.045
0.105 -0.103 0.046
0.109 -0.105 0.047
0.114 -0.108 0.050
0.217 -0.199 0.093
0.219 -0.198 0.094
0.220 -0.196 0.094
0.221 -0.193 0.094
0.223 -0.192 0.094
0.223 -0.189 0.094
0.225 -0.188 0.094
0.225 -0.184 0.094
0.224 -0.181 0.093
0.213 -0.169 0.088
0.213 -0.166 0.088
0.203 -0.155 0.083
0.198 -0.149 0.081
0.195 -0.144 0.079
0.193 -0.141 0.079
0.193 -0.139 0.078
0.199 -0.140 0.081
0.201 -0.139 0.081
0.200 -0.136 0.080
0.205 -0.137 0.082
0.203 -0.133 0.081
0.202 -0.130 0.080
0.204 -0.129 0.081
0.204 -0.127 0.081
0.198 -0.121 0.078
0.202 -0.121 0.079
0.203 -0.119 0.080
0.201 -0.116 0.079
0.204 -0.115 0.080
0.205 -0.113 0.080
0.201 -0.109 0.078
0.203 -0.108 0.079
0.205 -0.106 0.079
0.205 -0.104 0.079
0.206 -0.102 0.079
0.206 -0.100 0.079
0.205 -0.098 0.078
0.205 -0.096 0.078
0.206 -0.094 0.079
0.206 -0.092 0.078
0.206 -0.090 0.078
0.207 -0.088 0.079
0.208 -0.086 0.079
0.208 -0.084 0.079
0.205 -0.081 0.077
0.207 -0.079 0.078
0.211 -0.079 0.079
0.211 -0.077 0.079
0.211 -0.075 0.079
0.211 -0.073 0.079
0.216 -0.072 0.081
0.231 -0.075 0.086
0.232 -0.073 0.087
0.232 -0.071 0.086
0.232 -0.069 0.087
0.234 -0.067 0.087
0.235 -0.065 0.087
0.237 -0.063 0.088
0.244 -0.063 0.090
0.244 -0.060 0.090
0.243 -0.058 0.090
0.241 -0.055 0.089
0.240 -0.053 0.089
0.240 -0.050 0.089
0.240 -0.048 0.089
0.239 -0.045 0.088
0.237 -0.043 0.087
0.237 -0.041 0.087
0.238 -0.039 0.087
0.240 -0.037 0.088
0.240 -0.034 0.088
0.238 -0.032 0.087
0.237 -0.030 0.087
0.240 -0.028 0.088
0.242 -0.026 0.089
0.242 -0.023 0.089
0.241 -0.021 0.088
0.239 -0.019 0.087
0.239 -0.017 0.088
0.252 -0.015 0.092
0.264 -0.013 0.097
0.249 -0.008 0.091
0.247 -0.006 0.091
0.250 -0.003 0.092
0.249 -0.001 0.091
0.245 0.001 0.090
0.238 0.003 0.087
0.237 0.006 0.087
0.237 0.008 0.087
0.243 0.010 0.089
0.246 0.013 0.090
0.245 0.015 0.090
0.240 0.017 0.088
0.238 0.019 0.087
0.245 0.022 0.090
0.257 0.025 0.094
0.257 0.027 0.094
0.259 0.030 0.095
0.263 0.033 0.097
0.258 0.035 0.095
0.249 0.036 0.092
0.237 0.036 0.087
0.231 0.038 0.085
0.222 0.038 0.082
0.216 0.039 0.080
0.213 0.041 0.079
0.201 0.040 0.074
0.190 0.040 0.070
0.194 0.043 0.072
0.250 0.060 0.093
0.253 0.063 0.094
0.254 0.066 0.095
0.258 0.069 0.096
0.259 0.072 0.097
0.255 0.073 0.095
0.241 0.072 0.090
0.233 0.072 0.087
0.226 0.072 0.085
0.224 0.073 0.084
0.224 0.076 0.084
0.218 0.076 0.082
0.221 0.079 0.084
0.222 0.082 0.084
0.221 0.083 0.084
0.222 0.086 0.084
0.221 0.088 0.084
0.221 0.090 0.084
0.219 0.092 0.084
0.219 0.094 0.084
0.218 0.096 0.084
0.219 0.098 0.084
0.217 0.100 0.083
0.213 0.101 0.082
0.215 0.104 0.083
0.215 0.106 0.083
0.213 0.107 0.083
0.214 0.111 0.083
0.213 0.112 0.083
0.212 0.114 0.083
0.214 0.117 0.084
0.213 0.120 0.084
0.213 0.122 0.084
0.213 0.125 0.084
0.210 0.125 0.083
0.205 0.125 0.082
0.209 0.130 0.084
0.214 0.135 0.086
0.217 0.140 0.087
0.220 0.144 0.089
0.219 0.146 0.088
0.216 0.147 0.088
0.216 0.150 0.088
0.237 0.168 0.097
0.239 0.172 0.098
0.233 0.171 0.096
0.223 0.166 0.092
0.215 0.164 0.089
0.203 0.157 0.085
0.191 0.150 0.080
0.186 0.149 0.078
0.184 0.150 0.078
0.189 0.156 0.080
0.192 0.162 0.082
0.196 0.168 0.084
0.195 0.171 0.084
0.191 0.170 0.083
0.187 0.169 0.081
0.185 0.171 0.081
0.186 0.174 0.082
0.186 0.177 0.082
0.185 0.180 0.082
0.186 0.183 0.083
0.186 0.187 0.084
0.185 0.189 0.084
0.182 0.189 0.083
0.181 0.191 0.083
0.181 0.194 0.083
0.182 0.198 0.084
0.181 0.201 0.084
0.180 0.203 0.084
0.179 0.206 0.085
0.179 0.209 0.085
0.179 0.212 0.085
0.178 0.214 0.085
0.177 0.216 0.085
0.176 0.218 0.085
0.176 0.222 0.086
0.177 0.226 0.087
0.175 0.227 0.086
0.172 0.227 0.085
0.170 0.228 0.085
0.114 -0.153 0.057
0.113 -0.149 0.056
0.107 -0.139 0.053
0.104 -0.133 0.051
0.102 -0.130 0.050
0.096 -0.120 0.047
0.096 -0.118 0.047
0.094 -0.115 0.046
0.104 -0.125 0.050
0.104 -0.122 0.050
0.104 -0.121 0.050
0.105 -0.121 0.050
0.104 -0.117 0.049
0.100 -0.111 0.047
0.100 -0.109 0.047
0.102 -0.110 0.047
0.108 -0.114 0.050
0.102 -0.107 0.047
0.101 -0.104 0.046
0.102 -0.103 0.046
0.103 -0.103 0.047
0.106 -0.104 0.048
0.108 -0.104 0.048
0.111 -0.105 0.049
0.117 -0.110 0.052
0.216 -0.196 0.095
0.217 -0.194 0.095
0.216 -0.190 0.094
0.212 -0.184 0.092
0.207 -0.176 0.089
0.202 -0.169 0.087
0.201 -0.165 0.086
0.200 -0.161 0.085
0.200 -0.159 0.085
0.200 -0.156 0.085
0.200 -0.154 0.084
0.198 -0.150 0.083
0.195 -0.145 0.082
0.197 -0.144 0.082
0.202 -0.145 0.084
0.205 -0.144 0.085
0.205 -0.142 0.085
0.205 -0.139 0.084
0.205 -0.137 0.084
0.206 -0.135 0.084
0.206 -0.133 0.084
0.207 -0.131 0.084
0.207 -0.129 0.084
0.205 -0.125 0.083
0.203 -0.122 0.082
0.204 -0.120 0.082
0.205 -0.118 0.083
0.206 -0.116 0.083
0.205 -0.114 0.082
0.203 -0.110 0.081
0.205 -0.109 0.081
0.204 -0.106 0.081
0.204 -0.104 0.081
0.205 -0.102 0.081
0.203 -0.099 0.080
0.204 -0.097 0.080
0.205 -0.096 0.081
0.199 -0.091 0.078
0.204 -0.091 0.080
0.205 -0.089 0.080
0.201 -0.085 0.078
0.207 -0.086 0.081
0.206 -0.083 0.080
0.206 -0.081 0.080
0.203 -0.078 0.079
0.204 -0.076 0.079
0.210 -0.076 0.081
0.209 -0.074 0.081
0.209 -0.072 0.080
0.214 -0.072 0.082
0.225 -0.073 0.086
0.227 -0.072 0.087
0.229 -0.070 0.088
0.229 -0.068 0.088
0.230 -0.066 0.088
0.231 -0.064 0.088
0.232 -0.062 0.088
0.238 -0.061 0.091
0.239 -0.059 0.091
0.237 -0.056 0.090
0.237 -0.054 0.090
0.237 -0.052 0.090
0.236 -0.049 0.090
0.235 -0.047 0.089
0.233 -0.044 0.088
0.233 -0.042 0.088
0.234 -0.040 0.088
0.234 -0.038 0.088
0.235 -0.036 0.089
0.236 -0.034 0.089
0.237 -0.032 0.089
0.234 -0.029 0.088
0.233 -0.027 0.088
0.237 -0.025 0.089
0.235 -0.023 0.089
0.232 -0.020 0.087
0.235 -0.018 0.088
0.264 -0.018 0.099
0.264 -0.016 0.099
0.273 -0.014 0.103
0.243 -0.008 0.091
0.241 -0.006 0.090
0.242 -0.003 0.091
0.241 -0.001 0.091
0.242 0.001 0.091
0.242 0.003 0.091
0.238 0.006 0.089
0.239 0.008 0.090
0.240 0.010 0.090
0.239 0.012 0.090
0.234 0.014 0.088
0.236 0.016 0.089
0.237 0.019 0.089
0.239 0.021 0.090
0.244 0.024 0.092
0.247 0.026 0.093
0.246 0.029 0.093
0.244 0.031 0.092
0.248 0.033 0.094
0.242 0.035 0.092
0.225 0.035 0.085
0.217 0.035 0.082
0.210 0.036 0.079
0.205 0.037 0.078
0.204 0.039 0.077
0.206 0.042 0.078
0.203 0.043 0.077
0.207 0.046 0.079
0.251 0.060 0.096
0.257 0.064 0.098
0.260 0.067 0.099
0.259 0.070 0.099
0.256 0.071 0.098
0.242 0.070 0.093
0.230 0.069 0.089
0.222 0.068 0.085
0.220 0.070 0.085
0.217 0.071 0.084
0.218 0.074 0.084
0.219 0.076 0.085
0.216 0.077 0.084
0.214 0.079 0.083
0.212 0.080 0.083
0.214 0.083 0.083
0.219 0.087 0.085
0.214 0.088 0.084
0.215 0.090 0.084
0.213 0.092 0.084
0.211 0.093 0.083
0.208 0.094 0.082
0.209 0.097 0.083
0.208 0.098 0.082
0.199 0.096 0.079
0.196 0.097 0.078
0.191 0.097 0.076
0.191 0.099 0.076
0.186 0.098 0.075
0.189 0.108 0.076
0.192 0.112 0.078
0.198 0.118 0.081
0.200 0.122 0.082
0.198 0.123 0.081
0.204 0.129 0.084
0.208 0.134 0.086
0.211 0.138 0.087
0.208 0.139 0.086
0.207 0.141 0.086
0.207 0.144 0.086
0.234 0.166 0.098
0.234 0.169 0.099
0.224 0.164 0.095
0.217 0.162 0.092
0.211 0.160 0.090
0.208 0.161 0.089
0.195 0.153 0.084
0.186 0.149 0.080
0.184 0.150 0.080
0.184 0.153 0.080
0.189 0.160 0.083
0.191 0.164 0.084
0.187 0.164 0.083
0.187 0.167 0.083
0.185 0.168 0.083
0.183 0.169 0.082
0.183 0.172 0.083
0.183 0.175 0.083
0.183 0.178 0.084
0.183 0.181 0.084
0.183 0.184 0.085
0.182 0.186 0.085
0.180 0.188 0.084
0.179 0.190 0.084
0.179 0.192 0.085
0.178 0.195 0.085
0.178 0.198 0.085
0.178 0.201 0.086
0.177 0.203 0.086
0.177 0.207 0.087
0.176 0.210 0.087
0.175 0.211 0.086
0.174 0.213 0.086
0.173 0.216 0.086
0.172 0.217 0.086
0.172 0.221 0.087
0.171 0.223 0.087
0.170 0.224 0.087
0.105 -0.138 0.053
0.103 -0.135 0.053
0.101 -0.130 0.051
0.097 -0.123 0.049
0.098 -0.122 0.049
0.099 -0.122 0.049
0.106 -0.129 0.053
0.104 -0.125 0.051
0.104 -0.123 0.051
0.104 -0.121 0.051
0.102 -0.117 0.050
0.104 -0.118 0.051
0.112 -0.125 0.054
0.113 -0.124 0.054
0.112 -0.121 0.053
0.111 -0.119 0.053
0.110 -0.116 0.052
0.102 -0.105 0.048
0.102 -0.104 0.048
0.104 -0.104 0.048
0.105 -0.103 0.048
0.108 -0.105 0.050
0.110 -0.105 0.051
0.118 -0.111 0.054
0.194 -0.176 0.088
0.195 -0.175 0.088
0.195 -0.172 0.087
0.196 -0.170 0.088
0.198 -0.168 0.088
0.199 -0.167 0.088
0.198 -0.163 0.087
0.199 -0.161 0.087
0.200 -0.159 0.087
0.200 -0.157 0.087
0.202 -0.155 0.087
0.205 -0.155 0.089
0.206 -0.153 0.088
0.205 -0.150 0.088
0.206 -0.148 0.088
0.206 -0.146 0.088
0.207 -0.144 0.088
0.208 -0.142 0.088
0.205 -0.137 0.086
0.204 -0.135 0.086
0.206 -0.133 0.086
0.208 -0.132 0.087
0.210 -0.131 0.088
0.207 -0.126 0.086
0.205 -0.123 0.085
0.206 -0.121 0.085
0.209 -0.120 0.086
0.209 -0.118 0.086
0.207 -0.115 0.085
0.209 -0.113 0.085
0.209 -0.111 0.085
0.208 -0.108 0.085
0.204 -0.104 0.083
0.205 -0.103 0.083
0.207 -0.101 0.084
0.208 -0.099 0.084
0.209 -0.098 0.084
0.210 -0.096 0.085
0.206 -0.092 0.083
0.208 -0.091 0.084
0.210 -0.090 0.084
0.209 -0.087 0.083
0.206 -0.084 0.082
0.204 -0.081 0.081
0.206 -0.079 0.082
0.208 -0.078 0.083
0.207 -0.075 0.082
0.206 -0.073 0.082
0.209 -0.072 0.083
0.217 -0.073 0.086
0.221 -0.072 0.087
0.222 -0.070 0.087
0.223 -0.068 0.087
0.224 -0.066 0.088
0.224 -0.064 0.088
0.226 -0.062 0.088
0.228 -0.061 0.089
0.230 -0.059 0.090
0.231 -0.057 0.090
0.230 -0.055 0.090
0.232 -0.053 0.090
0.232 -0.051 0.090
0.231 -0.048 0.090
0.229 -0.046 0.089
0.229 -0.044 0.089
0.229 -0.042 0.089
0.231 -0.040 0.090
0.231 -0.038 0.089
0.232 -0.036 0.090
0.233 -0.033 0.090
0.231 -0.031 0.090
0.229 -0.029 0.089
0.229 -0.027 0.089
0.230 -0.024 0.089
0.230 -0.022 0.089
0.235 -0.021 0.091
0.258 -0.018 0.100
0.259 -0.016 0.100
0.256 -0.013 0.099
0.244 -0.010 0.094
0.235 -0.008 0.091
0.229 -0.005 0.088
0.232 -0.003 0.089
0.232 -0.001 0.090
0.231 0.001 0.089
0.234 0.003 0.090
0.235 0.005 0.091
0.234 0.008 0.090
0.231 0.010 0.089
0.223 0.011 0.086
0.226 0.014 0.087
0.228 0.016 0.088
0.233 0.018 0.090
0.234 0.021 0.091
0.237 0.023 0.092
0.240 0.026 0.093
0.239 0.028 0.093
0.237 0.030 0.092
0.234 0.032 0.091
0.229 0.033 0.089
0.213 0.033 0.083
0.206 0.034 0.080
0.201 0.035 0.078
0.198 0.036 0.077
0.201 0.039 0.078
0.207 0.042 0.081
0.207 0.044 0.081
0.217 0.048 0.085
0.234 0.054 0.091
0.248 0.059 0.097
0.252 0.063 0.099
0.248 0.064 0.097
0.252 0.068 0.099
0.239 0.067 0.094
0.228 0.066 0.090
0.220 0.066 0.087
0.216 0.067 0.085
0.207 0.066 0.082
0.210 0.069 0.083
0.214 0.072 0.085
0.214 0.075 0.085
0.208 0.075 0.083
0.206 0.076 0.082
0.207 0.079 0.083
0.202 0.079 0.081
0.200 0.080 0.080
0.201 0.083 0.081
0.199 0.084 0.080
0.202 0.087 0.081
0.198 0.087 0.080
0.195 0.088 0.079
0.196 0.091 0.079
0.193 0.091 0.078
0.190 0.092 0.077
0.189 0.094 0.077
0.192 0.097 0.078
0.191 0.099 0.078
0.197 0.104 0.081
0.199 0.107 0.082
0.196 0.108 0.081
0.197 0.111 0.082
0.197 0.113 0.082
0.201 0.118 0.084
0.205 0.123 0.086
0.198 0.121 0.083
0.197 0.123 0.083
0.198 0.125 0.083
0.203 0.131 0.086
0.203 0.134 0.086
0.205 0.138 0.087
0.202 0.138 0.087
0.199 0.139 0.085
0.221 0.157 0.095
0.226 0.163 0.098
0.216 0.159 0.094
0.209 0.157 0.091
0.212 0.162 0.093
0.208 0.162 0.092
0.197 0.156 0.087
0.189 0.152 0.084
0.182 0.149 0.081
0.181 0.151 0.081
0.180 0.153 0.081
0.182 0.157 0.082
0.183 0.161 0.083
0.182 0.163 0.083
0.181 0.165 0.083
0.180 0.167 0.083
0.179 0.169 0.083
0.181 0.173 0.084
0.181 0.176 0.085
0.180 0.179 0.085
0.179 0.181 0.085
0.178 0.182 0.085
0.177 0.184 0.085
0.175 0.186 0.085
0.176 0.190 0.086
0.176 0.193 0.086
0.174 0.194 0.086
0.174 0.197 0.086
0.173 0.199 0.086
0.174 0.203 0.087
0.173 0.207 0.087
0.172 0.208 0.087
0.171 0.210 0.087
0.170 0.213 0.087
0.170 0.215 0.088
0.169 0.217 0.088
0.169 0.220 0.088
0.168 0.222 0.088
0.097 -0.129 0.051
0.098 -0.127 0.051
0.094 -0.121 0.049
0.099 -0.126 0.051
0.100 -0.125 0.051
0.103 -0.127 0.053
0.104 -0.126 0.053
0.105 -0.126 0.053
0.104 -0.123 0.053
0.104 -0.121 0.052
0.113 -0.130 0.056
0.118 -0.134 0.059
0.116 -0.129 0.057
0.119 -0.131 0.058
0.119 -0.129 0.058
0.114 -0.122 0.056
0.112 -0.118 0.054
0.103 -0.107 0.050
0.103 -0.105 0.049
0.104 -0.104 0.050
0.105 -0.104 0.050
0.106 -0.103 0.050
0.110 -0.105 0.052
0.117 -0.110 0.055
0.181 -0.165 0.084
0.193 -0.173 0.089
0.194 -0.172 0.089
0.196 -0.170 0.090
0.197 -0.169 0.090
0.199 -0.167 0.090
0.200 -0.165 0.090
0.202 -0.164 0.091
0.203 -0.162 0.091
0.203 -0.159 0.091
0.207 -0.160 0.092
0.205 -0.155 0.091
0.203 -0.151 0.090
0.203 -0.149 0.089
0.203 -0.146 0.089
0.203 -0.144 0.089
0.200 -0.139 0.087
0.200 -0.136 0.087
0.200 -0.135 0.087
0.201 -0.132 0.087
0.202 -0.130 0.087
0.204 -0.129 0.087
0.206 -0.128 0.088
0.205 -0.126 0.088
0.203 -0.122 0.086
0.205 -0.121 0.087
0.207 -0.120 0.088
0.209 -0.118 0.088
0.212 -0.118 0.089
0.209 -0.114 0.088
0.208 -0.111 0.087
0.207 -0.108 0.086
0.205 -0.105 0.086
0.206 -0.103 0.086
0.208 -0.102 0.086
0.210 -0.101 0.087
0.212 -0.099 0.088
0.213 -0.097 0.088
0.213 -0.095 0.088
0.211 -0.092 0.087
0.211 -0.090 0.087
0.210 -0.087 0.086
0.208 -0.084 0.085
0.207 -0.082 0.084
0.212 -0.082 0.086
0.211 -0.079 0.086
0.208 -0.076 0.085
0.207 -0.074 0.084
0.213 -0.074 0.086
0.217 -0.073 0.088
0.216 -0.070 0.087
0.218 -0.069 0.088
0.219 -0.067 0.088
0.219 -0.065 0.088
0.219 -0.063 0.088
0.220 -0.061 0.089
0.224 -0.060 0.090
0.225 -0.058 0.090
0.226 -0.056 0.090
0.227 -0.054 0.091
0.226 -0.052 0.090
0.226 -0.050 0.090
0.226 -0.047 0.090
0.226 -0.045 0.090
0.223 -0.043 0.089
0.223 -0.041 0.089
0.226 -0.039 0.090
0.228 -0.037 0.090
0.228 -0.035 0.091
0.229 -0.033 0.091
0.225 -0.030 0.089
0.222 -0.028 0.088
0.224 -0.026 0.089
0.227 -0.024 0.090
0.236 -0.023 0.094
0.238 -0.021 0.094
0.241 -0.019 0.095
0.244 -0.017 0.097
0.236 -0.012 0.093
0.231 -0.010 0.092
0.219 -0.007 0.086
0.215 -0.005 0.085
0.225 -0.003 0.089
0.222 -0.001 0.088
0.217 0.001 0.086
0.215 0.003 0.085
0.218 0.005 0.086
0.221 0.007 0.087
0.222 0.009 0.088
0.221 0.011 0.087
0.218 0.013 0.086
0.222 0.016 0.088
0.221 0.017 0.088
0.223 0.020 0.088
0.229 0.022 0.091
0.233 0.025 0.092
0.235 0.027 0.093
0.228 0.029 0.091
0.222 0.030 0.088
0.213 0.031 0.085
0.200 0.031 0.080
0.195 0.032 0.078
0.194 0.034 0.077
0.201 0.037 0.080
0.204 0.039 0.082
0.207 0.042 0.083
0.210 0.044 0.084
0.221 0.049 0.089
0.236 0.055 0.095
0.248 0.060 0.100
0.245 0.061 0.098
0.241 0.063 0.097
0.233 0.063 0.094
0.226 0.063 0.091
0.218 0.063 0.088
0.211 0.063 0.085
0.203 0.063 0.082
0.205 0.065 0.083
0.205 0.068 0.083
0.204 0.069 0.083
0.205 0.071 0.083
0.201 0.072 0.082
0.201 0.074 0.082
0.201 0.077 0.083
0.204 0.080 0.084
0.198 0.079 0.082
0.196 0.081 0.081
0.200 0.084 0.082
0.198 0.086 0.082
0.195 0.086 0.081
0.194 0.088 0.081
0.196 0.091 0.081
0.195 0.093 0.081
0.192 0.093 0.080
