VERSION .7
FIELDS x y z
SIZE 4 4 4
TYPE F F F
COUNT 1 1 1
WIDTH     2433
HEIGHT 1
VIEWPOINT 0 0 0 1 0 0 0
POINTS     2433
DATA ascii
0.264 -0.356 -0.063
0.267 -0.355 -0.064
0.267 -0.350 -0.063
0.301 -0.368 -0.070
0.302 -0.365 -0.070
0.294 -0.350 -0.068
0.301 -0.352 -0.069
0.301 -0.348 -0.069
0.299 -0.341 -0.068
0.299 -0.335 -0.067
0.298 -0.329 -0.067
0.300 -0.327 -0.067
0.303 -0.324 -0.067
0.305 -0.322 -0.067
0.306 -0.318 -0.067
0.306 -0.313 -0.067
0.306 -0.308 -0.067
0.307 -0.305 -0.067
0.308 -0.301 -0.067
0.306 -0.294 -0.066
0.310 -0.293 -0.066
0.308 -0.287 -0.066
0.307 -0.281 -0.065
0.308 -0.278 -0.065
0.309 -0.275 -0.065
0.311 -0.272 -0.065
0.309 -0.266 -0.065
0.308 -0.262 -0.064
0.310 -0.259 -0.064
0.312 -0.256 -0.065
0.310 -0.251 -0.064
0.311 -0.247 -0.064
0.316 -0.247 -0.065
0.316 -0.243 -0.065
0.232 -0.170 -0.047
0.224 -0.161 -0.045
0.224 -0.158 -0.045
0.219 -0.152 -0.044
0.239 -0.163 -0.048
0.246 -0.165 -0.049
0.235 -0.155 -0.047
0.221 -0.141 -0.044
0.214 -0.134 -0.042
0.205 -0.126 -0.040
0.206 -0.124 -0.040
0.204 -0.121 -0.040
0.205 -0.119 -0.040
0.207 -0.118 -0.040
0.215 -0.121 -0.042
0.205 -0.113 -0.040
0.206 -0.111 -0.040
0.207 -0.109 -0.040
0.210 -0.109 -0.041
0.240 -0.121 -0.046
0.244 -0.121 -0.047
0.250 -0.121 -0.048
0.239 -0.114 -0.046
0.245 -0.114 -0.047
0.298 -0.136 -0.057
0.313 -0.139 -0.060
0.315 -0.137 -0.060
0.249 -0.096 -0.047
0.258 -0.097 -0.049
0.246 -0.090 -0.046
0.359 -0.124 -0.067
0.360 -0.121 -0.068
0.365 -0.119 -0.068
0.371 -0.118 -0.069
0.377 -0.116 -0.071
0.385 -0.115 -0.072
0.393 -0.113 -0.073
0.400 -0.112 -0.075
0.407 -0.110 -0.076
0.414 -0.108 -0.077
0.421 -0.106 -0.078
0.430 -0.104 -0.080
0.439 -0.102 -0.082
0.440 -0.098 -0.082
0.401 -0.086 -0.074
0.392 -0.080 -0.073
0.393 -0.077 -0.073
0.292 -0.052 -0.054
0.293 -0.049 -0.054
0.293 -0.046 -0.054
0.299 -0.045 -0.055
0.298 -0.042 -0.055
0.293 -0.039 -0.054
0.291 -0.036 -0.054
0.299 -0.034 -0.055
0.302 -0.031 -0.056
0.288 -0.025 -0.053
0.308 -0.024 -0.057
0.310 -0.021 -0.057
0.310 -0.018 -0.057
0.310 -0.015 -0.057
0.309 -0.013 -0.057
0.300 -0.010 -0.055
0.301 -0.007 -0.055
0.304 -0.004 -0.056
0.307 -0.001 -0.057
0.309 0.001 -0.057
0.313 0.004 -0.058
0.314 0.007 -0.058
0.316 0.010 -0.058
0.317 0.013 -0.058
0.318 0.016 -0.059
0.323 0.019 -0.059
0.323 0.022 -0.060
0.318 0.024 -0.059
0.319 0.027 -0.059
0.320 0.030 -0.059
0.321 0.033 -0.059
0.323 0.037 -0.060
0.322 0.039 -0.059
0.321 0.042 -0.059
0.322 0.045 -0.059
0.331 0.050 -0.061
0.324 0.052 -0.060
0.323 0.054 -0.060
0.322 0.057 -0.060
0.323 0.060 -0.060
0.322 0.063 -0.060
0.321 0.066 -0.060
0.320 0.069 -0.060
0.318 0.071 -0.059
0.318 0.074 -0.059
0.318 0.077 -0.059
0.316 0.080 -0.059
0.315 0.082 -0.059
0.316 0.086 -0.059
0.318 0.089 -0.060
0.312 0.091 -0.058
0.305 0.091 -0.057
0.309 0.095 -0.058
0.318 0.101 -0.060
0.307 0.101 -0.058
0.307 0.104 -0.058
0.320 0.112 -0.061
0.325 0.120 -0.062
0.331 0.125 -0.063
0.328 0.127 -0.062
0.336 0.155 -0.065
0.338 0.159 -0.065
0.333 0.164 -0.064
0.357 0.187 -0.070
0.354 0.189 -0.069
0.358 0.195 -0.070
0.354 0.197 -0.069
0.342 0.194 -0.067
0.341 0.197 -0.067
0.363 0.214 -0.072
0.364 0.219 -0.072
0.371 0.227 -0.074
0.377 0.235 -0.075
0.370 0.240 -0.074
0.358 0.236 -0.072
0.359 0.241 -0.072
0.357 0.244 -0.072
0.351 0.245 -0.071
0.279 -0.386 -0.064
0.258 -0.352 -0.059
0.255 -0.344 -0.058
0.257 -0.342 -0.058
0.262 -0.343 -0.059
0.257 -0.333 -0.058
0.254 -0.325 -0.057
0.269 -0.339 -0.060
0.277 -0.344 -0.061
0.278 -0.341 -0.061
0.272 -0.323 -0.059
0.281 -0.330 -0.061
0.291 -0.330 -0.063
0.293 -0.328 -0.063
0.296 -0.326 -0.063
0.298 -0.324 -0.063
0.303 -0.324 -0.064
0.305 -0.321 -0.064
0.304 -0.316 -0.064
0.304 -0.311 -0.063
0.306 -0.308 -0.063
0.309 -0.306 -0.064
0.311 -0.303 -0.064
0.311 -0.299 -0.064
0.311 -0.294 -0.063
0.311 -0.290 -0.063
0.310 -0.284 -0.063
0.309 -0.279 -0.062
0.310 -0.275 -0.062
0.312 -0.273 -0.062
0.313 -0.270 -0.062
0.312 -0.264 -0.062
0.313 -0.261 -0.062
0.314 -0.258 -0.062
0.315 -0.255 -0.062
0.311 -0.247 -0.061
0.315 -0.246 -0.061
0.318 -0.245 -0.062
0.308 -0.233 -0.060
0.244 -0.178 -0.047
0.238 -0.171 -0.046
0.234 -0.165 -0.045
0.210 -0.146 -0.040
0.221 -0.151 -0.042
0.235 -0.158 -0.045
0.206 -0.136 -0.039
0.201 -0.130 -0.038
0.202 -0.129 -0.038
0.203 -0.127 -0.038
0.204 -0.125 -0.038
0.206 -0.124 -0.038
0.205 -0.121 -0.038
0.198 -0.115 -0.037
0.206 -0.118 -0.038
0.219 -0.123 -0.041
0.206 -0.113 -0.038
0.205 -0.110 -0.038
0.205 -0.108 -0.038
0.208 -0.107 -0.038
0.234 -0.119 -0.043
0.243 -0.120 -0.044
0.244 -0.118 -0.045
0.237 -0.112 -0.043
0.238 -0.110 -0.043
0.217 -0.090 -0.039
0.213 -0.086 -0.038
0.224 -0.088 -0.040
0.221 -0.085 -0.040
0.234 -0.088 -0.042
0.268 -0.098 -0.048
0.273 -0.097 -0.049
0.353 -0.122 -0.063
0.360 -0.121 -0.064
0.365 -0.119 -0.065
0.371 -0.118 -0.066
0.379 -0.117 -0.067
0.383 -0.114 -0.068
0.391 -0.113 -0.069
0.397 -0.111 -0.070
0.403 -0.109 -0.071
0.410 -0.107 -0.073
0.418 -0.105 -0.074
0.426 -0.103 -0.075
0.432 -0.100 -0.076
0.425 -0.095 -0.075
0.411 -0.088 -0.072
0.399 -0.082 -0.070
0.391 -0.076 -0.069
0.289 -0.051 -0.051
0.289 -0.048 -0.051
0.297 -0.047 -0.052
0.298 -0.045 -0.052
0.297 -0.042 -0.052
0.290 -0.038 -0.051
0.289 -0.035 -0.051
0.305 -0.035 -0.053
0.307 -0.032 -0.054
0.287 -0.025 -0.050
0.294 -0.023 -0.051
0.305 -0.021 -0.053
0.309 -0.018 -0.054
0.312 -0.016 -0.055
0.308 -0.013 -0.054
0.302 -0.010 -0.053
0.302 -0.007 -0.053
0.306 -0.004 -0.053
0.308 -0.001 -0.054
0.311 0.001 -0.054
0.313 0.004 -0.055
0.315 0.007 -0.055
0.316 0.010 -0.055
0.317 0.013 -0.055
0.318 0.016 -0.056
0.320 0.019 -0.056
0.318 0.021 -0.056
0.318 0.024 -0.056
0.319 0.027 -0.056
0.320 0.030 -0.056
0.320 0.033 -0.056
0.320 0.036 -0.056
0.321 0.039 -0.056
0.322 0.042 -0.057
0.321 0.045 -0.056
0.320 0.048 -0.056
0.327 0.052 -0.057
0.321 0.054 -0.056
0.324 0.057 -0.057
0.323 0.060 -0.057
0.322 0.063 -0.057
0.322 0.066 -0.057
0.321 0.069 -0.057
0.320 0.072 -0.057
0.319 0.074 -0.056
0.318 0.077 -0.056
0.316 0.080 -0.056
0.315 0.082 -0.056
0.314 0.085 -0.056
0.321 0.090 -0.057
0.312 0.091 -0.056
0.303 0.091 -0.054
0.300 0.093 -0.054
0.311 0.099 -0.056
0.320 0.105 -0.057
0.306 0.104 -0.055
0.313 0.109 -0.056
0.328 0.117 -0.059
0.333 0.126 -0.060
0.341 0.156 -0.062
0.339 0.159 -0.062
0.343 0.183 -0.064
0.345 0.188 -0.064
0.342 0.190 -0.064
0.339 0.192 -0.063
0.367 0.216 -0.069
0.369 0.222 -0.069
0.352 0.216 -0.066
0.364 0.231 -0.069
0.368 0.238 -0.070
0.374 0.247 -0.071
0.343 0.256 -0.067
0.350 0.266 -0.069
0.383 0.306 -0.076
0.375 0.310 -0.075
0.265 -0.366 -0.057
0.258 -0.352 -0.056
0.258 -0.347 -0.055
0.260 -0.345 -0.056
0.261 -0.342 -0.056
0.256 -0.332 -0.054
0.252 -0.322 -0.053
0.260 -0.327 -0.055
0.268 -0.332 -0.056
0.268 -0.327 -0.056
0.265 -0.319 -0.055
0.270 -0.320 -0.056
0.272 -0.318 -0.056
0.288 -0.318 -0.058
0.295 -0.320 -0.059
0.296 -0.317 -0.059
0.297 -0.313 -0.059
0.297 -0.308 -0.059
0.296 -0.303 -0.058
0.304 -0.306 -0.060
0.311 -0.308 -0.061
0.311 -0.304 -0.061
0.312 -0.299 -0.060
0.313 -0.296 -0.060
0.313 -0.292 -0.060
0.312 -0.286 -0.060
0.311 -0.280 -0.059
0.312 -0.277 -0.059
0.314 -0.274 -0.059
0.314 -0.270 -0.059
0.315 -0.266 -0.059
0.315 -0.263 -0.059
0.316 -0.259 -0.059
0.313 -0.252 -0.058
0.311 -0.247 -0.058
0.317 -0.248 -0.058
0.318 -0.245 -0.059
0.240 -0.172 -0.044
0.236 -0.166 -0.043
0.211 -0.147 -0.038
0.208 -0.142 -0.037
0.215 -0.144 -0.039
0.218 -0.143 -0.039
0.202 -0.131 -0.036
0.203 -0.129 -0.036
0.203 -0.127 -0.036
0.204 -0.125 -0.036
0.212 -0.128 -0.037
0.217 -0.128 -0.038
0.216 -0.126 -0.038
0.219 -0.124 -0.038
0.223 -0.125 -0.039
0.224 -0.123 -0.039
0.231 -0.124 -0.040
0.228 -0.118 -0.040
0.227 -0.115 -0.039
0.230 -0.114 -0.040
0.230 -0.111 -0.040
0.224 -0.107 -0.039
0.227 -0.106 -0.039
0.228 -0.104 -0.039
0.226 -0.101 -0.039
0.216 -0.092 -0.037
0.207 -0.086 -0.035
0.211 -0.085 -0.036
0.213 -0.084 -0.036
0.216 -0.083 -0.037
0.220 -0.083 -0.037
0.358 -0.120 -0.060
0.364 -0.119 -0.061
0.372 -0.118 -0.063
0.377 -0.116 -0.063
0.385 -0.115 -0.065
0.391 -0.113 -0.066
0.396 -0.110 -0.066
0.401 -0.108 -0.067
0.407 -0.106 -0.068
0.415 -0.104 -0.070
0.431 -0.104 -0.072
0.429 -0.100 -0.072
0.420 -0.094 -0.070
0.404 -0.086 -0.067
0.396 -0.081 -0.066
0.388 -0.076 -0.065
0.288 -0.051 -0.048
0.289 -0.048 -0.048
0.290 -0.046 -0.048
0.297 -0.044 -0.049
0.295 -0.041 -0.049
0.288 -0.038 -0.048
0.295 -0.036 -0.049
0.301 -0.034 -0.050
0.307 -0.032 -0.051
0.297 -0.028 -0.049
0.299 -0.026 -0.050
0.299 -0.023 -0.050
0.297 -0.020 -0.049
0.307 -0.018 -0.051
0.322 -0.016 -0.053
0.304 -0.012 -0.050
0.303 -0.010 -0.050
0.304 -0.007 -0.050
0.305 -0.004 -0.051
0.309 -0.001 -0.051
0.311 0.001 -0.052
0.314 0.004 -0.052
0.315 0.007 -0.052
0.317 0.010 -0.053
0.317 0.013 -0.053
0.323 0.016 -0.054
0.318 0.019 -0.053
0.318 0.022 -0.053
0.317 0.024 -0.053
0.316 0.027 -0.053
0.315 0.030 -0.052
0.316 0.033 -0.053
0.318 0.036 -0.053
0.320 0.039 -0.053
0.321 0.042 -0.053
0.321 0.045 -0.053
0.322 0.048 -0.054
0.321 0.051 -0.053
0.327 0.055 -0.055
0.321 0.057 -0.054
0.323 0.060 -0.054
0.322 0.063 -0.054
0.322 0.066 -0.054
0.321 0.069 -0.054
0.320 0.072 -0.054
0.319 0.074 -0.054
0.318 0.077 -0.053
0.316 0.080 -0.053
0.316 0.082 -0.053
0.315 0.085 -0.053
0.316 0.088 -0.053
0.311 0.090 -0.053
0.306 0.092 -0.052
0.307 0.095 -0.052
0.316 0.101 -0.054
0.317 0.104 -0.054
0.308 0.104 -0.052
0.317 0.110 -0.054
0.337 0.120 -0.057
0.343 0.126 -0.058
0.358 0.139 -0.061
0.340 0.156 -0.059
0.340 0.160 -0.059
0.339 0.184 -0.060
0.370 0.214 -0.066
0.379 0.250 -0.069
0.381 0.260 -0.069
0.358 0.271 -0.066
0.358 0.327 -0.069
0.252 -0.348 -0.051
0.254 -0.347 -0.052
0.255 -0.343 -0.052
0.259 -0.344 -0.052
0.261 -0.342 -0.053
0.254 -0.328 -0.051
0.251 -0.320 -0.050
0.255 -0.321 -0.051
0.262 -0.325 -0.052
0.264 -0.323 -0.052
0.266 -0.320 -0.052
0.268 -0.318 -0.052
0.268 -0.313 -0.052
0.288 -0.307 -0.054
0.292 -0.307 -0.055
0.290 -0.300 -0.054
0.292 -0.298 -0.054
0.298 -0.299 -0.055
0.305 -0.302 -0.056
0.308 -0.300 -0.057
0.309 -0.296 -0.056
0.311 -0.294 -0.057
0.313 -0.291 -0.057
0.312 -0.286 -0.056
0.313 -0.282 -0.056
0.314 -0.278 -0.056
0.316 -0.276 -0.056
0.314 -0.270 -0.056
0.318 -0.269 -0.056
0.320 -0.267 -0.057
0.316 -0.259 -0.056
0.312 -0.251 -0.055
0.281 -0.223 -0.049
0.226 -0.162 -0.039
0.216 -0.152 -0.037
0.217 -0.151 -0.037
0.227 -0.155 -0.039
0.220 -0.147 -0.037
0.211 -0.139 -0.036
0.219 -0.142 -0.037
0.235 -0.150 -0.040
0.231 -0.144 -0.039
0.217 -0.133 -0.036
0.215 -0.130 -0.036
0.219 -0.130 -0.037
0.223 -0.129 -0.037
0.225 -0.128 -0.037
0.223 -0.125 -0.037
0.226 -0.124 -0.037
0.231 -0.124 -0.038
0.233 -0.123 -0.038
0.229 -0.118 -0.038
0.224 -0.113 -0.037
0.226 -0.112 -0.037
0.222 -0.108 -0.036
0.223 -0.106 -0.036
0.221 -0.103 -0.036
0.222 -0.101 -0.036
0.220 -0.098 -0.036
0.213 -0.092 -0.034
0.209 -0.089 -0.034
0.210 -0.087 -0.034
0.211 -0.085 -0.034
0.213 -0.084 -0.034
0.211 -0.081 -0.034
0.217 -0.081 -0.035
0.267 -0.097 -0.043
0.293 -0.101 -0.047
0.357 -0.116 -0.057
0.368 -0.117 -0.059
0.375 -0.115 -0.060
0.384 -0.114 -0.061
0.390 -0.112 -0.062
0.395 -0.110 -0.063
0.399 -0.108 -0.063
0.406 -0.106 -0.064
0.423 -0.106 -0.067
0.434 -0.105 -0.069
0.435 -0.101 -0.069
0.420 -0.094 -0.066
0.405 -0.086 -0.064
0.391 -0.080 -0.062
0.381 -0.074 -0.060
0.371 -0.069 -0.058
0.288 -0.051 -0.045
0.286 -0.048 -0.045
0.288 -0.046 -0.045
0.290 -0.043 -0.046
0.290 -0.041 -0.046
0.291 -0.038 -0.046
0.291 -0.036 -0.046
0.297 -0.034 -0.047
0.304 -0.032 -0.048
0.312 -0.027 -0.049
0.304 -0.023 -0.048
0.296 -0.020 -0.046
0.301 -0.018 -0.047
0.318 -0.016 -0.050
0.300 -0.012 -0.047
0.302 -0.010 -0.047
0.305 -0.007 -0.048
0.307 -0.004 -0.048
0.309 -0.001 -0.048
0.311 0.001 -0.049
0.314 0.004 -0.049
0.315 0.007 -0.049
0.316 0.010 -0.050
0.319 0.013 -0.050
0.318 0.016 -0.050
0.318 0.019 -0.050
0.317 0.021 -0.050
0.316 0.024 -0.050
0.315 0.027 -0.049
0.315 0.030 -0.049
0.313 0.033 -0.049
0.318 0.036 -0.050
0.317 0.039 -0.050
0.317 0.042 -0.050
0.320 0.045 -0.050
0.323 0.048 -0.051
0.324 0.051 -0.051
0.322 0.054 -0.051
0.324 0.057 -0.051
0.323 0.060 -0.051
0.323 0.063 -0.051
0.322 0.066 -0.051
0.321 0.069 -0.051
0.320 0.071 -0.051
0.319 0.074 -0.051
0.318 0.077 -0.050
0.318 0.080 -0.050
0.316 0.083 -0.050
0.316 0.085 -0.050
0.316 0.088 -0.050
0.314 0.091 -0.050
0.307 0.092 -0.049
0.318 0.098 -0.051
0.324 0.103 -0.052
0.321 0.105 -0.052
0.313 0.106 -0.050
0.317 0.110 -0.051
0.330 0.118 -0.053
0.341 0.156 -0.056
0.342 0.160 -0.056
0.318 0.159 -0.052
0.260 -0.359 -0.050
0.252 -0.343 -0.048
0.255 -0.343 -0.049
0.261 -0.346 -0.050
0.264 -0.346 -0.050
0.259 -0.335 -0.049
0.257 -0.327 -0.048
0.260 -0.327 -0.049
0.266 -0.329 -0.049
0.267 -0.325 -0.049
0.265 -0.319 -0.049
0.263 -0.312 -0.048
0.283 -0.297 -0.050
0.292 -0.303 -0.051
0.291 -0.297 -0.051
0.297 -0.298 -0.052
0.301 -0.297 -0.052
0.303 -0.295 -0.052
0.305 -0.293 -0.053
0.307 -0.290 -0.053
0.307 -0.286 -0.052
0.310 -0.283 -0.053
0.311 -0.280 -0.053
0.314 -0.278 -0.053
0.315 -0.274 -0.053
0.311 -0.267 -0.052
0.315 -0.266 -0.053
0.321 -0.267 -0.053
0.322 -0.264 -0.053
0.315 -0.254 -0.052
0.234 -0.177 -0.038
0.230 -0.170 -0.037
0.221 -0.161 -0.036
0.216 -0.155 -0.035
0.212 -0.149 -0.034
0.216 -0.150 -0.035
0.221 -0.151 -0.035
0.219 -0.147 -0.035
0.214 -0.141 -0.034
0.217 -0.140 -0.034
0.228 -0.145 -0.036
0.227 -0.142 -0.036
0.220 -0.135 -0.035
0.217 -0.130 -0.034
0.218 -0.129 -0.034
0.222 -0.129 -0.035
0.217 -0.124 -0.034
0.216 -0.121 -0.034
0.218 -0.119 -0.034
0.221 -0.119 -0.034
0.225 -0.118 -0.035
0.221 -0.114 -0.034
0.220 -0.111 -0.034
0.223 -0.110 -0.034
0.224 -0.109 -0.035
0.225 -0.107 -0.035
0.225 -0.104 -0.034
0.222 -0.101 -0.034
0.223 -0.099 -0.034
0.227 -0.098 -0.035
0.212 -0.090 -0.032
0.215 -0.089 -0.033
0.218 -0.088 -0.033
0.215 -0.085 -0.033
0.217 -0.083 -0.033
0.212 -0.079 -0.032
0.277 -0.096 -0.042
0.288 -0.097 -0.043
0.381 -0.113 -0.057
0.388 -0.112 -0.058
0.392 -0.109 -0.059
0.399 -0.108 -0.060
0.409 -0.106 -0.061
0.424 -0.106 -0.063
0.434 -0.105 -0.065
0.431 -0.100 -0.064
0.425 -0.095 -0.063
0.411 -0.088 -0.061
0.396 -0.081 -0.059
0.383 -0.075 -0.057
0.372 -0.069 -0.055
0.293 -0.052 -0.043
0.286 -0.048 -0.042
0.286 -0.045 -0.042
0.287 -0.043 -0.043
0.287 -0.040 -0.042
0.287 -0.038 -0.042
0.291 -0.036 -0.043
0.305 -0.034 -0.045
0.322 -0.033 -0.048
0.326 -0.031 -0.048
0.318 -0.027 -0.047
0.301 -0.023 -0.044
0.293 -0.020 -0.043
0.306 -0.018 -0.045
0.320 -0.016 -0.047
0.300 -0.012 -0.044
0.300 -0.010 -0.044
0.305 -0.007 -0.045
0.308 -0.004 -0.045
0.309 -0.001 -0.046
0.312 0.001 -0.046
0.314 0.004 -0.046
0.315 0.007 -0.046
0.317 0.010 -0.047
0.319 0.013 -0.047
0.318 0.016 -0.047
0.317 0.019 -0.047
0.316 0.021 -0.047
0.315 0.024 -0.047
0.315 0.027 -0.047
0.314 0.030 -0.046
0.313 0.032 -0.046
0.313 0.035 -0.046
0.315 0.038 -0.047
0.316 0.041 -0.047
0.318 0.045 -0.047
0.323 0.048 -0.048
0.324 0.051 -0.048
0.324 0.054 -0.048
0.325 0.058 -0.048
0.324 0.060 -0.048
0.323 0.063 -0.048
0.322 0.066 -0.048
0.321 0.069 -0.048
0.320 0.071 -0.048
0.319 0.074 -0.048
0.319 0.077 -0.048
0.319 0.080 -0.048
0.317 0.083 -0.048
0.315 0.085 -0.047
0.316 0.088 -0.047
0.316 0.091 -0.048
0.313 0.094 -0.047
0.312 0.096 -0.047
0.326 0.104 -0.049
0.324 0.106 -0.049
0.316 0.107 -0.048
0.309 0.107 -0.047
0.321 0.115 -0.049
0.343 0.157 -0.053
0.344 0.161 -0.053
0.235 -0.324 -0.042
0.253 -0.345 -0.045
0.257 -0.346 -0.046
0.261 -0.347 -0.047
0.260 -0.341 -0.046
0.267 -0.345 -0.047
0.274 -0.349 -0.048
0.286 -0.359 -0.050
0.281 -0.348 -0.049
0.267 -0.326 -0.046
0.259 -0.311 -0.045
0.205 -0.232 -0.035
0.197 -0.220 -0.033
0.194 -0.213 -0.033
0.200 -0.217 -0.033
0.291 -0.301 -0.048
0.296 -0.302 -0.049
0.297 -0.298 -0.049
0.300 -0.296 -0.049
0.302 -0.294 -0.049
0.303 -0.290 -0.049
0.305 -0.287 -0.049
0.306 -0.284 -0.049
0.306 -0.280 -0.049
0.305 -0.275 -0.049
0.307 -0.272 -0.049
0.311 -0.271 -0.049
0.309 -0.265 -0.048
0.304 -0.257 -0.048
0.309 -0.257 -0.048
0.316 -0.258 -0.049
0.314 -0.253 -0.049
0.237 -0.185 -0.036
0.228 -0.175 -0.035
0.222 -0.167 -0.034
0.216 -0.160 -0.033
0.220 -0.161 -0.033
0.218 -0.157 -0.033
0.215 -0.151 -0.032
0.215 -0.149 -0.032
0.222 -0.151 -0.033
0.214 -0.144 -0.032
0.213 -0.140 -0.032
0.212 -0.137 -0.032
0.216 -0.137 -0.032
0.217 -0.136 -0.032
0.213 -0.130 -0.031
0.216 -0.130 -0.032
0.222 -0.131 -0.033
0.210 -0.121 -0.031
0.209 -0.119 -0.031
0.202 -0.112 -0.029
0.206 -0.113 -0.030
0.212 -0.114 -0.031
0.212 -0.109 -0.031
0.212 -0.107 -0.031
0.221 -0.109 -0.032
0.226 -0.109 -0.033
0.227 -0.108 -0.033
0.224 -0.104 -0.032
0.236 -0.107 -0.034
0.223 -0.099 -0.032
0.237 -0.103 -0.034
0.225 -0.095 -0.032
0.229 -0.095 -0.033
0.221 -0.089 -0.032
0.220 -0.086 -0.031
0.221 -0.085 -0.031
0.234 -0.087 -0.033
0.240 -0.087 -0.034
0.237 -0.084 -0.034
0.248 -0.085 -0.035
0.277 -0.093 -0.039
0.385 -0.111 -0.054
0.391 -0.109 -0.055
0.397 -0.107 -0.056
0.413 -0.107 -0.058
0.421 -0.105 -0.059
0.427 -0.103 -0.060
0.429 -0.099 -0.060
0.429 -0.095 -0.060
0.416 -0.089 -0.058
0.401 -0.082 -0.056
0.386 -0.075 -0.054
0.295 -0.052 -0.041
0.287 -0.048 -0.040
0.286 -0.045 -0.040
0.288 -0.043 -0.040
0.287 -0.040 -0.040
0.287 -0.038 -0.040
0.292 -0.036 -0.041
0.304 -0.034 -0.042
0.327 -0.034 -0.045
0.327 -0.031 -0.045
0.304 -0.026 -0.042
0.298 -0.023 -0.041
0.296 -0.020 -0.041
0.307 -0.018 -0.043
0.316 -0.016 -0.044
0.299 -0.012 -0.041
0.302 -0.010 -0.042
0.306 -0.007 -0.042
0.307 -0.004 -0.043
0.310 -0.001 -0.043
0.312 0.001 -0.043
0.314 0.004 -0.043
0.316 0.007 -0.044
0.317 0.010 -0.044
0.318 0.013 -0.044
0.318 0.016 -0.044
0.317 0.019 -0.044
0.316 0.021 -0.044
0.315 0.024 -0.044
0.315 0.027 -0.044
0.313 0.030 -0.044
0.312 0.032 -0.043
0.313 0.035 -0.043
0.314 0.038 -0.044
0.316 0.041 -0.044
0.317 0.044 -0.044
0.319 0.048 -0.044
0.323 0.051 -0.045
0.325 0.054 -0.045
0.325 0.057 -0.045
0.325 0.060 -0.045
0.324 0.063 -0.045
0.323 0.066 -0.045
0.321 0.069 -0.045
0.320 0.071 -0.045
0.320 0.074 -0.045
0.319 0.077 -0.045
0.318 0.080 -0.045
0.316 0.082 -0.044
0.315 0.085 -0.044
0.313 0.088 -0.044
0.320 0.093 -0.045
0.310 0.092 -0.044
0.315 0.097 -0.045
0.316 0.101 -0.045
0.315 0.103 -0.045
0.314 0.106 -0.045
0.307 0.107 -0.044
0.321 0.115 -0.046
1.240 0.504 -0.178
0.350 0.160 -0.051
0.351 0.164 -0.051
0.282 -0.389 -0.047
0.258 -0.351 -0.043
0.261 -0.351 -0.044
0.257 -0.340 -0.043
0.255 -0.334 -0.042
0.264 -0.341 -0.044
0.281 -0.357 -0.046
0.285 -0.357 -0.047
0.278 -0.343 -0.045
0.226 -0.263 -0.036
0.201 -0.228 -0.032
0.196 -0.219 -0.031
0.192 -0.211 -0.030
0.193 -0.209 -0.030
0.202 -0.215 -0.031
0.290 -0.300 -0.045
0.295 -0.300 -0.045
0.298 -0.299 -0.045
0.300 -0.296 -0.046
0.302 -0.294 -0.046
0.302 -0.289 -0.046
0.303 -0.285 -0.045
0.306 -0.284 -0.046
0.305 -0.278 -0.045
0.303 -0.272 -0.045
0.300 -0.265 -0.044
0.302 -0.264 -0.045
0.304 -0.261 -0.045
0.301 -0.254 -0.044
0.304 -0.253 -0.044
0.312 -0.255 -0.045
0.304 -0.244 -0.044
0.216 -0.165 -0.031
0.206 -0.155 -0.029
0.213 -0.158 -0.030
0.225 -0.164 -0.032
0.224 -0.161 -0.032
0.217 -0.153 -0.031
0.217 -0.150 -0.031
0.217 -0.148 -0.030
0.212 -0.142 -0.030
0.199 -0.131 -0.028
0.211 -0.136 -0.029
0.213 -0.135 -0.030
0.209 -0.130 -0.029
0.207 -0.127 -0.029
0.217 -0.130 -0.030
0.217 -0.128 -0.030
0.215 -0.124 -0.029
0.211 -0.120 -0.029
0.205 -0.114 -0.028
0.214 -0.117 -0.029
0.220 -0.118 -0.030
0.220 -0.116 -0.030
0.211 -0.109 -0.029
0.214 -0.108 -0.029
0.219 -0.108 -0.030
0.225 -0.109 -0.030
0.227 -0.107 -0.031
0.225 -0.104 -0.030
0.224 -0.101 -0.030
0.222 -0.096 -0.030
0.237 -0.100 -0.032
0.224 -0.093 -0.030
0.220 -0.089 -0.029
0.220 -0.087 -0.029
0.221 -0.085 -0.029
0.242 -0.090 -0.032
0.240 -0.087 -0.032
0.239 -0.085 -0.032
0.249 -0.086 -0.033
0.259 -0.087 -0.034
0.265 -0.086 -0.035
0.280 -0.088 -0.037
0.371 -0.107 -0.049
0.388 -0.108 -0.051
0.398 -0.107 -0.052
0.410 -0.106 -0.054
0.418 -0.105 -0.055
0.422 -0.102 -0.055
0.431 -0.100 -0.056
0.428 -0.095 -0.056
0.418 -0.089 -0.055
0.404 -0.083 -0.053
0.291 -0.051 -0.038
0.285 -0.048 -0.037
0.287 -0.046 -0.037
0.289 -0.043 -0.038
0.290 -0.041 -0.038
0.288 -0.038 -0.037
0.285 -0.035 -0.037
0.288 -0.033 -0.037
0.315 -0.033 -0.041
0.314 -0.030 -0.041
0.295 -0.025 -0.038
0.301 -0.023 -0.039
0.301 -0.020 -0.039
0.304 -0.018 -0.039
0.320 -0.016 -0.041
0.300 -0.012 -0.039
0.302 -0.010 -0.039
0.304 -0.007 -0.039
0.307 -0.004 -0.040
0.311 -0.001 -0.040
0.313 0.001 -0.040
0.314 0.004 -0.041
0.316 0.007 -0.041
0.318 0.010 -0.041
0.317 0.013 -0.041
0.317 0.016 -0.041
0.316 0.018 -0.041
0.316 0.021 -0.041
0.315 0.024 -0.041
0.314 0.027 -0.041
0.313 0.030 -0.041
0.312 0.032 -0.040
0.312 0.035 -0.041
0.314 0.038 -0.041
0.315 0.041 -0.041
0.317 0.044 -0.041
0.320 0.048 -0.042
0.323 0.051 -0.042
0.324 0.054 -0.042
0.325 0.057 -0.042
0.325 0.060 -0.042
0.324 0.063 -0.042
0.323 0.066 -0.042
0.321 0.069 -0.042
0.319 0.071 -0.042
0.320 0.074 -0.042
0.320 0.077 -0.042
0.318 0.080 -0.042
0.316 0.082 -0.042
0.314 0.085 -0.041
0.313 0.087 -0.041
0.327 0.094 -0.043
0.327 0.098 -0.043
0.324 0.100 -0.043
0.323 0.103 -0.043
0.316 0.104 -0.042
0.310 0.105 -0.041
0.319 0.111 -0.042
0.331 0.118 -0.044
0.324 0.125 -0.043
0.352 0.165 -0.048
0.367 0.175 -0.050
0.353 0.184 -0.048
0.239 -0.329 -0.037
0.262 -0.357 -0.041
0.262 -0.353 -0.041
0.253 -0.335 -0.039
0.253 -0.331 -0.039
0.261 -0.337 -0.040
0.270 -0.344 -0.041
0.194 -0.223 -0.029
0.189 -0.214 -0.028
0.189 -0.211 -0.028
0.187 -0.205 -0.027
0.194 -0.210 -0.028
0.196 -0.209 -0.028
0.293 -0.298 -0.042
0.297 -0.298 -0.042
0.298 -0.294 -0.042
0.301 -0.293 -0.042
0.305 -0.291 -0.043
0.303 -0.285 -0.042
0.302 -0.280 -0.042
0.305 -0.278 -0.042
0.301 -0.271 -0.041
0.299 -0.264 -0.041
0.300 -0.261 -0.041
0.302 -0.259 -0.041
0.303 -0.256 -0.041
0.304 -0.252 -0.041
0.306 -0.250 -0.041
0.216 -0.168 -0.029
0.209 -0.160 -0.028
0.206 -0.155 -0.027
0.205 -0.152 -0.027
0.222 -0.162 -0.029
0.225 -0.161 -0.030
0.215 -0.151 -0.028
0.216 -0.150 -0.028
0.218 -0.148 -0.028
0.215 -0.144 -0.028
0.211 -0.139 -0.027
0.213 -0.137 -0.028
0.213 -0.135 -0.027
0.207 -0.129 -0.027
0.209 -0.128 -0.027
0.206 -0.124 -0.026
0.215 -0.127 -0.028
0.215 -0.124 -0.027
0.197 -0.112 -0.025
0.209 -0.116 -0.027
0.209 -0.114 -0.027
0.205 -0.110 -0.026
0.215 -0.113 -0.027
0.201 -0.104 -0.025
0.213 -0.107 -0.027
0.216 -0.106 -0.027
0.222 -0.108 -0.028
0.227 -0.108 -0.028
0.226 -0.105 -0.028
0.225 -0.102 -0.028
0.231 -0.102 -0.029
0.242 -0.105 -0.030
0.222 -0.094 -0.028
0.221 -0.091 -0.027
0.220 -0.089 -0.027
0.219 -0.086 -0.027
0.220 -0.084 -0.027
0.209 -0.078 -0.026
0.242 -0.088 -0.030
0.242 -0.086 -0.030
0.241 -0.083 -0.030
0.243 -0.082 -0.030
0.263 -0.086 -0.032
0.266 -0.084 -0.033
0.268 -0.082 -0.033
0.274 -0.082 -0.034
0.389 -0.108 -0.047
0.400 -0.108 -0.049
0.411 -0.107 -0.050
0.417 -0.104 -0.051
0.425 -0.102 -0.052
0.433 -0.100 -0.053
0.431 -0.096 -0.052
0.422 -0.090 -0.051
0.409 -0.083 -0.050
0.289 -0.051 -0.035
0.288 -0.048 -0.035
0.288 -0.046 -0.035
0.293 -0.044 -0.035
0.288 -0.040 -0.035
0.285 -0.037 -0.034
0.286 -0.035 -0.034
0.290 -0.033 -0.035
0.320 -0.033 -0.039
0.307 -0.029 -0.037
0.307 -0.026 -0.037
0.298 -0.023 -0.036
0.296 -0.020 -0.036
0.305 -0.018 -0.037
0.316 -0.016 -0.038
0.300 -0.012 -0.036
0.302 -0.010 -0.036
0.304 -0.007 -0.037
0.307 -0.004 -0.037
0.311 -0.001 -0.037
0.313 0.001 -0.038
0.315 0.004 -0.038
0.317 0.007 -0.038
0.317 0.010 -0.038
0.315 0.013 -0.038
0.316 0.016 -0.038
0.316 0.018 -0.038
0.315 0.021 -0.038
0.315 0.024 -0.038
0.314 0.027 -0.038
0.313 0.030 -0.038
0.312 0.032 -0.038
0.312 0.035 -0.038
0.313 0.038 -0.038
0.316 0.041 -0.038
0.317 0.044 -0.038
0.320 0.048 -0.039
0.322 0.051 -0.039
0.324 0.054 -0.039
0.324 0.057 -0.039
0.325 0.060 -0.039
0.325 0.063 -0.039
0.323 0.066 -0.039
0.321 0.069 -0.039
0.320 0.071 -0.039
0.320 0.074 -0.039
0.320 0.077 -0.039
0.319 0.080 -0.039
0.317 0.083 -0.039
0.315 0.085 -0.038
0.313 0.088 -0.038
0.330 0.095 -0.040
0.326 0.097 -0.040
0.325 0.100 -0.040
0.327 0.104 -0.040
0.322 0.106 -0.040
0.318 0.107 -0.039
0.316 0.110 -0.039
0.314 0.112 -0.039
0.329 0.127 -0.041
1.245 0.506 -0.155
0.250 -0.344 -0.036
0.261 -0.355 -0.037
0.263 -0.353 -0.038
0.258 -0.342 -0.037
0.250 -0.326 -0.035
0.257 -0.331 -0.036
0.191 -0.222 -0.026
0.188 -0.216 -0.026
0.186 -0.210 -0.025
0.182 -0.203 -0.025
0.187 -0.205 -0.025
0.190 -0.205 -0.025
0.287 -0.296 -0.038
0.297 -0.302 -0.039
0.296 -0.296 -0.039
0.297 -0.293 -0.039
0.301 -0.292 -0.039
0.305 -0.291 -0.039
0.304 -0.286 -0.039
0.301 -0.279 -0.039
0.302 -0.275 -0.039
0.302 -0.271 -0.038
0.299 -0.264 -0.038
0.300 -0.261 -0.038
0.303 -0.260 -0.038
0.305 -0.257 -0.038
0.303 -0.252 -0.038
0.298 -0.243 -0.037
0.287 -0.231 -0.036
0.216 -0.168 -0.027
0.208 -0.159 -0.026
0.205 -0.155 -0.025
0.193 -0.143 -0.024
0.210 -0.153 -0.026
0.204 -0.146 -0.025
0.210 -0.148 -0.025
0.215 -0.149 -0.026
0.225 -0.153 -0.027
0.221 -0.148 -0.027
0.215 -0.141 -0.026
0.213 -0.138 -0.025
0.214 -0.136 -0.026
0.214 -0.133 -0.026
0.212 -0.129 -0.025
0.211 -0.127 -0.025
0.214 -0.126 -0.025
0.214 -0.124 -0.025
0.215 -0.122 -0.025
0.198 -0.110 -0.023
0.209 -0.114 -0.024
0.216 -0.116 -0.025
0.200 -0.105 -0.023
0.214 -0.110 -0.025
0.203 -0.102 -0.024
0.214 -0.105 -0.025
0.219 -0.106 -0.025
0.225 -0.107 -0.026
0.224 -0.104 -0.026
0.226 -0.102 -0.026
0.224 -0.099 -0.026
0.221 -0.093 -0.025
0.224 -0.092 -0.026
0.220 -0.089 -0.025
0.219 -0.086 -0.025
0.223 -0.086 -0.025
0.225 -0.084 -0.026
0.234 -0.085 -0.027
0.239 -0.084 -0.027
0.240 -0.083 -0.027
0.253 -0.085 -0.029
0.260 -0.085 -0.030
0.262 -0.083 -0.030
0.262 -0.080 -0.030
0.281 -0.083 -0.032
0.282 -0.081 -0.032
0.393 -0.109 -0.044
0.401 -0.108 -0.045
0.411 -0.107 -0.046
0.418 -0.105 -0.047
0.423 -0.102 -0.048
0.427 -0.099 -0.048
0.430 -0.096 -0.048
0.423 -0.090 -0.047
0.410 -0.084 -0.046
0.395 -0.077 -0.044
0.292 -0.051 -0.033
0.290 -0.049 -0.032
0.291 -0.046 -0.033
0.297 -0.044 -0.033
0.292 -0.041 -0.033
0.283 -0.037 -0.032
0.285 -0.035 -0.032
0.297 -0.034 -0.033
0.309 -0.032 -0.034
0.324 -0.031 -0.036
0.308 -0.026 -0.034
0.295 -0.023 -0.033
0.293 -0.020 -0.033
0.303 -0.018 -0.034
0.311 -0.015 -0.035
0.301 -0.012 -0.033
0.302 -0.010 -0.034
0.304 -0.007 -0.034
0.309 -0.004 -0.034
0.311 -0.001 -0.035
0.313 0.001 -0.035
0.315 0.004 -0.035
0.316 0.007 -0.035
0.317 0.010 -0.035
0.317 0.013 -0.035
0.316 0.016 -0.035
0.316 0.018 -0.035
0.315 0.021 -0.035
0.314 0.024 -0.035
0.315 0.027 -0.035
0.313 0.030 -0.035
0.312 0.032 -0.035
0.313 0.035 -0.035
0.315 0.038 -0.035
0.316 0.041 -0.035
0.317 0.044 -0.035
0.321 0.048 -0.036
0.322 0.051 -0.036
0.324 0.054 -0.036
0.324 0.057 -0.036
0.325 0.060 -0.036
0.324 0.063 -0.036
0.323 0.066 -0.036
0.322 0.069 -0.036
0.320 0.071 -0.036
0.320 0.074 -0.036
0.320 0.077 -0.036
0.319 0.080 -0.036
0.317 0.083 -0.036
0.315 0.085 -0.036
0.314 0.088 -0.036
0.324 0.094 -0.037
0.320 0.095 -0.036
0.316 0.097 -0.036
0.325 0.103 -0.037
0.324 0.106 -0.037
0.315 0.106 -0.036
0.315 0.109 -0.036
0.305 0.109 -0.035
0.305 0.112 -0.035
0.328 0.127 -0.038
1.269 0.541 -0.147
0.342 0.160 -0.040
0.374 0.187 -0.044
0.340 0.203 -0.041
0.369 0.225 -0.044
0.367 0.339 -0.048
0.383 0.366 -0.050
0.258 -0.351 -0.034
0.265 -0.355 -0.035
0.252 -0.334 -0.033
0.252 -0.330 -0.033
0.247 -0.318 -0.032
0.176 -0.212 -0.022
0.175 -0.206 -0.022
0.181 -0.210 -0.023
0.187 -0.215 -0.023
0.183 -0.206 -0.023
0.185 -0.206 -0.023
0.189 -0.208 -0.023
0.291 -0.300 -0.035
0.297 -0.302 -0.036
0.298 -0.298 -0.036
0.296 -0.292 -0.035
0.300 -0.291 -0.036
0.301 -0.287 -0.036
0.298 -0.281 -0.035
0.300 -0.278 -0.035
0.301 -0.275 -0.035
0.300 -0.269 -0.035
0.297 -0.263 -0.035
0.298 -0.260 -0.035
0.302 -0.259 -0.035
0.305 -0.257 -0.035
0.304 -0.252 -0.035
0.296 -0.242 -0.034
0.292 -0.235 -0.033
0.224 -0.174 -0.025
0.213 -0.163 -0.024
0.206 -0.155 -0.023
0.206 -0.153 -0.023
0.200 -0.145 -0.022
0.204 -0.146 -0.023
0.204 -0.144 -0.023
0.215 -0.149 -0.024
0.226 -0.154 -0.025
0.226 -0.151 -0.025
0.217 -0.143 -0.024
0.199 -0.129 -0.022
0.213 -0.135 -0.023
0.212 -0.132 -0.023
0.209 -0.128 -0.023
0.213 -0.128 -0.023
0.211 -0.125 -0.023
0.217 -0.125 -0.023
0.215 -0.122 -0.023
0.205 -0.114 -0.022
0.218 -0.119 -0.023
0.217 -0.116 -0.023
0.216 -0.113 -0.023
0.212 -0.109 -0.023
0.215 -0.108 -0.023
0.215 -0.106 -0.023
0.218 -0.105 -0.023
0.221 -0.105 -0.023
0.221 -0.102 -0.023
0.221 -0.100 -0.023
0.226 -0.100 -0.024
0.213 -0.092 -0.022
0.227 -0.096 -0.024
0.223 -0.092 -0.023
0.218 -0.088 -0.023
0.218 -0.086 -0.023
0.216 -0.083 -0.023
0.238 -0.089 -0.025
0.234 -0.085 -0.024
0.239 -0.085 -0.025
0.245 -0.084 -0.026
0.248 -0.083 -0.026
0.251 -0.082 -0.026
0.261 -0.082 -0.027
0.267 -0.082 -0.028
0.275 -0.082 -0.029
0.289 -0.083 -0.030
0.392 -0.109 -0.041
0.401 -0.108 -0.041
0.408 -0.106 -0.042
0.415 -0.104 -0.043
0.420 -0.101 -0.043
0.426 -0.099 -0.044
0.428 -0.095 -0.044
0.417 -0.089 -0.043
0.405 -0.083 -0.042
0.393 -0.077 -0.040
0.291 -0.051 -0.030
0.291 -0.049 -0.030
0.291 -0.046 -0.030
0.296 -0.044 -0.030
0.288 -0.040 -0.030
0.284 -0.037 -0.029
0.283 -0.035 -0.029
0.293 -0.033 -0.030
0.313 -0.032 -0.032
0.310 -0.029 -0.032
0.303 -0.026 -0.031
0.302 -0.023 -0.031
0.292 -0.020 -0.030
0.303 -0.018 -0.031
0.306 -0.015 -0.031
0.302 -0.012 -0.031
0.303 -0.010 -0.031
0.305 -0.007 -0.031
0.307 -0.004 -0.031
0.310 -0.001 -0.032
0.312 0.001 -0.032
0.314 0.004 -0.032
0.316 0.007 -0.032
0.319 0.010 -0.033
0.318 0.013 -0.033
0.317 0.016 -0.032
0.316 0.018 -0.032
0.315 0.021 -0.032
0.316 0.024 -0.032
0.314 0.027 -0.032
0.314 0.030 -0.032
0.314 0.032 -0.032
0.314 0.035 -0.032
0.315 0.038 -0.032
0.316 0.041 -0.032
0.318 0.044 -0.033
0.320 0.048 -0.033
0.323 0.051 -0.033
0.325 0.054 -0.033
0.324 0.057 -0.033
0.324 0.060 -0.033
0.323 0.063 -0.033
0.323 0.066 -0.033
0.322 0.069 -0.033
0.320 0.071 -0.033
0.320 0.074 -0.033
0.320 0.077 -0.033
0.319 0.080 -0.033
0.317 0.082 -0.033
0.316 0.085 -0.033
0.315 0.088 -0.033
0.320 0.092 -0.033
0.315 0.094 -0.033
0.317 0.098 -0.033
0.319 0.101 -0.033
0.320 0.105 -0.033
0.315 0.106 -0.033
0.315 0.109 -0.033
0.332 0.118 -0.035
0.335 0.129 -0.035
0.333 0.199 -0.037
0.356 0.217 -0.039
0.363 0.225 -0.040
0.360 0.228 -0.040
0.373 0.253 -0.042
0.374 0.258 -0.042
0.382 0.294 -0.044
0.371 0.295 -0.043
0.382 0.331 -0.045
0.380 0.334 -0.045
0.380 0.340 -0.045
0.378 0.343 -0.045
0.371 0.343 -0.044
0.373 0.350 -0.045
0.377 0.361 -0.045
0.378 0.367 -0.046
0.376 0.372 -0.046
0.383 0.385 -0.047
0.382 0.390 -0.047
0.380 0.394 -0.047
0.379 0.400 -0.047
0.391 0.426 -0.049
0.388 0.430 -0.049
0.383 0.484 -0.050
0.386 0.495 -0.051
0.266 -0.366 -0.032
0.256 -0.348 -0.031
0.259 -0.347 -0.031
0.252 -0.334 -0.030
0.180 -0.219 -0.021
0.172 -0.206 -0.020
0.169 -0.200 -0.019
0.176 -0.205 -0.020
0.185 -0.212 -0.021
0.189 -0.214 -0.021
0.193 -0.215 -0.022
0.280 -0.293 -0.031
0.290 -0.299 -0.032
0.296 -0.300 -0.032
0.295 -0.295 -0.032
0.295 -0.291 -0.032
0.294 -0.285 -0.032
0.294 -0.281 -0.032
0.296 -0.278 -0.032
0.296 -0.274 -0.032
0.301 -0.274 -0.032
0.301 -0.270 -0.032
0.299 -0.264 -0.032
0.297 -0.258 -0.031
0.294 -0.252 -0.031
0.304 -0.256 -0.032
0.302 -0.250 -0.032
0.298 -0.243 -0.031
0.295 -0.237 -0.031
0.233 -0.184 -0.024
0.225 -0.175 -0.023
0.217 -0.166 -0.022
0.210 -0.158 -0.021
0.207 -0.153 -0.021
0.207 -0.151 -0.021
0.205 -0.147 -0.021
0.206 -0.145 -0.021
0.210 -0.145 -0.021
0.222 -0.151 -0.022
0.225 -0.151 -0.023
0.216 -0.142 -0.022
0.215 -0.139 -0.022
0.206 -0.130 -0.021
0.210 -0.131 -0.021
0.214 -0.131 -0.021
0.206 -0.124 -0.020
0.216 -0.128 -0.021
0.218 -0.126 -0.021
0.212 -0.120 -0.021
0.206 -0.115 -0.020
0.198 -0.108 -0.019
0.210 -0.113 -0.021
0.215 -0.113 -0.021
0.204 -0.105 -0.020
0.211 -0.106 -0.021
0.212 -0.105 -0.021
0.217 -0.105 -0.021
0.219 -0.104 -0.021
0.219 -0.101 -0.021
0.220 -0.100 -0.021
0.226 -0.100 -0.022
0.213 -0.092 -0.021
0.218 -0.092 -0.021
0.219 -0.090 -0.021
0.222 -0.089 -0.021
0.217 -0.085 -0.021
0.215 -0.082 -0.021
0.202 -0.076 -0.019
0.240 -0.087 -0.023
0.239 -0.085 -0.023
0.243 -0.084 -0.023
0.245 -0.082 -0.023
0.248 -0.081 -0.024
0.258 -0.081 -0.024
0.265 -0.081 -0.025
0.271 -0.081 -0.026
0.390 -0.108 -0.037
0.400 -0.108 -0.038
0.408 -0.106 -0.038
0.413 -0.103 -0.039
0.420 -0.101 -0.040
0.430 -0.099 -0.040
0.425 -0.094 -0.040
0.405 -0.086 -0.038
0.399 -0.081 -0.038
0.385 -0.075 -0.036
0.292 -0.051 -0.027
0.287 -0.048 -0.027
0.286 -0.045 -0.027
0.292 -0.044 -0.027
0.289 -0.040 -0.027
0.283 -0.037 -0.026
0.282 -0.034 -0.026
0.287 -0.032 -0.027
0.300 -0.031 -0.028
0.316 -0.030 -0.030
0.308 -0.026 -0.029
0.300 -0.023 -0.028
0.297 -0.020 -0.028
0.298 -0.018 -0.028
0.303 -0.015 -0.028
0.304 -0.012 -0.028
0.304 -0.010 -0.028
0.304 -0.007 -0.028
0.306 -0.004 -0.029
0.308 -0.001 -0.029
0.312 0.001 -0.029
0.314 0.004 -0.029
0.316 0.007 -0.029
0.316 0.010 -0.029
0.322 0.013 -0.030
0.317 0.016 -0.030
0.316 0.018 -0.030
0.317 0.021 -0.030
0.316 0.024 -0.030
0.315 0.027 -0.029
0.314 0.030 -0.029
0.315 0.033 -0.029
0.314 0.035 -0.029
0.315 0.038 -0.029
0.316 0.041 -0.030
0.318 0.045 -0.030
0.320 0.048 -0.030
0.322 0.051 -0.030
0.324 0.054 -0.030
0.324 0.057 -0.030
0.323 0.060 -0.030
0.324 0.063 -0.030
0.323 0.066 -0.030
0.322 0.069 -0.030
0.320 0.071 -0.030
0.320 0.074 -0.030
0.319 0.077 -0.030
0.317 0.080 -0.030
0.316 0.082 -0.030
0.315 0.085 -0.030
0.315 0.088 -0.030
0.327 0.094 -0.031
0.318 0.095 -0.030
0.319 0.098 -0.030
0.319 0.101 -0.030
0.321 0.105 -0.031
0.317 0.107 -0.030
0.322 0.112 -0.031
0.335 0.119 -0.032
0.357 0.134 -0.034
0.336 0.133 -0.032
1.243 0.517 -0.120
1.244 0.543 -0.121
1.243 0.555 -0.121
1.273 0.595 -0.124
1.282 0.612 -0.125
1.279 0.624 -0.125
1.279 0.638 -0.125
1.268 0.646 -0.125
1.282 0.680 -0.126
0.996 0.550 -0.099
0.986 0.556 -0.098
1.279 0.749 -0.127
1.271 0.759 -0.127
1.276 0.776 -0.128
1.281 0.795 -0.129
1.298 0.820 -0.131
1.290 0.830 -0.130
1.283 0.841 -0.130
1.285 0.858 -0.130
1.297 0.881 -0.132
1.304 0.902 -0.133
1.300 0.915 -0.133
0.348 0.311 -0.038
0.364 0.336 -0.040
0.366 0.344 -0.040
0.375 0.359 -0.041
0.373 0.362 -0.041
0.374 0.370 -0.041
0.379 0.380 -0.042
0.382 0.390 -0.043
0.382 0.396 -0.043
0.386 0.408 -0.044
0.405 0.434 -0.046
0.401 0.437 -0.046
0.398 0.441 -0.046
0.393 0.503 -0.047
0.241 -0.332 -0.026
0.257 -0.349 -0.028
0.254 -0.341 -0.027
0.193 -0.246 -0.020
0.200 -0.250 -0.021
0.178 -0.217 -0.019
0.172 -0.207 -0.018
0.172 -0.204 -0.018
0.180 -0.210 -0.019
0.189 -0.216 -0.019
0.198 -0.224 -0.020
0.283 -0.301 -0.028
0.287 -0.301 -0.029
0.291 -0.300 -0.029
0.292 -0.297 -0.029
0.294 -0.294 -0.029
0.294 -0.289 -0.029
0.295 -0.286 -0.029
0.297 -0.283 -0.029
0.294 -0.277 -0.029
0.296 -0.274 -0.029
0.299 -0.272 -0.029
0.304 -0.272 -0.029
0.303 -0.268 -0.029
0.301 -0.261 -0.029
0.296 -0.253 -0.028
0.300 -0.252 -0.028
0.304 -0.252 -0.029
0.301 -0.246 -0.028
0.294 -0.236 -0.028
0.221 -0.171 -0.021
0.215 -0.165 -0.020
0.214 -0.161 -0.020
0.209 -0.155 -0.019
0.208 -0.151 -0.019
0.208 -0.149 -0.019
0.206 -0.145 -0.019
0.211 -0.146 -0.019
0.219 -0.149 -0.020
0.220 -0.147 -0.020
0.215 -0.141 -0.019
0.211 -0.136 -0.019
0.208 -0.132 -0.019
0.221 -0.137 -0.020
0.224 -0.137 -0.020
0.224 -0.135 -0.020
0.219 -0.129 -0.020
0.217 -0.126 -0.019
0.213 -0.121 -0.019
0.197 -0.109 -0.017
0.208 -0.114 -0.018
0.211 -0.113 -0.019
0.208 -0.109 -0.018
0.211 -0.108 -0.019
0.203 -0.102 -0.018
0.208 -0.103 -0.018
0.215 -0.104 -0.019
0.219 -0.104 -0.019
0.219 -0.101 -0.019
0.221 -0.100 -0.019
0.219 -0.097 -0.019
0.229 -0.099 -0.020
0.218 -0.092 -0.019
0.225 -0.093 -0.019
0.217 -0.087 -0.019
0.216 -0.085 -0.019
0.218 -0.083 -0.019
0.219 -0.082 -0.019
0.230 -0.084 -0.020
0.235 -0.083 -0.020
0.244 -0.084 -0.021
0.250 -0.084 -0.021
0.251 -0.081 -0.021
0.253 -0.080 -0.022
0.259 -0.079 -0.022
0.266 -0.079 -0.023
0.391 -0.109 -0.033
0.400 -0.108 -0.034
0.407 -0.105 -0.035
0.413 -0.103 -0.035
0.423 -0.102 -0.036
0.428 -0.099 -0.036
0.425 -0.094 -0.036
0.403 -0.086 -0.034
0.394 -0.080 -0.033
0.391 -0.076 -0.033
0.291 -0.051 -0.025
0.291 -0.049 -0.025
0.286 -0.045 -0.024
0.289 -0.043 -0.024
0.291 -0.041 -0.025
0.283 -0.037 -0.024
0.282 -0.034 -0.024
0.291 -0.033 -0.025
0.304 -0.032 -0.026
0.308 -0.029 -0.026
0.303 -0.026 -0.026
0.298 -0.023 -0.025
0.294 -0.020 -0.025
0.297 -0.017 -0.025
0.302 -0.015 -0.025
0.307 -0.012 -0.026
0.302 -0.010 -0.025
0.304 -0.007 -0.026
0.305 -0.004 -0.026
0.309 -0.001 -0.026
0.310 0.001 -0.026
0.313 0.004 -0.026
0.315 0.007 -0.027
0.318 0.010 -0.027
0.320 0.013 -0.027
0.316 0.016 -0.027
0.317 0.018 -0.027
0.318 0.021 -0.027
0.318 0.024 -0.027
0.316 0.027 -0.027
0.316 0.030 -0.027
0.315 0.033 -0.027
0.316 0.036 -0.027
0.315 0.038 -0.027
0.319 0.042 -0.027
0.321 0.045 -0.027
0.323 0.048 -0.027
0.324 0.051 -0.027
0.323 0.054 -0.027
0.334 0.059 -0.028
0.323 0.060 -0.027
0.323 0.063 -0.027
0.322 0.066 -0.027
0.321 0.068 -0.027
0.320 0.071 -0.027
0.320 0.074 -0.027
0.319 0.077 -0.027
0.317 0.079 -0.027
0.316 0.082 -0.027
0.315 0.085 -0.027
0.314 0.088 -0.027
0.324 0.093 -0.028
0.318 0.095 -0.027
0.319 0.098 -0.027
0.327 0.104 -0.028
0.324 0.106 -0.028
0.319 0.107 -0.027
0.310 0.107 -0.027
0.320 0.114 -0.028
0.326 0.119 -0.028
0.346 0.137 -0.030
1.247 0.557 -0.109
1.273 0.581 -0.112
1.282 0.598 -0.113
1.279 0.624 -0.113
1.281 0.638 -0.113
1.282 0.652 -0.114
1.261 0.655 -0.112
1.287 0.683 -0.115
0.995 0.560 -0.089
1.284 0.767 -0.116
1.287 0.783 -0.116
1.297 0.804 -0.118
1.307 0.826 -0.119
1.313 0.845 -0.120
1.285 0.842 -0.117
1.290 0.861 -0.118
1.290 0.876 -0.119
1.272 0.927 -0.118
1.284 0.952 -0.120
1.266 0.971 -0.119
0.402 0.438 -0.041
0.514 0.598 -0.054
0.510 0.603 -0.054
0.500 0.601 -0.053
0.494 0.603 -0.053
0.408 0.523 -0.044
0.262 -0.360 -0.025
0.185 -0.234 -0.017
0.181 -0.223 -0.017
0.178 -0.217 -0.017
0.176 -0.211 -0.016
0.179 -0.211 -0.016
0.187 -0.217 -0.017
0.198 -0.227 -0.018
0.291 -0.309 -0.026
0.293 -0.306 -0.026
0.287 -0.296 -0.025
0.289 -0.293 -0.025
0.292 -0.292 -0.026
0.295 -0.290 -0.026
0.299 -0.289 -0.026
0.303 -0.289 -0.026
0.302 -0.284 -0.026
0.294 -0.272 -0.025
0.298 -0.272 -0.026
0.306 -0.275 -0.026
0.308 -0.272 -0.026
0.296 -0.257 -0.025
0.299 -0.255 -0.025
0.299 -0.252 -0.025
0.302 -0.250 -0.025
0.301 -0.246 -0.025
0.220 -0.171 -0.018
0.212 -0.162 -0.018
0.214 -0.161 -0.018
0.215 -0.159 -0.018
0.208 -0.151 -0.017
0.204 -0.146 -0.017
0.206 -0.145 -0.017
0.209 -0.144 -0.017
0.214 -0.146 -0.017
0.217 -0.145 -0.018
0.214 -0.141 -0.017
0.211 -0.136 -0.017
0.209 -0.132 -0.017
0.208 -0.130 -0.017
0.222 -0.133 -0.018
0.218 -0.128 -0.017
0.217 -0.125 -0.017
0.213 -0.121 -0.017
0.209 -0.116 -0.017
0.215 -0.117 -0.017
0.216 -0.116 -0.017
0.219 -0.115 -0.017
0.216 -0.111 -0.017
0.216 -0.109 -0.017
0.212 -0.105 -0.017
0.215 -0.104 -0.017
0.220 -0.104 -0.017
0.221 -0.102 -0.017
0.220 -0.100 -0.017
0.220 -0.097 -0.017
0.219 -0.095 -0.017
0.225 -0.095 -0.017
0.216 -0.089 -0.017
0.216 -0.087 -0.017
0.225 -0.088 -0.017
0.212 -0.081 -0.016
0.220 -0.082 -0.017
0.229 -0.083 -0.018
0.239 -0.084 -0.018
0.248 -0.085 -0.019
0.259 -0.087 -0.020
0.254 -0.083 -0.019
0.250 -0.079 -0.019
0.256 -0.078 -0.020
0.268 -0.079 -0.020
0.394 -0.109 -0.030
0.400 -0.107 -0.030
0.407 -0.105 -0.031
0.414 -0.104 -0.032
0.426 -0.103 -0.032
0.432 -0.100 -0.033
0.420 -0.093 -0.032
0.404 -0.086 -0.031
0.401 -0.082 -0.030
0.398 -0.078 -0.030
0.294 -0.052 -0.022
0.288 -0.048 -0.022
0.285 -0.045 -0.022
0.291 -0.043 -0.022
0.290 -0.041 -0.022
0.284 -0.037 -0.021
0.284 -0.035 -0.021
0.287 -0.032 -0.022
0.303 -0.031 -0.023
0.310 -0.029 -0.023
0.304 -0.026 -0.023
0.299 -0.023 -0.023
0.297 -0.020 -0.022
0.298 -0.017 -0.022
0.304 -0.015 -0.023
0.310 -0.013 -0.023
0.301 -0.010 -0.023
0.302 -0.007 -0.023
0.305 -0.004 -0.023
0.306 -0.001 -0.023
0.310 0.001 -0.023
0.312 0.004 -0.023
0.315 0.007 -0.024
0.316 0.010 -0.024
0.317 0.013 -0.024
0.322 0.016 -0.024
0.316 0.018 -0.024
0.319 0.021 -0.024
0.320 0.024 -0.024
0.320 0.027 -0.024
0.319 0.030 -0.024
0.319 0.033 -0.024
0.320 0.036 -0.024
0.320 0.039 -0.024
0.322 0.042 -0.024
0.322 0.045 -0.024
0.324 0.048 -0.025
0.324 0.051 -0.025
0.324 0.054 -0.025
0.323 0.057 -0.025
0.323 0.060 -0.024
0.323 0.063 -0.024
0.321 0.066 -0.024
0.320 0.068 -0.024
0.320 0.071 -0.024
0.319 0.074 -0.024
0.318 0.077 -0.024
0.317 0.080 -0.024
0.316 0.082 -0.024
0.314 0.085 -0.024
0.321 0.090 -0.025
0.322 0.093 -0.025
0.316 0.094 -0.024
0.320 0.098 -0.025
0.334 0.106 -0.026
0.336 0.110 -0.026
0.302 0.102 -0.023
0.308 0.107 -0.024
0.318 0.113 -0.025
0.336 0.126 -0.026
0.360 0.139 -0.028
0.361 0.143 -0.028
1.257 0.561 -0.098
1.278 0.583 -0.100
1.275 0.595 -0.100
1.278 0.623 -0.101
1.283 0.639 -0.101
1.272 0.647 -0.101
1.274 0.662 -0.101
1.301 0.791 -0.105
1.305 0.809 -0.106
1.309 0.826 -0.106
1.307 0.840 -0.106
1.296 0.849 -0.106
1.287 0.858 -0.105
1.277 0.898 -0.105
1.282 0.918 -0.106
1.286 0.937 -0.107
1.273 0.943 -0.106
0.402 0.445 -0.037
0.511 0.594 -0.048
0.511 0.604 -0.048
0.505 0.606 -0.048
0.491 0.599 -0.047
0.410 0.526 -0.040
0.406 0.528 -0.039
0.247 -0.340 -0.021
0.171 -0.221 -0.014
0.171 -0.217 -0.014
0.173 -0.217 -0.014
0.176 -0.217 -0.014
0.177 -0.215 -0.014
0.181 -0.217 -0.015
0.189 -0.223 -0.015
0.198 -0.231 -0.016
0.276 -0.302 -0.022
0.290 -0.312 -0.023
0.295 -0.314 -0.023
0.291 -0.304 -0.023
0.288 -0.297 -0.022
0.287 -0.291 -0.022
0.290 -0.289 -0.022
0.295 -0.290 -0.023
0.299 -0.290 -0.023
0.301 -0.287 -0.023
0.296 -0.278 -0.022
0.293 -0.271 -0.022
0.297 -0.270 -0.022
0.303 -0.272 -0.023
0.304 -0.268 -0.023
0.295 -0.256 -0.022
0.290 -0.248 -0.022
0.293 -0.246 -0.022
0.294 -0.244 -0.022
0.293 -0.238 -0.022
0.231 -0.182 -0.017
0.221 -0.171 -0.016
0.210 -0.161 -0.015
0.215 -0.161 -0.016
0.214 -0.158 -0.015
0.207 -0.151 -0.015
0.201 -0.144 -0.014
0.202 -0.142 -0.014
0.209 -0.145 -0.015
0.215 -0.146 -0.015
0.216 -0.144 -0.015
0.214 -0.141 -0.015
0.212 -0.137 -0.015
0.213 -0.135 -0.015
0.206 -0.128 -0.015
0.209 -0.125 -0.015
0.213 -0.125 -0.015
0.216 -0.125 -0.015
0.215 -0.122 -0.015
0.210 -0.116 -0.015
0.201 -0.110 -0.014
0.209 -0.112 -0.015
0.217 -0.114 -0.015
0.199 -0.102 -0.014
0.213 -0.107 -0.015
0.204 -0.101 -0.014
0.210 -0.101 -0.014
0.220 -0.104 -0.015
0.225 -0.104 -0.015
0.221 -0.100 -0.015
0.219 -0.097 -0.015
0.217 -0.094 -0.015
0.222 -0.094 -0.015
0.219 -0.090 -0.015
0.225 -0.090 -0.015
0.223 -0.088 -0.015
0.213 -0.082 -0.014
0.217 -0.081 -0.015
0.232 -0.084 -0.016
0.241 -0.085 -0.016
0.247 -0.085 -0.017
0.250 -0.084 -0.017
0.251 -0.081 -0.017
0.252 -0.080 -0.017
0.263 -0.080 -0.018
0.277 -0.082 -0.019
0.291 -0.084 -0.020
0.394 -0.109 -0.026
0.400 -0.107 -0.027
0.407 -0.106 -0.027
0.417 -0.104 -0.028
0.427 -0.103 -0.029
0.433 -0.100 -0.029
0.435 -0.097 -0.029
0.408 -0.087 -0.027
0.406 -0.083 -0.027
0.400 -0.078 -0.027
0.384 -0.071 -0.026
0.294 -0.052 -0.020
0.288 -0.048 -0.019
0.287 -0.045 -0.019
0.290 -0.043 -0.019
0.294 -0.041 -0.020
0.287 -0.038 -0.019
0.281 -0.034 -0.019
0.290 -0.033 -0.019
0.308 -0.032 -0.020
0.314 -0.030 -0.021
0.313 -0.027 -0.021
0.303 -0.023 -0.020
0.298 -0.020 -0.020
0.299 -0.018 -0.020
0.305 -0.015 -0.020
0.312 -0.013 -0.021
0.304 -0.010 -0.020
0.302 -0.007 -0.020
0.303 -0.004 -0.020
0.306 -0.001 -0.020
0.310 0.001 -0.021
0.312 0.004 -0.021
0.314 0.007 -0.021
0.316 0.010 -0.021
0.316 0.013 -0.021
0.317 0.016 -0.021
0.320 0.019 -0.021
0.319 0.021 -0.021
0.321 0.024 -0.021
0.321 0.027 -0.021
0.321 0.030 -0.021
0.321 0.033 -0.021
0.321 0.036 -0.021
0.322 0.039 -0.021
0.321 0.042 -0.021
0.323 0.045 -0.022
0.324 0.048 -0.022
0.323 0.051 -0.022
0.328 0.055 -0.022
0.322 0.057 -0.021
0.323 0.060 -0.022
0.322 0.063 -0.022
0.321 0.065 -0.021
0.319 0.068 -0.021
0.319 0.071 -0.021
0.318 0.074 -0.021
0.318 0.077 -0.021
0.317 0.079 -0.021
0.316 0.082 -0.021
0.314 0.085 -0.021
0.321 0.089 -0.022
0.326 0.094 -0.022
0.316 0.094 -0.021
0.321 0.099 -0.022
0.335 0.106 -0.023
0.326 0.106 -0.022
0.312 0.105 -0.021
0.314 0.109 -0.021
0.336 0.120 -0.023
0.346 0.127 -0.024
0.346 0.130 -0.024
0.342 0.132 -0.023
1.257 0.560 -0.087
1.276 0.582 -0.088
1.270 0.633 -0.088
1.270 0.646 -0.088
1.274 0.662 -0.089
0.967 0.534 -0.068
1.294 0.787 -0.092
1.307 0.809 -0.093
1.310 0.827 -0.093
1.304 0.839 -0.093
1.294 0.847 -0.093
0.404 0.447 -0.033
0.512 0.595 -0.042
0.511 0.604 -0.042
0.507 0.609 -0.042
0.391 0.508 -0.033
0.236 -0.325 -0.017
0.176 -0.230 -0.013
0.172 -0.221 -0.012
0.167 -0.212 -0.012
0.171 -0.214 -0.012
0.173 -0.213 -0.012
0.179 -0.218 -0.013
0.186 -0.223 -0.013
0.198 -0.233 -0.014
0.227 -0.260 -0.016
0.234 -0.264 -0.016
0.278 -0.304 -0.019
0.289 -0.312 -0.020
0.290 -0.308 -0.020
0.290 -0.303 -0.019
0.285 -0.294 -0.019
0.285 -0.289 -0.019
0.288 -0.287 -0.019
0.292 -0.288 -0.019
0.294 -0.284 -0.019
0.291 -0.278 -0.019
0.287 -0.270 -0.019
0.290 -0.268 -0.019
0.293 -0.267 -0.019
0.297 -0.266 -0.019
0.282 -0.245 -0.018
0.286 -0.245 -0.018
0.289 -0.243 -0.018
0.287 -0.237 -0.018
0.279 -0.227 -0.018
0.269 -0.216 -0.017
0.225 -0.177 -0.014
0.217 -0.168 -0.014
0.214 -0.163 -0.013
0.208 -0.156 -0.013
0.212 -0.156 -0.013
0.203 -0.148 -0.013
0.200 -0.143 -0.012
0.199 -0.140 -0.012
0.210 -0.145 -0.013
0.213 -0.144 -0.013
0.216 -0.144 -0.013
0.214 -0.141 -0.013
0.215 -0.138 -0.013
0.209 -0.132 -0.013
0.208 -0.129 -0.013
0.224 -0.136 -0.014
0.224 -0.134 -0.014
0.215 -0.126 -0.013
0.214 -0.123 -0.013
0.216 -0.123 -0.013
0.219 -0.122 -0.013
0.213 -0.116 -0.013
0.208 -0.111 -0.012
0.212 -0.111 -0.013
0.214 -0.110 -0.013
0.201 -0.101 -0.012
0.205 -0.101 -0.012
0.210 -0.101 -0.012
0.223 -0.105 -0.013
0.224 -0.103 -0.013
0.224 -0.101 -0.013
0.220 -0.097 -0.013
0.224 -0.097 -0.013
0.225 -0.095 -0.013
0.230 -0.095 -0.014
0.223 -0.090 -0.013
0.219 -0.086 -0.013
0.217 -0.083 -0.013
0.221 -0.083 -0.013
0.234 -0.085 -0.014
0.242 -0.086 -0.014
0.247 -0.085 -0.014
0.248 -0.083 -0.014
0.255 -0.083 -0.015
0.262 -0.083 -0.015
0.272 -0.083 -0.016
0.275 -0.082 -0.016
0.280 -0.080 -0.016
0.386 -0.107 -0.022
0.398 -0.107 -0.023
0.409 -0.106 -0.024
0.421 -0.105 -0.024
0.426 -0.102 -0.025
0.429 -0.099 -0.025
0.423 -0.094 -0.024
0.419 -0.089 -0.024
0.406 -0.083 -0.023
0.403 -0.078 -0.023
0.296 -0.052 -0.017
0.293 -0.049 -0.017
0.286 -0.045 -0.016
0.289 -0.043 -0.017
0.294 -0.041 -0.017
0.289 -0.038 -0.017
0.277 -0.034 -0.016
0.293 -0.033 -0.017
0.298 -0.031 -0.017
0.318 -0.030 -0.018
0.316 -0.027 -0.018
0.302 -0.023 -0.017
0.295 -0.020 -0.017
0.297 -0.017 -0.017
0.301 -0.015 -0.017
0.312 -0.013 -0.018
0.314 -0.010 -0.018
0.301 -0.007 -0.017
0.303 -0.004 -0.017
0.305 -0.001 -0.018
0.309 0.001 -0.018
0.311 0.004 -0.018
0.313 0.007 -0.018
0.314 0.010 -0.018
0.316 0.013 -0.018
0.317 0.016 -0.018
0.318 0.018 -0.018
0.335 0.022 -0.019
0.321 0.024 -0.018
0.322 0.027 -0.018
0.322 0.030 -0.018
0.322 0.033 -0.018
0.323 0.036 -0.019
0.322 0.039 -0.019
0.322 0.042 -0.019
0.322 0.045 -0.019
0.323 0.048 -0.019
0.327 0.052 -0.019
0.321 0.054 -0.019
0.321 0.057 -0.019
0.321 0.060 -0.019
0.321 0.063 -0.019
0.320 0.065 -0.018
0.318 0.068 -0.018
0.318 0.071 -0.018
0.318 0.074 -0.018
0.317 0.076 -0.018
0.316 0.079 -0.018
0.315 0.082 -0.018
0.314 0.084 -0.018
0.324 0.090 -0.019
0.323 0.093 -0.019
0.324 0.096 -0.019
0.323 0.099 -0.019
0.334 0.106 -0.019
0.328 0.107 -0.019
0.317 0.107 -0.019
0.326 0.113 -0.019
0.339 0.121 -0.020
0.346 0.130 -0.020
0.335 0.129 -0.020
0.337 0.133 -0.020
1.258 0.640 -0.076
0.513 0.606 -0.036
0.507 0.608 -0.036
0.496 0.606 -0.035
0.171 -0.235 -0.010
0.164 -0.220 -0.010
0.165 -0.218 -0.010
0.172 -0.225 -0.010
0.169 -0.218 -0.010
0.171 -0.217 -0.010
0.173 -0.216 -0.010
0.186 -0.229 -0.011
0.190 -0.231 -0.011
0.195 -0.234 -0.011
0.208 -0.245 -0.012
0.218 -0.254 -0.013
0.223 -0.256 -0.013
0.274 -0.300 -0.016
0.282 -0.304 -0.016
0.288 -0.306 -0.016
0.282 -0.295 -0.016
0.277 -0.285 -0.016
0.283 -0.287 -0.016
0.288 -0.288 -0.016
0.287 -0.283 -0.016
0.287 -0.278 -0.016
0.282 -0.269 -0.015
0.278 -0.261 -0.015
0.283 -0.258 -0.015
0.287 -0.257 -0.016
0.275 -0.243 -0.015
0.275 -0.238 -0.015
0.279 -0.238 -0.015
0.291 -0.244 -0.016
0.281 -0.233 -0.015
0.275 -0.224 -0.015
0.264 -0.212 -0.014
0.225 -0.178 -0.012
0.218 -0.169 -0.012
0.208 -0.158 -0.011
0.212 -0.159 -0.011
0.209 -0.154 -0.011
0.205 -0.149 -0.011
0.204 -0.145 -0.011
0.208 -0.146 -0.011
0.200 -0.138 -0.010
0.210 -0.142 -0.011
0.214 -0.142 -0.011
0.219 -0.143 -0.011
0.218 -0.140 -0.011
0.216 -0.137 -0.011
0.217 -0.135 -0.011
0.222 -0.136 -0.011
0.223 -0.134 -0.011
0.214 -0.126 -0.011
0.213 -0.123 -0.011
0.216 -0.123 -0.011
0.217 -0.120 -0.011
0.209 -0.114 -0.011
0.209 -0.112 -0.011
0.214 -0.112 -0.011
0.219 -0.112 -0.011
0.217 -0.109 -0.011
0.215 -0.106 -0.011
0.222 -0.107 -0.011
0.221 -0.104 -0.011
0.223 -0.103 -0.011
0.221 -0.100 -0.011
0.222 -0.098 -0.011
0.225 -0.097 -0.011
0.232 -0.098 -0.011
