VERSION .7
FIELDS x y z
SIZE 4 4 4
TYPE F F F
COUNT 1 1 1
WIDTH     2434
HEIGHT 1
VIEWPOINT 0 0 0 1 0 0 0
POINTS     2434
DATA ascii
0.312 -0.277 -0.062
0.311 -0.272 -0.062
0.313 -0.269 -0.062
0.315 -0.267 -0.062
0.316 -0.264 -0.062
0.317 -0.260 -0.062
0.312 -0.252 -0.061
0.313 -0.248 -0.061
0.314 -0.246 -0.061
0.319 -0.245 -0.062
0.256 -0.187 -0.049
0.253 -0.182 -0.048
0.242 -0.171 -0.046
0.216 -0.150 -0.041
0.219 -0.150 -0.042
0.222 -0.149 -0.042
0.215 -0.142 -0.041
0.202 -0.131 -0.038
0.202 -0.129 -0.038
0.203 -0.127 -0.038
0.204 -0.125 -0.038
0.205 -0.123 -0.038
0.203 -0.120 -0.038
0.202 -0.118 -0.038
0.204 -0.116 -0.038
0.219 -0.123 -0.041
0.206 -0.113 -0.038
0.204 -0.110 -0.038
0.205 -0.108 -0.038
0.207 -0.107 -0.038
0.239 -0.121 -0.044
0.245 -0.121 -0.045
0.247 -0.120 -0.045
0.243 -0.115 -0.044
0.239 -0.111 -0.044
0.231 -0.098 -0.042
0.226 -0.089 -0.041
0.224 -0.086 -0.040
0.270 -0.099 -0.048
0.272 -0.097 -0.049
0.355 -0.123 -0.063
0.360 -0.121 -0.064
0.367 -0.120 -0.065
0.374 -0.119 -0.067
0.379 -0.117 -0.067
0.386 -0.115 -0.068
0.389 -0.112 -0.069
0.397 -0.111 -0.070
0.407 -0.110 -0.072
0.413 -0.107 -0.073
0.418 -0.105 -0.074
0.429 -0.104 -0.076
0.430 -0.100 -0.076
0.432 -0.096 -0.076
0.430 -0.092 -0.076
0.419 -0.086 -0.074
0.400 -0.078 -0.070
0.386 -0.072 -0.068
0.292 -0.052 -0.051
0.291 -0.049 -0.051
0.294 -0.047 -0.052
0.302 -0.045 -0.053
0.305 -0.043 -0.053
0.301 -0.040 -0.053
0.304 -0.037 -0.053
0.313 -0.035 -0.055
0.324 -0.034 -0.057
0.316 -0.027 -0.055
0.320 -0.025 -0.056
0.312 -0.021 -0.055
0.318 -0.019 -0.056
0.320 -0.016 -0.056
0.308 -0.013 -0.054
0.302 -0.010 -0.053
0.301 -0.007 -0.053
0.305 -0.004 -0.053
0.307 -0.001 -0.054
0.311 0.001 -0.054
0.313 0.004 -0.055
0.316 0.007 -0.055
0.317 0.010 -0.055
0.318 0.013 -0.056
0.321 0.016 -0.056
0.323 0.019 -0.057
0.318 0.021 -0.056
0.319 0.024 -0.056
0.320 0.027 -0.056
0.321 0.030 -0.056
0.319 0.033 -0.056
0.320 0.036 -0.056
0.320 0.039 -0.056
0.322 0.042 -0.057
0.324 0.046 -0.057
0.321 0.048 -0.056
0.330 0.052 -0.058
0.322 0.054 -0.057
0.323 0.057 -0.057
0.322 0.060 -0.057
0.322 0.063 -0.057
0.321 0.066 -0.057
0.321 0.069 -0.057
0.319 0.071 -0.056
0.318 0.074 -0.056
0.317 0.077 -0.056
0.316 0.080 -0.056
0.314 0.082 -0.056
0.313 0.085 -0.056
0.324 0.091 -0.058
0.324 0.094 -0.058
0.323 0.097 -0.058
0.345 0.107 -0.062
0.348 0.111 -0.062
0.326 0.107 -0.058
0.308 0.104 -0.055
0.319 0.111 -0.057
0.321 0.115 -0.058
0.322 0.118 -0.058
0.346 0.159 -0.063
0.349 0.164 -0.064
0.361 0.192 -0.067
0.379 0.206 -0.070
0.372 0.206 -0.069
0.363 0.206 -0.068
0.369 0.213 -0.069
0.385 0.227 -0.072
0.390 0.248 -0.074
0.380 0.260 -0.073
0.395 0.275 -0.076
0.402 0.285 -0.078
0.398 0.287 -0.077
0.259 -0.358 -0.056
0.259 -0.354 -0.056
0.260 -0.350 -0.056
0.261 -0.347 -0.056
0.261 -0.342 -0.056
0.266 -0.344 -0.056
0.278 -0.355 -0.059
0.285 -0.358 -0.060
0.284 -0.352 -0.060
0.282 -0.345 -0.059
0.286 -0.344 -0.059
0.284 -0.338 -0.059
0.279 -0.326 -0.057
0.283 -0.317 -0.057
0.288 -0.318 -0.058
0.293 -0.319 -0.059
0.296 -0.317 -0.059
0.298 -0.313 -0.059
0.303 -0.314 -0.060
0.314 -0.321 -0.062
0.313 -0.314 -0.061
0.311 -0.308 -0.061
0.311 -0.303 -0.060
0.315 -0.302 -0.061
0.313 -0.296 -0.060
0.313 -0.291 -0.060
0.312 -0.286 -0.060
0.311 -0.281 -0.059
0.313 -0.277 -0.059
0.315 -0.276 -0.060
0.315 -0.271 -0.059
0.316 -0.267 -0.059
0.317 -0.264 -0.059
0.317 -0.260 -0.059
0.315 -0.254 -0.058
0.309 -0.245 -0.057
0.311 -0.243 -0.057
0.308 -0.237 -0.057
0.302 -0.228 -0.055
0.235 -0.169 -0.043
0.240 -0.169 -0.043
0.225 -0.156 -0.041
0.212 -0.145 -0.038
0.218 -0.147 -0.039
0.218 -0.144 -0.039
0.203 -0.131 -0.036
0.203 -0.129 -0.036
0.203 -0.127 -0.036
0.204 -0.125 -0.036
0.216 -0.130 -0.038
0.222 -0.131 -0.039
0.218 -0.127 -0.038
0.222 -0.127 -0.039
0.224 -0.125 -0.039
0.227 -0.124 -0.040
0.240 -0.129 -0.042
0.248 -0.131 -0.043
0.235 -0.121 -0.041
0.242 -0.122 -0.042
0.241 -0.119 -0.042
0.234 -0.114 -0.040
0.231 -0.110 -0.040
0.233 -0.108 -0.040
0.232 -0.106 -0.040
0.222 -0.099 -0.038
0.227 -0.098 -0.039
0.219 -0.093 -0.037
0.212 -0.088 -0.036
0.212 -0.086 -0.036
0.215 -0.085 -0.037
0.220 -0.084 -0.037
0.218 -0.082 -0.037
0.356 -0.120 -0.060
0.369 -0.120 -0.062
0.372 -0.118 -0.063
0.383 -0.118 -0.064
0.387 -0.115 -0.065
0.388 -0.112 -0.065
0.398 -0.111 -0.067
0.405 -0.109 -0.068
0.410 -0.107 -0.069
0.420 -0.105 -0.070
0.430 -0.104 -0.072
0.436 -0.101 -0.073
0.441 -0.098 -0.074
0.427 -0.091 -0.071
0.417 -0.085 -0.070
0.290 -0.051 -0.048
0.288 -0.048 -0.048
0.291 -0.046 -0.048
0.303 -0.045 -0.050
0.304 -0.043 -0.051
0.299 -0.039 -0.050
0.302 -0.037 -0.050
0.312 -0.035 -0.052
0.326 -0.034 -0.054
0.324 -0.031 -0.054
0.320 -0.027 -0.053
0.308 -0.024 -0.051
0.309 -0.021 -0.051
0.317 -0.019 -0.053
0.324 -0.016 -0.054
0.306 -0.012 -0.051
0.301 -0.010 -0.050
0.302 -0.007 -0.050
0.306 -0.004 -0.051
0.308 -0.001 -0.051
0.312 0.001 -0.052
0.313 0.004 -0.052
0.315 0.007 -0.052
0.316 0.010 -0.052
0.318 0.013 -0.053
0.323 0.016 -0.054
0.318 0.019 -0.053
0.319 0.022 -0.053
0.318 0.024 -0.053
0.318 0.027 -0.053
0.317 0.030 -0.053
0.317 0.033 -0.053
0.318 0.036 -0.053
0.319 0.039 -0.053
0.321 0.042 -0.053
0.322 0.045 -0.054
0.323 0.048 -0.054
0.323 0.051 -0.054
0.327 0.055 -0.055
0.323 0.057 -0.054
0.323 0.060 -0.054
0.322 0.063 -0.054
0.322 0.066 -0.054
0.321 0.069 -0.054
0.320 0.072 -0.054
0.319 0.074 -0.053
0.318 0.077 -0.053
0.316 0.080 -0.053
0.315 0.082 -0.053
0.315 0.085 -0.053
0.317 0.089 -0.053
0.321 0.093 -0.054
0.322 0.096 -0.054
0.338 0.104 -0.057
0.343 0.109 -0.058
0.335 0.110 -0.057
0.312 0.105 -0.053
0.319 0.111 -0.054
0.329 0.118 -0.056
0.357 0.164 -0.062
0.350 0.164 -0.061
0.352 0.188 -0.062
0.371 0.210 -0.066
0.383 0.226 -0.068
0.384 0.267 -0.070
0.394 0.279 -0.072
0.270 -0.372 -0.055
0.262 -0.357 -0.053
0.260 -0.351 -0.053
0.260 -0.346 -0.053
0.261 -0.342 -0.053
0.271 -0.350 -0.054
0.285 -0.363 -0.057
0.291 -0.366 -0.058
0.290 -0.360 -0.057
0.285 -0.349 -0.056
0.288 -0.347 -0.056
0.287 -0.341 -0.056
0.275 -0.321 -0.053
0.287 -0.307 -0.054
0.286 -0.301 -0.054
0.289 -0.299 -0.054
0.305 -0.311 -0.057
0.310 -0.311 -0.057
0.307 -0.304 -0.057
0.309 -0.301 -0.057
0.315 -0.302 -0.058
0.319 -0.302 -0.058
0.313 -0.291 -0.057
0.314 -0.288 -0.057
0.316 -0.285 -0.057
0.316 -0.280 -0.057
0.316 -0.276 -0.056
0.314 -0.270 -0.056
0.314 -0.265 -0.056
0.315 -0.262 -0.056
0.312 -0.255 -0.055
0.307 -0.247 -0.054
0.303 -0.236 -0.053
0.302 -0.231 -0.052
0.296 -0.223 -0.051
0.231 -0.168 -0.040
0.226 -0.162 -0.039
0.225 -0.159 -0.039
0.232 -0.161 -0.040
0.228 -0.155 -0.039
0.224 -0.150 -0.038
0.220 -0.145 -0.037
0.225 -0.146 -0.038
0.226 -0.144 -0.038
0.220 -0.137 -0.037
0.228 -0.140 -0.038
0.227 -0.137 -0.038
0.226 -0.133 -0.038
0.224 -0.130 -0.037
0.225 -0.128 -0.037
0.227 -0.127 -0.038
0.229 -0.125 -0.038
0.231 -0.124 -0.038
0.234 -0.123 -0.039
0.230 -0.119 -0.038
0.231 -0.117 -0.038
0.230 -0.114 -0.038
0.231 -0.112 -0.038
0.227 -0.108 -0.037
0.227 -0.105 -0.037
0.223 -0.101 -0.036
0.220 -0.098 -0.036
0.216 -0.094 -0.035
0.221 -0.094 -0.036
0.212 -0.088 -0.034
0.210 -0.085 -0.034
0.215 -0.085 -0.035
0.211 -0.081 -0.034
0.211 -0.079 -0.034
0.267 -0.097 -0.043
0.281 -0.100 -0.045
0.366 -0.116 -0.058
0.374 -0.115 -0.060
0.385 -0.115 -0.061
0.393 -0.113 -0.062
0.400 -0.112 -0.063
0.404 -0.109 -0.064
0.409 -0.106 -0.065
0.425 -0.107 -0.067
0.435 -0.105 -0.069
0.442 -0.102 -0.070
0.428 -0.095 -0.068
0.422 -0.090 -0.067
0.410 -0.084 -0.065
0.288 -0.051 -0.045
0.287 -0.048 -0.045
0.288 -0.046 -0.045
0.301 -0.045 -0.047
0.300 -0.042 -0.047
0.291 -0.038 -0.046
0.294 -0.036 -0.046
0.310 -0.035 -0.049
0.326 -0.034 -0.051
0.339 -0.032 -0.053
0.318 -0.027 -0.050
0.315 -0.024 -0.049
0.302 -0.021 -0.047
0.305 -0.018 -0.048
0.319 -0.016 -0.050
0.301 -0.012 -0.047
0.301 -0.010 -0.047
0.305 -0.007 -0.048
0.307 -0.004 -0.048
0.309 -0.001 -0.048
0.312 0.001 -0.049
0.315 0.004 -0.049
0.316 0.007 -0.050
0.317 0.010 -0.050
0.324 0.013 -0.051
0.317 0.016 -0.050
0.317 0.019 -0.050
0.317 0.021 -0.050
0.316 0.024 -0.050
0.316 0.027 -0.050
0.316 0.030 -0.050
0.315 0.033 -0.049
0.315 0.036 -0.049
0.316 0.039 -0.050
0.318 0.042 -0.050
0.321 0.045 -0.051
0.323 0.048 -0.051
0.324 0.051 -0.051
0.325 0.054 -0.051
0.325 0.058 -0.051
0.323 0.060 -0.051
0.322 0.063 -0.051
0.322 0.066 -0.051
0.321 0.069 -0.051
0.320 0.071 -0.051
0.319 0.074 -0.051
0.318 0.077 -0.050
0.317 0.080 -0.050
0.316 0.082 -0.050
0.315 0.085 -0.050
0.315 0.088 -0.050
0.325 0.094 -0.052
0.325 0.097 -0.052
0.336 0.104 -0.054
0.347 0.110 -0.056
0.338 0.111 -0.054
0.316 0.107 -0.051
0.321 0.112 -0.052
0.340 0.121 -0.055
0.339 0.131 -0.055
0.353 0.162 -0.058
0.348 0.163 -0.057
0.339 0.173 -0.056
0.262 -0.362 -0.050
0.264 -0.361 -0.051
0.264 -0.356 -0.050
0.259 -0.344 -0.049
0.266 -0.349 -0.050
0.273 -0.353 -0.052
0.276 -0.352 -0.052
0.289 -0.363 -0.054
0.285 -0.353 -0.053
0.283 -0.345 -0.052
0.288 -0.346 -0.053
0.284 -0.336 -0.052
0.280 -0.294 -0.049
0.289 -0.299 -0.051
0.303 -0.309 -0.053
0.307 -0.309 -0.054
0.308 -0.304 -0.053
0.308 -0.300 -0.053
0.310 -0.297 -0.053
0.314 -0.296 -0.054
0.314 -0.292 -0.054
0.315 -0.288 -0.054
0.320 -0.288 -0.054
0.319 -0.282 -0.054
0.318 -0.278 -0.053
0.315 -0.271 -0.053
0.312 -0.264 -0.052
0.311 -0.259 -0.052
0.313 -0.256 -0.052
0.306 -0.247 -0.051
0.272 -0.216 -0.045
0.233 -0.173 -0.038
0.226 -0.165 -0.037
0.220 -0.158 -0.036
0.223 -0.157 -0.036
0.228 -0.158 -0.037
0.232 -0.158 -0.037
0.224 -0.150 -0.036
0.227 -0.149 -0.036
0.227 -0.147 -0.036
0.225 -0.143 -0.036
0.224 -0.140 -0.035
0.223 -0.137 -0.035
0.227 -0.136 -0.036
0.226 -0.134 -0.036
0.222 -0.129 -0.035
0.221 -0.126 -0.034
0.220 -0.123 -0.034
0.221 -0.121 -0.034
0.222 -0.119 -0.035
0.224 -0.118 -0.035
0.224 -0.116 -0.035
0.222 -0.112 -0.034
0.226 -0.112 -0.035
0.227 -0.110 -0.035
0.227 -0.108 -0.035
0.226 -0.105 -0.035
0.226 -0.103 -0.035
0.226 -0.100 -0.034
0.237 -0.103 -0.036
0.212 -0.090 -0.032
0.223 -0.092 -0.034
0.217 -0.088 -0.033
0.215 -0.085 -0.033
0.218 -0.084 -0.033
0.209 -0.078 -0.032
0.246 -0.090 -0.037
0.261 -0.093 -0.039
0.284 -0.095 -0.043
0.353 -0.112 -0.053
0.369 -0.113 -0.055
0.383 -0.114 -0.057
0.393 -0.113 -0.059
0.401 -0.112 -0.060
0.405 -0.109 -0.060
0.410 -0.106 -0.061
0.419 -0.105 -0.063
0.434 -0.105 -0.065
0.438 -0.102 -0.065
0.436 -0.097 -0.065
0.422 -0.090 -0.063
0.411 -0.084 -0.061
0.397 -0.077 -0.059
0.287 -0.051 -0.043
0.283 -0.047 -0.042
0.288 -0.046 -0.043
0.295 -0.044 -0.044
0.288 -0.040 -0.043
0.288 -0.038 -0.043
0.288 -0.035 -0.043
0.302 -0.034 -0.045
0.315 -0.033 -0.047
0.318 -0.027 -0.047
0.323 -0.025 -0.048
0.306 -0.021 -0.045
0.319 -0.019 -0.047
0.317 -0.016 -0.047
0.300 -0.012 -0.044
0.302 -0.010 -0.045
0.305 -0.007 -0.045
0.308 -0.004 -0.045
0.310 -0.001 -0.046
0.312 0.001 -0.046
0.315 0.004 -0.046
0.317 0.007 -0.047
0.318 0.010 -0.047
0.323 0.013 -0.048
0.317 0.016 -0.047
0.317 0.019 -0.047
0.316 0.021 -0.047
0.316 0.024 -0.047
0.316 0.027 -0.047
0.315 0.030 -0.047
0.314 0.033 -0.046
0.313 0.035 -0.046
0.315 0.038 -0.047
0.316 0.041 -0.047
0.319 0.045 -0.047
0.321 0.048 -0.048
0.323 0.051 -0.048
0.324 0.054 -0.048
0.326 0.058 -0.048
0.324 0.060 -0.048
0.322 0.063 -0.048
0.322 0.066 -0.048
0.320 0.069 -0.048
0.319 0.071 -0.048
0.319 0.074 -0.048
0.319 0.077 -0.048
0.318 0.080 -0.048
0.316 0.083 -0.047
0.314 0.085 -0.047
0.314 0.088 -0.047
0.332 0.096 -0.050
0.327 0.098 -0.049
0.328 0.101 -0.049
0.344 0.110 -0.052
0.344 0.113 -0.052
0.316 0.107 -0.048
0.319 0.111 -0.048
0.336 0.154 -0.052
0.347 0.162 -0.054
0.241 -0.332 -0.043
0.264 -0.359 -0.047
0.260 -0.349 -0.046
0.262 -0.348 -0.047
0.262 -0.344 -0.047
0.263 -0.340 -0.046
0.277 -0.353 -0.049
0.278 -0.350 -0.049
0.278 -0.344 -0.048
0.280 -0.342 -0.049
0.285 -0.343 -0.049
0.276 -0.327 -0.048
0.217 -0.246 -0.037
0.196 -0.218 -0.033
0.200 -0.220 -0.034
0.208 -0.225 -0.035
0.303 -0.309 -0.050
0.307 -0.308 -0.050
0.309 -0.305 -0.050
0.307 -0.299 -0.050
0.308 -0.295 -0.050
0.309 -0.291 -0.050
0.310 -0.288 -0.050
0.314 -0.287 -0.050
0.313 -0.282 -0.050
0.316 -0.280 -0.050
0.318 -0.277 -0.050
0.322 -0.276 -0.051
0.312 -0.264 -0.049
0.313 -0.260 -0.049
0.313 -0.256 -0.049
0.314 -0.253 -0.049
0.246 -0.191 -0.038
0.235 -0.180 -0.036
0.237 -0.178 -0.036
0.230 -0.171 -0.035
0.224 -0.164 -0.034
0.218 -0.157 -0.033
0.220 -0.155 -0.033
0.225 -0.156 -0.034
0.212 -0.145 -0.032
0.213 -0.143 -0.032
0.220 -0.142 -0.033
0.217 -0.138 -0.032
0.215 -0.134 -0.032
0.213 -0.130 -0.031
0.221 -0.133 -0.033
0.222 -0.131 -0.033
0.209 -0.121 -0.031
0.209 -0.119 -0.031
0.203 -0.113 -0.030
0.214 -0.117 -0.031
0.213 -0.114 -0.031
0.199 -0.105 -0.029
0.211 -0.109 -0.031
0.208 -0.105 -0.030
0.221 -0.109 -0.032
0.225 -0.109 -0.032
0.224 -0.106 -0.032
0.227 -0.105 -0.033
0.231 -0.105 -0.033
0.234 -0.104 -0.034
0.252 -0.109 -0.036
0.239 -0.101 -0.034
0.219 -0.091 -0.031
0.224 -0.090 -0.032
0.223 -0.088 -0.032
0.214 -0.082 -0.030
0.225 -0.084 -0.032
0.240 -0.087 -0.034
0.249 -0.088 -0.035
0.254 -0.088 -0.036
0.270 -0.091 -0.038
0.359 -0.110 -0.051
0.371 -0.110 -0.052
0.386 -0.111 -0.054
0.395 -0.110 -0.055
0.406 -0.109 -0.057
0.409 -0.106 -0.057
0.414 -0.104 -0.058
0.434 -0.105 -0.061
0.442 -0.103 -0.062
0.439 -0.098 -0.061
0.431 -0.092 -0.060
0.417 -0.085 -0.058
0.407 -0.079 -0.057
0.403 -0.075 -0.056
0.281 -0.050 -0.039
0.286 -0.048 -0.040
0.286 -0.045 -0.040
0.295 -0.044 -0.041
0.292 -0.041 -0.041
0.287 -0.038 -0.040
0.289 -0.035 -0.040
0.294 -0.033 -0.041
0.296 -0.031 -0.041
0.297 -0.028 -0.041
0.308 -0.026 -0.043
0.326 -0.025 -0.045
0.310 -0.021 -0.043
0.323 -0.019 -0.045
0.325 -0.016 -0.045
0.301 -0.012 -0.042
0.303 -0.010 -0.042
0.306 -0.007 -0.042
0.308 -0.004 -0.043
0.310 -0.001 -0.043
0.313 0.001 -0.043
0.314 0.004 -0.044
0.316 0.007 -0.044
0.318 0.010 -0.044
0.318 0.013 -0.044
0.317 0.016 -0.044
0.316 0.018 -0.044
0.316 0.021 -0.044
0.315 0.024 -0.044
0.315 0.027 -0.044
0.315 0.030 -0.044
0.313 0.032 -0.043
0.312 0.035 -0.043
0.313 0.038 -0.044
0.315 0.041 -0.044
0.316 0.044 -0.044
0.319 0.048 -0.044
0.323 0.051 -0.045
0.325 0.054 -0.045
0.325 0.057 -0.045
0.323 0.060 -0.045
0.324 0.063 -0.045
0.323 0.066 -0.045
0.321 0.069 -0.045
0.320 0.072 -0.045
0.320 0.074 -0.045
0.320 0.077 -0.045
0.318 0.080 -0.045
0.316 0.082 -0.044
0.315 0.085 -0.044
0.314 0.088 -0.044
0.331 0.096 -0.047
0.320 0.096 -0.045
0.320 0.099 -0.045
0.330 0.105 -0.047
0.337 0.111 -0.048
0.330 0.111 -0.047
0.316 0.110 -0.045
0.365 0.134 -0.052
0.342 0.132 -0.049
0.328 0.130 -0.047
0.340 0.156 -0.049
0.341 0.159 -0.049
0.270 -0.372 -0.045
0.255 -0.347 -0.043
0.259 -0.348 -0.043
0.264 -0.350 -0.044
0.267 -0.349 -0.044
0.265 -0.342 -0.044
0.268 -0.341 -0.044
0.274 -0.343 -0.045
0.273 -0.333 -0.044
0.214 -0.245 -0.034
0.208 -0.236 -0.033
0.198 -0.221 -0.031
0.199 -0.219 -0.031
0.202 -0.218 -0.031
0.209 -0.222 -0.032
0.285 -0.295 -0.044
0.300 -0.305 -0.046
0.307 -0.308 -0.047
0.309 -0.305 -0.047
0.309 -0.300 -0.047
0.308 -0.295 -0.046
0.307 -0.289 -0.046
0.309 -0.287 -0.046
0.309 -0.282 -0.046
0.307 -0.276 -0.045
0.310 -0.274 -0.046
0.316 -0.275 -0.046
0.312 -0.268 -0.046
0.315 -0.266 -0.046
0.312 -0.259 -0.045
0.311 -0.254 -0.045
0.304 -0.245 -0.044
0.236 -0.184 -0.034
0.226 -0.173 -0.032
0.212 -0.160 -0.030
0.222 -0.164 -0.032
0.224 -0.163 -0.032
0.214 -0.153 -0.030
0.211 -0.149 -0.030
0.220 -0.152 -0.031
0.219 -0.149 -0.031
0.209 -0.140 -0.029
0.203 -0.133 -0.028
0.213 -0.138 -0.030
0.215 -0.136 -0.030
0.209 -0.130 -0.029
0.207 -0.127 -0.029
0.215 -0.129 -0.030
0.217 -0.128 -0.030
0.216 -0.125 -0.030
0.213 -0.121 -0.029
0.208 -0.116 -0.028
0.212 -0.116 -0.029
0.214 -0.115 -0.029
0.214 -0.112 -0.029
0.215 -0.111 -0.029
0.218 -0.110 -0.029
0.220 -0.109 -0.030
0.223 -0.108 -0.030
0.226 -0.107 -0.030
0.228 -0.106 -0.031
0.228 -0.103 -0.031
0.235 -0.104 -0.032
0.236 -0.102 -0.032
0.246 -0.104 -0.033
0.222 -0.092 -0.030
0.227 -0.091 -0.030
0.223 -0.088 -0.030
0.210 -0.081 -0.028
0.227 -0.085 -0.030
0.243 -0.088 -0.032
0.252 -0.089 -0.033
0.260 -0.090 -0.034
0.262 -0.088 -0.035
0.259 -0.084 -0.034
0.276 -0.087 -0.036
0.397 -0.111 -0.052
0.403 -0.108 -0.053
0.409 -0.106 -0.054
0.413 -0.103 -0.054
0.435 -0.105 -0.057
0.443 -0.103 -0.058
0.446 -0.099 -0.058
0.433 -0.092 -0.056
0.417 -0.085 -0.054
0.405 -0.079 -0.053
0.391 -0.073 -0.051
0.282 -0.050 -0.037
0.283 -0.047 -0.037
0.295 -0.047 -0.038
0.297 -0.044 -0.039
0.292 -0.041 -0.038
0.289 -0.038 -0.037
0.290 -0.035 -0.038
0.294 -0.033 -0.038
0.296 -0.031 -0.038
0.302 -0.029 -0.039
0.317 -0.027 -0.041
0.317 -0.024 -0.041
0.305 -0.021 -0.039
0.323 -0.019 -0.042
0.323 -0.016 -0.042
0.301 -0.012 -0.039
0.304 -0.010 -0.039
0.306 -0.007 -0.040
0.309 -0.004 -0.040
0.312 -0.001 -0.040
0.314 0.001 -0.041
0.315 0.004 -0.041
0.317 0.007 -0.041
0.319 0.010 -0.041
0.318 0.013 -0.041
0.316 0.016 -0.041
0.316 0.018 -0.041
0.315 0.021 -0.041
0.315 0.024 -0.041
0.314 0.027 -0.041
0.312 0.030 -0.041
0.312 0.032 -0.041
0.312 0.035 -0.041
0.313 0.038 -0.041
0.315 0.041 -0.041
0.316 0.044 -0.041
0.318 0.047 -0.041
0.322 0.051 -0.042
0.325 0.054 -0.042
0.324 0.057 -0.042
0.325 0.060 -0.042
0.325 0.064 -0.042
0.324 0.066 -0.042
0.322 0.069 -0.042
0.321 0.072 -0.042
0.321 0.075 -0.042
0.320 0.077 -0.042
0.318 0.080 -0.042
0.316 0.082 -0.042
0.315 0.085 -0.041
0.315 0.088 -0.042
0.324 0.094 -0.043
0.321 0.096 -0.042
0.313 0.097 -0.041
0.328 0.104 -0.043
0.337 0.110 -0.045
0.326 0.110 -0.043
0.314 0.109 -0.042
0.354 0.126 -0.047
0.345 0.127 -0.046
0.360 0.139 -0.048
0.345 0.137 -0.046
1.238 0.516 -0.166
0.358 0.182 -0.049
0.252 -0.347 -0.039
0.255 -0.347 -0.040
0.259 -0.348 -0.040
0.265 -0.351 -0.041
0.270 -0.353 -0.041
0.272 -0.350 -0.042
0.267 -0.340 -0.041
0.266 -0.333 -0.040
0.220 -0.256 -0.033
0.210 -0.241 -0.031
0.191 -0.216 -0.028
0.193 -0.215 -0.028
0.196 -0.215 -0.029
0.200 -0.216 -0.029
0.210 -0.223 -0.030
0.303 -0.308 -0.043
0.305 -0.306 -0.043
0.305 -0.301 -0.043
0.309 -0.300 -0.043
0.308 -0.294 -0.043
0.304 -0.286 -0.042
0.303 -0.281 -0.042
0.307 -0.280 -0.042
0.307 -0.276 -0.042
0.310 -0.274 -0.042
0.310 -0.270 -0.042
0.311 -0.266 -0.042
0.310 -0.262 -0.042
0.309 -0.256 -0.042
0.303 -0.248 -0.041
0.298 -0.240 -0.040
0.245 -0.194 -0.033
0.234 -0.182 -0.031
0.220 -0.169 -0.029
0.213 -0.160 -0.028
0.213 -0.158 -0.028
0.218 -0.159 -0.029
0.209 -0.150 -0.028
0.212 -0.150 -0.028
0.214 -0.148 -0.028
0.220 -0.149 -0.029
0.216 -0.144 -0.028
0.207 -0.136 -0.027
0.211 -0.136 -0.027
0.216 -0.137 -0.028
0.210 -0.131 -0.027
0.210 -0.129 -0.027
0.206 -0.124 -0.026
0.221 -0.130 -0.028
0.217 -0.126 -0.028
0.214 -0.119 -0.027
0.214 -0.117 -0.027
0.208 -0.112 -0.026
0.217 -0.114 -0.027
0.202 -0.104 -0.025
0.218 -0.110 -0.027
0.220 -0.109 -0.028
0.222 -0.107 -0.028
0.224 -0.106 -0.028
0.226 -0.105 -0.028
0.230 -0.104 -0.029
0.230 -0.102 -0.029
0.233 -0.101 -0.029
0.233 -0.099 -0.029
0.226 -0.093 -0.028
0.223 -0.090 -0.028
0.222 -0.087 -0.027
0.212 -0.081 -0.026
0.207 -0.077 -0.025
0.258 -0.094 -0.032
0.262 -0.093 -0.032
0.257 -0.088 -0.032
0.253 -0.085 -0.031
0.261 -0.085 -0.032
0.269 -0.085 -0.033
0.274 -0.084 -0.033
0.399 -0.111 -0.049
0.402 -0.108 -0.049
0.407 -0.106 -0.049
0.418 -0.105 -0.051
0.426 -0.103 -0.052
0.442 -0.102 -0.054
0.442 -0.098 -0.054
0.428 -0.091 -0.052
0.284 -0.050 -0.034
0.287 -0.048 -0.035
0.295 -0.047 -0.036
0.296 -0.044 -0.036
0.291 -0.041 -0.035
0.288 -0.038 -0.035
0.291 -0.035 -0.035
0.299 -0.034 -0.036
0.311 -0.032 -0.037
0.321 -0.030 -0.039
0.327 -0.028 -0.039
0.319 -0.024 -0.038
0.301 -0.020 -0.036
0.313 -0.018 -0.038
0.326 -0.016 -0.039
0.301 -0.012 -0.036
0.303 -0.010 -0.037
0.305 -0.007 -0.037
0.309 -0.004 -0.037
0.312 -0.001 -0.038
0.314 0.001 -0.038
0.315 0.004 -0.038
0.318 0.007 -0.038
0.320 0.010 -0.039
0.317 0.013 -0.038
0.316 0.016 -0.038
0.315 0.018 -0.038
0.315 0.021 -0.038
0.314 0.024 -0.038
0.313 0.027 -0.038
0.312 0.030 -0.038
0.312 0.032 -0.038
0.313 0.035 -0.038
0.314 0.038 -0.038
0.315 0.041 -0.038
0.316 0.044 -0.038
0.319 0.047 -0.039
0.322 0.051 -0.039
0.324 0.054 -0.039
0.325 0.057 -0.039
0.326 0.061 -0.040
0.326 0.064 -0.040
0.324 0.066 -0.039
0.323 0.069 -0.039
0.321 0.072 -0.039
0.321 0.075 -0.039
0.320 0.077 -0.039
0.319 0.080 -0.039
0.316 0.082 -0.039
0.316 0.085 -0.039
0.316 0.088 -0.039
0.323 0.093 -0.040
0.323 0.096 -0.040
0.324 0.100 -0.040
0.321 0.102 -0.040
0.339 0.111 -0.042
0.329 0.111 -0.041
0.316 0.109 -0.039
0.322 0.115 -0.040
0.341 0.125 -0.042
1.231 0.512 -0.153
0.359 0.168 -0.045
0.374 0.179 -0.047
0.243 -0.335 -0.035
0.260 -0.354 -0.037
0.263 -0.353 -0.038
0.266 -0.352 -0.038
0.268 -0.351 -0.038
0.272 -0.350 -0.038
0.269 -0.342 -0.038
0.196 -0.232 -0.027
0.196 -0.229 -0.027
0.184 -0.211 -0.025
0.184 -0.208 -0.025
0.191 -0.213 -0.026
0.196 -0.215 -0.026
0.204 -0.220 -0.027
0.302 -0.307 -0.040
0.304 -0.304 -0.040
0.305 -0.301 -0.040
0.307 -0.298 -0.040
0.303 -0.290 -0.039
0.301 -0.283 -0.039
0.305 -0.282 -0.039
0.304 -0.278 -0.039
0.307 -0.276 -0.039
0.309 -0.273 -0.039
0.309 -0.269 -0.039
0.306 -0.262 -0.039
0.299 -0.252 -0.038
0.299 -0.248 -0.037
0.300 -0.245 -0.037
0.295 -0.237 -0.037
0.213 -0.163 -0.026
0.211 -0.159 -0.026
0.218 -0.159 -0.027
0.219 -0.157 -0.027
0.207 -0.146 -0.025
0.216 -0.150 -0.026
0.218 -0.148 -0.026
0.216 -0.144 -0.026
0.213 -0.140 -0.026
0.217 -0.140 -0.026
0.216 -0.137 -0.026
0.215 -0.134 -0.026
0.218 -0.133 -0.026
0.222 -0.133 -0.026
0.220 -0.130 -0.026
0.220 -0.127 -0.026
0.214 -0.121 -0.025
0.199 -0.111 -0.023
0.216 -0.118 -0.025
0.221 -0.118 -0.026
0.202 -0.106 -0.024
0.211 -0.108 -0.025
0.204 -0.103 -0.024
0.220 -0.108 -0.025
0.219 -0.106 -0.025
0.221 -0.105 -0.026
0.227 -0.105 -0.026
0.229 -0.104 -0.026
0.225 -0.100 -0.026
0.239 -0.104 -0.027
0.229 -0.097 -0.026
0.226 -0.093 -0.026
0.225 -0.091 -0.026
0.224 -0.088 -0.026
0.223 -0.085 -0.025
0.219 -0.082 -0.025
0.234 -0.085 -0.027
0.243 -0.086 -0.028
0.256 -0.088 -0.029
0.258 -0.086 -0.029
0.264 -0.086 -0.030
0.263 -0.083 -0.030
0.274 -0.084 -0.031
0.282 -0.084 -0.032
0.290 -0.083 -0.033
0.394 -0.110 -0.044
0.402 -0.108 -0.045
0.410 -0.106 -0.046
0.419 -0.105 -0.047
0.424 -0.102 -0.048
0.440 -0.102 -0.049
0.436 -0.097 -0.049
0.420 -0.089 -0.047
0.402 -0.082 -0.045
0.386 -0.075 -0.043
0.291 -0.051 -0.033
0.289 -0.048 -0.032
0.291 -0.046 -0.033
0.297 -0.044 -0.033
0.294 -0.041 -0.033
0.286 -0.037 -0.032
0.287 -0.035 -0.032
0.304 -0.034 -0.034
0.322 -0.033 -0.036
0.333 -0.032 -0.037
0.336 -0.029 -0.037
0.319 -0.024 -0.036
0.301 -0.020 -0.034
0.307 -0.018 -0.034
0.324 -0.016 -0.036
0.301 -0.012 -0.034
0.302 -0.010 -0.034
0.304 -0.007 -0.034
0.308 -0.004 -0.034
0.311 -0.001 -0.035
0.314 0.001 -0.035
0.315 0.004 -0.035
0.317 0.007 -0.035
0.319 0.010 -0.036
0.318 0.013 -0.035
0.317 0.016 -0.035
0.316 0.018 -0.035
0.315 0.021 -0.035
0.314 0.024 -0.035
0.313 0.027 -0.035
0.313 0.030 -0.035
0.313 0.032 -0.035
0.313 0.035 -0.035
0.314 0.038 -0.035
0.315 0.041 -0.035
0.316 0.044 -0.035
0.319 0.048 -0.036
0.323 0.051 -0.036
0.324 0.054 -0.036
0.325 0.057 -0.036
0.326 0.061 -0.037
0.325 0.063 -0.037
0.324 0.066 -0.036
0.323 0.069 -0.036
0.321 0.072 -0.036
0.320 0.074 -0.036
0.320 0.077 -0.036
0.318 0.080 -0.036
0.318 0.083 -0.036
0.316 0.085 -0.036
0.314 0.088 -0.036
0.328 0.095 -0.037
0.331 0.099 -0.038
0.328 0.101 -0.037
0.335 0.106 -0.038
0.333 0.109 -0.038
0.327 0.110 -0.037
0.318 0.110 -0.036
0.327 0.117 -0.037
1.220 0.495 -0.140
1.219 0.507 -0.141
0.371 0.173 -0.043
0.371 0.177 -0.043
0.369 0.180 -0.043
0.352 0.175 -0.041
0.365 0.218 -0.044
0.361 0.220 -0.043
0.392 0.345 -0.050
0.389 0.378 -0.051
0.406 0.474 -0.057
0.266 -0.367 -0.035
0.264 -0.359 -0.035
0.266 -0.358 -0.035
0.268 -0.355 -0.035
0.276 -0.361 -0.036
0.268 -0.345 -0.035
0.217 -0.271 -0.028
0.215 -0.265 -0.027
0.207 -0.252 -0.026
0.191 -0.229 -0.024
0.190 -0.224 -0.024
0.186 -0.217 -0.023
0.182 -0.209 -0.023
0.187 -0.212 -0.023
0.195 -0.217 -0.024
0.206 -0.226 -0.025
0.302 -0.312 -0.037
0.300 -0.305 -0.036
0.301 -0.302 -0.036
0.303 -0.299 -0.036
0.303 -0.294 -0.036
0.300 -0.287 -0.036
0.302 -0.284 -0.036
0.303 -0.281 -0.036
0.305 -0.278 -0.036
0.305 -0.274 -0.036
0.308 -0.272 -0.036
0.307 -0.267 -0.036
0.304 -0.260 -0.035
0.302 -0.254 -0.035
0.299 -0.248 -0.034
0.297 -0.242 -0.034
0.292 -0.234 -0.033
0.229 -0.178 -0.026
0.220 -0.168 -0.025
0.217 -0.163 -0.024
0.215 -0.159 -0.024
0.219 -0.156 -0.024
0.219 -0.154 -0.024
0.217 -0.150 -0.024
0.219 -0.149 -0.024
0.218 -0.146 -0.024
0.219 -0.144 -0.024
0.215 -0.136 -0.024
0.213 -0.132 -0.023
0.208 -0.127 -0.023
0.215 -0.129 -0.023
0.215 -0.127 -0.023
0.216 -0.125 -0.023
0.215 -0.122 -0.023
0.205 -0.114 -0.022
0.220 -0.120 -0.024
0.223 -0.120 -0.024
0.222 -0.117 -0.024
0.213 -0.110 -0.023
0.215 -0.108 -0.023
0.216 -0.106 -0.023
0.219 -0.106 -0.023
0.224 -0.106 -0.024
0.228 -0.106 -0.024
0.227 -0.103 -0.024
0.231 -0.102 -0.024
0.228 -0.099 -0.024
0.236 -0.100 -0.025
0.223 -0.092 -0.023
0.230 -0.093 -0.024
0.232 -0.091 -0.024
0.217 -0.083 -0.023
0.224 -0.084 -0.023
0.230 -0.084 -0.024
0.247 -0.088 -0.026
0.267 -0.092 -0.028
0.270 -0.090 -0.028
0.255 -0.083 -0.027
0.266 -0.084 -0.028
0.266 -0.081 -0.028
0.280 -0.083 -0.029
0.291 -0.084 -0.030
0.394 -0.110 -0.041
0.400 -0.108 -0.041
0.412 -0.107 -0.043
0.421 -0.105 -0.043
0.431 -0.104 -0.045
0.437 -0.101 -0.045
0.438 -0.097 -0.045
0.295 -0.052 -0.030
0.290 -0.048 -0.030
0.290 -0.046 -0.030
0.295 -0.044 -0.030
0.294 -0.041 -0.030
0.283 -0.037 -0.029
0.283 -0.034 -0.029
0.309 -0.035 -0.032
0.326 -0.034 -0.033
0.336 -0.032 -0.034
0.336 -0.029 -0.034
0.321 -0.025 -0.033
0.303 -0.021 -0.031
0.303 -0.018 -0.031
0.302 -0.012 -0.031
0.303 -0.010 -0.031
0.303 -0.007 -0.031
0.307 -0.004 -0.031
0.310 -0.001 -0.032
0.312 0.001 -0.032
0.315 0.004 -0.032
0.318 0.007 -0.032
0.318 0.010 -0.033
0.318 0.013 -0.033
0.317 0.016 -0.033
0.317 0.018 -0.032
0.317 0.021 -0.032
0.316 0.024 -0.032
0.314 0.027 -0.032
0.314 0.030 -0.032
0.314 0.032 -0.032
0.314 0.035 -0.032
0.314 0.038 -0.032
0.316 0.041 -0.032
0.317 0.044 -0.033
0.319 0.048 -0.033
0.323 0.051 -0.033
0.325 0.054 -0.033
0.325 0.057 -0.033
0.325 0.060 -0.034
0.324 0.063 -0.033
0.323 0.066 -0.033
0.323 0.069 -0.033
0.321 0.072 -0.033
0.320 0.074 -0.033
0.319 0.077 -0.033
0.319 0.080 -0.033
0.318 0.083 -0.033
0.315 0.085 -0.033
0.314 0.088 -0.033
0.329 0.095 -0.034
0.332 0.099 -0.035
0.332 0.102 -0.035
0.333 0.106 -0.035
0.328 0.107 -0.034
0.324 0.109 -0.034
0.323 0.112 -0.034
0.331 0.118 -0.035
1.239 0.515 -0.131
1.232 0.563 -0.131
1.235 0.577 -0.132
0.372 0.226 -0.041
0.390 0.242 -0.043
0.397 0.251 -0.044
0.383 0.247 -0.042
0.381 0.293 -0.044
0.390 0.326 -0.045
0.382 0.325 -0.045
0.383 0.336 -0.045
0.379 0.339 -0.045
0.381 0.346 -0.045
0.381 0.352 -0.045
0.381 0.358 -0.046
0.382 0.365 -0.046
0.386 0.375 -0.047
0.385 0.381 -0.047
0.391 0.393 -0.048
0.385 0.393 -0.047
0.385 0.399 -0.047
0.399 0.435 -0.050
0.403 0.447 -0.051
0.407 0.459 -0.052
0.408 0.468 -0.052
0.408 0.475 -0.052
0.392 0.488 -0.051
0.407 0.513 -0.054
0.394 0.513 -0.052
0.262 -0.361 -0.031
0.266 -0.362 -0.032
0.269 -0.361 -0.032
0.272 -0.360 -0.032
0.270 -0.353 -0.032
0.214 -0.268 -0.025
0.209 -0.258 -0.024
0.198 -0.241 -0.023
0.194 -0.233 -0.022
0.181 -0.214 -0.021
0.177 -0.206 -0.020
0.184 -0.211 -0.021
0.194 -0.219 -0.022
0.210 -0.233 -0.024
0.297 -0.311 -0.033
0.304 -0.313 -0.033
0.302 -0.306 -0.033
0.298 -0.298 -0.033
0.300 -0.295 -0.033
0.301 -0.292 -0.033
0.301 -0.287 -0.032
0.302 -0.284 -0.033
0.304 -0.281 -0.033
0.304 -0.277 -0.032
0.307 -0.276 -0.033
0.307 -0.271 -0.033
0.304 -0.264 -0.032
0.303 -0.259 -0.032
0.302 -0.255 -0.032
0.301 -0.249 -0.031
0.297 -0.242 -0.031
0.290 -0.233 -0.030
0.231 -0.180 -0.024
0.224 -0.171 -0.023
0.221 -0.166 -0.023
0.215 -0.159 -0.022
0.208 -0.151 -0.021
0.208 -0.149 -0.021
0.216 -0.152 -0.022
0.221 -0.153 -0.022
0.223 -0.152 -0.022
0.222 -0.149 -0.022
0.221 -0.145 -0.022
0.217 -0.140 -0.022
0.204 -0.129 -0.020
0.214 -0.133 -0.021
0.221 -0.135 -0.022
0.208 -0.125 -0.021
0.216 -0.127 -0.021
0.215 -0.125 -0.021
0.206 -0.117 -0.020
0.212 -0.118 -0.021
0.223 -0.119 -0.022
0.216 -0.113 -0.021
0.204 -0.105 -0.020
0.211 -0.106 -0.021
0.208 -0.103 -0.020
0.218 -0.105 -0.021
0.226 -0.107 -0.022
0.228 -0.105 -0.022
0.228 -0.103 -0.022
0.229 -0.101 -0.022
0.230 -0.100 -0.022
0.228 -0.096 -0.022
0.224 -0.093 -0.022
0.222 -0.089 -0.021
0.230 -0.090 -0.022
0.218 -0.084 -0.021
0.209 -0.078 -0.020
0.254 -0.090 -0.024
0.262 -0.090 -0.025
0.253 -0.085 -0.024
0.267 -0.087 -0.025
0.266 -0.084 -0.025
0.269 -0.082 -0.025
0.276 -0.082 -0.026
0.393 -0.109 -0.037
0.401 -0.108 -0.038
0.410 -0.106 -0.039
0.428 -0.107 -0.040
0.430 -0.104 -0.040
0.437 -0.101 -0.041
0.438 -0.097 -0.041
0.426 -0.091 -0.040
0.404 -0.082 -0.038
0.387 -0.075 -0.036
0.293 -0.052 -0.027
0.291 -0.049 -0.027
0.290 -0.046 -0.027
0.295 -0.044 -0.028
0.293 -0.041 -0.027
0.280 -0.037 -0.026
0.282 -0.034 -0.026
0.299 -0.034 -0.028
0.329 -0.034 -0.031
0.333 -0.032 -0.031
0.328 -0.028 -0.031
0.320 -0.025 -0.030
0.304 -0.021 -0.028
0.305 -0.018 -0.028
0.303 -0.012 -0.028
0.302 -0.010 -0.028
0.303 -0.007 -0.028
0.307 -0.004 -0.029
0.309 -0.001 -0.029
0.311 0.001 -0.029
0.314 0.004 -0.029
0.316 0.007 -0.029
0.317 0.010 -0.030
0.318 0.013 -0.030
0.317 0.016 -0.030
0.317 0.018 -0.030
0.317 0.021 -0.030
0.316 0.024 -0.030
0.316 0.027 -0.030
0.315 0.030 -0.029
0.315 0.033 -0.029
0.314 0.035 -0.029
0.316 0.038 -0.030
0.319 0.042 -0.030
0.319 0.045 -0.030
0.321 0.048 -0.030
0.323 0.051 -0.030
0.326 0.054 -0.031
0.325 0.057 -0.030
0.324 0.060 -0.030
0.323 0.063 -0.030
0.323 0.066 -0.030
0.322 0.069 -0.030
0.321 0.072 -0.030
0.320 0.074 -0.030
0.319 0.077 -0.030
0.319 0.080 -0.030
0.317 0.082 -0.030
0.315 0.085 -0.030
0.314 0.088 -0.030
0.327 0.094 -0.031
0.333 0.099 -0.032
0.341 0.105 -0.032
0.339 0.108 -0.032
0.331 0.108 -0.032
0.326 0.110 -0.031
0.324 0.112 -0.031
0.326 0.116 -0.031
0.334 0.122 -0.032
0.353 0.136 -0.034
0.368 0.146 -0.035
1.242 0.555 -0.121
1.248 0.570 -0.121
1.248 0.583 -0.122
1.247 0.596 -0.122
1.262 0.616 -0.123
1.242 0.619 -0.122
1.235 0.629 -0.121
1.258 0.654 -0.124
1.261 0.669 -0.124
1.271 0.744 -0.127
1.277 0.763 -0.128
1.265 0.770 -0.127
1.253 0.777 -0.126
1.256 0.793 -0.126
1.262 0.812 -0.127
1.274 0.835 -0.129
1.282 0.856 -0.130
1.290 0.876 -0.131
1.281 0.886 -0.131
1.279 0.901 -0.131
1.317 0.960 -0.136
0.376 0.336 -0.040
0.375 0.341 -0.041
0.375 0.347 -0.041
0.374 0.351 -0.041
0.377 0.360 -0.041
0.371 0.361 -0.041
0.375 0.370 -0.042
0.385 0.386 -0.043
0.386 0.394 -0.043
0.383 0.398 -0.043
0.403 0.439 -0.046
0.409 0.453 -0.047
0.414 0.466 -0.048
0.409 0.517 -0.049
0.391 0.509 -0.047
0.246 -0.339 -0.027
0.265 -0.360 -0.028
0.267 -0.359 -0.029
0.208 -0.264 -0.022
0.207 -0.259 -0.022
0.200 -0.247 -0.021
0.191 -0.233 -0.020
0.185 -0.222 -0.019
0.181 -0.213 -0.019
0.180 -0.209 -0.019
0.193 -0.221 -0.020
0.220 -0.244 -0.022
0.294 -0.308 -0.029
0.302 -0.311 -0.030
0.301 -0.306 -0.030
0.295 -0.295 -0.029
0.298 -0.293 -0.029
0.300 -0.291 -0.029
0.301 -0.288 -0.029
0.302 -0.284 -0.029
0.301 -0.279 -0.029
0.303 -0.276 -0.029
0.304 -0.273 -0.029
0.306 -0.270 -0.029
0.302 -0.262 -0.029
0.301 -0.257 -0.029
0.301 -0.253 -0.028
0.302 -0.250 -0.028
0.300 -0.245 -0.028
0.292 -0.235 -0.027
0.225 -0.175 -0.021
0.222 -0.169 -0.021
0.219 -0.165 -0.020
0.208 -0.154 -0.019
0.207 -0.151 -0.019
0.206 -0.147 -0.019
0.208 -0.146 -0.019
0.220 -0.152 -0.020
0.223 -0.152 -0.020
0.224 -0.150 -0.020
0.222 -0.146 -0.020
0.217 -0.140 -0.020
0.205 -0.130 -0.018
0.218 -0.136 -0.020
0.222 -0.135 -0.020
0.220 -0.132 -0.020
0.218 -0.129 -0.020
0.216 -0.125 -0.019
0.214 -0.121 -0.019
0.213 -0.116 -0.019
0.213 -0.114 -0.019
0.208 -0.109 -0.018
0.209 -0.108 -0.018
0.204 -0.103 -0.018
0.206 -0.102 -0.018
0.220 -0.106 -0.019
0.224 -0.106 -0.020
0.226 -0.104 -0.020
0.227 -0.103 -0.020
0.228 -0.101 -0.020
0.231 -0.100 -0.020
0.228 -0.096 -0.020
0.222 -0.091 -0.019
0.217 -0.087 -0.019
0.214 -0.084 -0.019
0.220 -0.084 -0.019
0.217 -0.081 -0.019
0.228 -0.083 -0.020
0.246 -0.087 -0.021
0.253 -0.087 -0.022
0.258 -0.086 -0.022
0.269 -0.087 -0.023
0.270 -0.085 -0.023
0.265 -0.081 -0.023
0.273 -0.081 -0.023
0.392 -0.109 -0.033
0.404 -0.109 -0.034
0.412 -0.107 -0.035
0.420 -0.105 -0.036
0.428 -0.103 -0.036
0.438 -0.101 -0.037
0.441 -0.098 -0.037
0.425 -0.090 -0.036
0.402 -0.082 -0.034
0.388 -0.076 -0.033
0.376 -0.070 -0.032
0.289 -0.051 -0.024
0.288 -0.048 -0.024
0.292 -0.046 -0.025
0.293 -0.044 -0.025
0.293 -0.041 -0.025
0.280 -0.037 -0.024
0.281 -0.034 -0.024
0.286 -0.032 -0.024
0.325 -0.034 -0.027
0.330 -0.031 -0.028
0.320 -0.027 -0.027
0.316 -0.024 -0.027
0.309 -0.021 -0.026
0.307 -0.018 -0.026
0.322 -0.016 -0.027
0.317 -0.013 -0.027
0.301 -0.010 -0.025
0.303 -0.007 -0.026
0.304 -0.004 -0.026
0.310 -0.001 -0.026
0.312 0.001 -0.026
0.314 0.004 -0.026
0.315 0.007 -0.027
0.316 0.010 -0.027
0.323 0.013 -0.027
0.317 0.016 -0.027
0.317 0.018 -0.027
0.317 0.021 -0.027
0.317 0.024 -0.027
0.317 0.027 -0.027
0.317 0.030 -0.027
0.316 0.033 -0.027
0.316 0.036 -0.027
0.316 0.038 -0.027
0.320 0.042 -0.027
0.321 0.045 -0.027
0.324 0.048 -0.027
0.325 0.051 -0.028
0.323 0.054 -0.027
0.327 0.058 -0.028
0.323 0.060 -0.027
0.323 0.063 -0.027
0.323 0.066 -0.027
0.322 0.069 -0.027
0.322 0.072 -0.027
0.320 0.074 -0.027
0.319 0.077 -0.027
0.318 0.080 -0.027
0.316 0.082 -0.027
0.315 0.085 -0.027
0.314 0.088 -0.027
0.328 0.095 -0.028
0.334 0.100 -0.029
0.345 0.106 -0.030
0.346 0.110 -0.030
0.339 0.111 -0.029
0.330 0.111 -0.028
0.326 0.113 -0.028
0.321 0.114 -0.028
0.334 0.122 -0.029
0.337 0.130 -0.029
1.205 0.501 -0.105
1.219 0.519 -0.106
1.250 0.545 -0.109
1.260 0.562 -0.110
1.257 0.574 -0.110
1.254 0.586 -0.110
1.264 0.603 -0.111
1.273 0.621 -0.112
1.262 0.629 -0.112
1.257 0.640 -0.111
1.280 0.665 -0.114
1.264 0.670 -0.112
1.246 0.674 -0.111
1.013 0.559 -0.091
0.996 0.561 -0.089
1.253 0.734 -0.113
1.249 0.746 -0.113
1.271 0.773 -0.115
1.265 0.784 -0.115
1.260 0.796 -0.115
1.273 0.819 -0.116
1.279 0.838 -0.117
1.281 0.855 -0.117
1.282 0.871 -0.118
1.277 0.883 -0.118
1.266 0.891 -0.117
1.275 0.913 -0.118
1.293 0.942 -0.120
1.276 0.946 -0.119
1.272 0.959 -0.119
1.277 0.980 -0.120
1.264 0.987 -0.119
1.262 1.002 -0.119
0.514 0.598 -0.054
0.512 0.606 -0.054
0.509 0.612 -0.054
0.501 0.612 -0.053
0.435 0.548 -0.047
0.422 0.541 -0.046
0.416 0.541 -0.045
0.259 -0.357 -0.025
0.270 -0.366 -0.026
0.231 -0.310 -0.022
0.197 -0.251 -0.019
0.189 -0.236 -0.018
0.179 -0.221 -0.017
0.179 -0.218 -0.017
0.183 -0.219 -0.017
0.183 -0.216 -0.017
0.239 -0.262 -0.022
0.287 -0.305 -0.026
0.295 -0.309 -0.026
0.299 -0.308 -0.026
0.300 -0.305 -0.026
0.298 -0.298 -0.026
0.298 -0.294 -0.026
0.302 -0.293 -0.026
0.304 -0.290 -0.026
0.303 -0.285 -0.026
0.304 -0.281 -0.026
0.302 -0.275 -0.026
0.303 -0.272 -0.026
0.302 -0.267 -0.026
0.301 -0.262 -0.026
0.301 -0.257 -0.025
0.302 -0.254 -0.025
0.308 -0.255 -0.026
0.308 -0.251 -0.026
0.205 -0.156 -0.017
0.216 -0.162 -0.018
0.215 -0.159 -0.018
0.209 -0.152 -0.017
0.203 -0.145 -0.017
0.211 -0.148 -0.017
0.213 -0.147 -0.017
0.219 -0.148 -0.018
0.223 -0.149 -0.018
0.221 -0.145 -0.018
0.216 -0.139 -0.017
0.208 -0.132 -0.017
0.209 -0.130 -0.017
0.210 -0.128 -0.017
0.218 -0.131 -0.017
0.218 -0.128 -0.017
0.219 -0.127 -0.017
0.216 -0.122 -0.017
0.210 -0.117 -0.017
0.210 -0.114 -0.017
0.212 -0.113 -0.017
0.213 -0.111 -0.017
0.216 -0.111 -0.017
0.218 -0.110 -0.017
0.222 -0.107 -0.017
0.223 -0.105 -0.017
0.225 -0.104 -0.018
0.226 -0.102 -0.018
0.230 -0.101 -0.018
0.231 -0.100 -0.018
0.228 -0.096 -0.018
0.218 -0.090 -0.017
0.216 -0.087 -0.017
0.214 -0.084 -0.016
0.204 -0.078 -0.016
0.231 -0.086 -0.018
0.244 -0.088 -0.019
0.245 -0.087 -0.019
0.251 -0.086 -0.019
0.260 -0.087 -0.020
0.259 -0.084 -0.020
0.256 -0.081 -0.020
0.266 -0.081 -0.020
0.279 -0.083 -0.021
0.393 -0.109 -0.030
0.404 -0.108 -0.031
0.412 -0.107 -0.031
0.419 -0.105 -0.032
0.429 -0.103 -0.033
0.443 -0.103 -0.034
0.448 -0.100 -0.034
0.396 -0.081 -0.030
0.393 -0.076 -0.030
0.386 -0.072 -0.029
0.286 -0.050 -0.022
0.287 -0.048 -0.022
0.289 -0.046 -0.022
0.294 -0.044 -0.022
0.291 -0.041 -0.022
0.282 -0.037 -0.021
0.280 -0.034 -0.021
0.285 -0.032 -0.022
0.298 -0.031 -0.022
0.328 -0.031 -0.025
0.324 -0.028 -0.024
0.314 -0.024 -0.024
0.307 -0.021 -0.023
0.300 -0.018 -0.023
0.323 -0.016 -0.024
0.321 -0.013 -0.024
0.301 -0.010 -0.023
0.303 -0.007 -0.023
0.305 -0.004 -0.023
0.308 -0.001 -0.023
0.312 0.001 -0.024
0.314 0.004 -0.024
0.314 0.007 -0.024
0.315 0.010 -0.024
0.316 0.013 -0.024
0.323 0.016 -0.024
0.318 0.019 -0.024
0.319 0.021 -0.024
0.318 0.024 -0.024
0.320 0.027 -0.024
0.319 0.030 -0.024
0.318 0.033 -0.024
0.318 0.036 -0.024
0.320 0.039 -0.024
0.321 0.042 -0.024
0.323 0.045 -0.024
0.325 0.048 -0.025
0.324 0.051 -0.025
0.323 0.054 -0.024
0.323 0.057 -0.025
0.323 0.060 -0.025
0.322 0.063 -0.024
0.321 0.066 -0.024
0.321 0.069 -0.024
0.321 0.071 -0.024
0.320 0.074 -0.024
0.319 0.077 -0.024
0.318 0.080 -0.024
0.316 0.082 -0.024
0.315 0.085 -0.024
0.316 0.088 -0.024
0.340 0.098 -0.026
0.324 0.097 -0.025
0.331 0.102 -0.025
0.355 0.113 -0.027
0.343 0.112 -0.026
0.330 0.111 -0.025
0.329 0.114 -0.025
0.326 0.119 -0.025
0.334 0.125 -0.026
0.332 0.128 -0.026
0.328 0.130 -0.025
1.221 0.507 -0.095
1.227 0.522 -0.096
1.232 0.537 -0.096
1.252 0.558 -0.098
1.256 0.573 -0.098
1.255 0.586 -0.099
1.258 0.600 -0.099
1.267 0.618 -0.100
1.275 0.635 -0.101
1.281 0.652 -0.101
1.279 0.664 -0.101
1.267 0.672 -0.101
1.252 0.677 -0.100
0.995 0.560 -0.080
1.287 0.768 -0.104
1.281 0.779 -0.103
1.276 0.791 -0.103
1.278 0.807 -0.104
1.284 0.826 -0.104
1.280 0.838 -0.104
1.271 0.847 -0.104
1.274 0.865 -0.104
1.272 0.879 -0.105
1.267 0.891 -0.104
1.277 0.914 -0.106
1.281 0.933 -0.106
1.270 0.942 -0.106
0.513 0.597 -0.048
0.514 0.607 -0.048
0.507 0.609 -0.048
0.498 0.608 -0.047
0.487 0.604 -0.046
0.424 0.543 -0.041
0.428 0.557 -0.041
0.295 -0.406 -0.025
0.229 -0.307 -0.019
0.186 -0.237 -0.015
0.182 -0.227 -0.015
0.177 -0.219 -0.014
0.176 -0.214 -0.014
0.180 -0.216 -0.015
0.206 -0.243 -0.017
0.238 -0.269 -0.019
0.288 -0.315 -0.023
0.294 -0.317 -0.023
0.295 -0.313 -0.023
0.299 -0.312 -0.023
0.302 -0.312 -0.023
0.300 -0.304 -0.023
0.301 -0.301 -0.023
0.301 -0.296 -0.023
0.302 -0.292 -0.023
0.305 -0.291 -0.023
0.304 -0.286 -0.023
0.301 -0.278 -0.023
0.302 -0.275 -0.023
0.302 -0.271 -0.023
0.302 -0.266 -0.023
0.298 -0.259 -0.022
0.299 -0.256 -0.022
0.303 -0.255 -0.022
0.310 -0.256 -0.023
0.306 -0.249 -0.023
0.215 -0.167 -0.016
0.206 -0.158 -0.015
0.211 -0.158 -0.015
0.219 -0.162 -0.016
0.216 -0.157 -0.016
0.206 -0.147 -0.015
0.205 -0.144 -0.015
0.210 -0.145 -0.015
0.214 -0.145 -0.015
0.218 -0.145 -0.016
0.219 -0.144 -0.016
0.219 -0.141 -0.016
0.216 -0.137 -0.015
0.210 -0.130 -0.015
0.214 -0.130 -0.015
0.213 -0.128 -0.015
0.218 -0.128 -0.015
0.221 -0.128 -0.015
0.221 -0.125 -0.015
0.204 -0.114 -0.014
0.200 -0.109 -0.014
0.212 -0.113 -0.015
0.214 -0.112 -0.015
0.201 -0.103 -0.014
0.217 -0.109 -0.015
0.206 -0.102 -0.014
0.209 -0.101 -0.014
0.224 -0.106 -0.015
0.225 -0.104 -0.015
0.225 -0.102 -0.015
0.227 -0.100 -0.016
0.228 -0.099 -0.016
0.228 -0.096 -0.016
0.211 -0.087 -0.014
0.218 -0.088 -0.015
0.215 -0.084 -0.015
0.210 -0.080 -0.014
0.207 -0.077 -0.014
0.240 -0.087 -0.016
0.250 -0.088 -0.017
0.250 -0.086 -0.017
0.253 -0.085 -0.017
0.259 -0.084 -0.017
0.258 -0.081 -0.017
0.267 -0.082 -0.018
0.285 -0.084 -0.019
0.386 -0.107 -0.026
0.400 -0.107 -0.027
0.410 -0.106 -0.027
0.420 -0.105 -0.028
0.434 -0.104 -0.029
0.443 -0.103 -0.030
0.448 -0.100 -0.030
0.411 -0.087 -0.027
0.402 -0.082 -0.027
0.401 -0.078 -0.027
0.401 -0.074 -0.027
0.288 -0.051 -0.019
0.287 -0.048 -0.019
0.288 -0.046 -0.019
0.292 -0.044 -0.019
0.298 -0.042 -0.020
0.285 -0.037 -0.019
0.278 -0.034 -0.018
0.289 -0.033 -0.019
0.294 -0.031 -0.020
0.311 -0.029 -0.021
0.320 -0.027 -0.021
0.310 -0.024 -0.021
0.288 -0.019 -0.019
0.293 -0.017 -0.019
0.315 -0.016 -0.021
0.328 -0.013 -0.022
0.304 -0.010 -0.020
0.302 -0.007 -0.020
0.305 -0.004 -0.020
0.306 -0.001 -0.020
0.308 0.001 -0.020
0.310 0.004 -0.021
0.314 0.007 -0.021
0.315 0.010 -0.021
0.317 0.013 -0.021
0.320 0.016 -0.021
0.321 0.019 -0.021
0.318 0.021 -0.021
0.319 0.024 -0.021
0.317 0.027 -0.021
0.320 0.030 -0.021
0.320 0.033 -0.021
0.320 0.036 -0.021
0.321 0.039 -0.021
0.322 0.042 -0.021
0.324 0.045 -0.022
0.324 0.048 -0.022
0.324 0.051 -0.022
0.326 0.054 -0.022
0.323 0.057 -0.022
0.323 0.060 -0.022
0.322 0.063 -0.021
0.321 0.065 -0.021
0.321 0.068 -0.021
0.320 0.071 -0.021
0.319 0.074 -0.021
0.318 0.077 -0.021
0.318 0.080 -0.021
0.316 0.082 -0.021
0.315 0.085 -0.021
0.326 0.091 -0.022
0.339 0.098 -0.023
0.335 0.100 -0.023
0.328 0.101 -0.022
0.348 0.110 -0.024
0.343 0.112 -0.023
0.325 0.109 -0.022
0.325 0.113 -0.022
0.329 0.127 -0.022
0.319 0.126 -0.022
1.253 0.533 -0.086
1.248 0.544 -0.086
1.247 0.556 -0.086
1.253 0.571 -0.086
1.253 0.585 -0.087
1.262 0.602 -0.087
1.262 0.615 -0.088
1.260 0.628 -0.088
1.270 0.646 -0.088
1.272 0.661 -0.089
1.265 0.671 -0.088
0.994 0.549 -0.070
1.304 0.778 -0.092
1.282 0.780 -0.091
1.285 0.796 -0.091
1.286 0.812 -0.092
1.284 0.826 -0.092
1.274 0.834 -0.091
1.270 0.847 -0.091
1.268 0.861 -0.091
0.511 0.594 -0.042
0.514 0.607 -0.042
0.505 0.607 -0.042
0.497 0.606 -0.041
0.399 0.519 -0.034
0.231 -0.318 -0.017
0.210 -0.285 -0.015
0.192 -0.253 -0.014
0.182 -0.234 -0.013
0.178 -0.226 -0.013
0.179 -0.223 -0.013
0.180 -0.222 -0.013
0.183 -0.222 -0.013
0.217 -0.256 -0.015
0.227 -0.264 -0.016
0.239 -0.274 -0.016
0.247 -0.279 -0.017
0.282 -0.314 -0.019
0.288 -0.315 -0.020
0.292 -0.315 -0.020
0.294 -0.312 -0.020
0.297 -0.311 -0.020
0.300 -0.309 -0.020
0.299 -0.304 -0.020
0.299 -0.299 -0.020
0.299 -0.294 -0.020
0.300 -0.290 -0.020
0.301 -0.287 -0.020
0.298 -0.280 -0.019
0.299 -0.277 -0.019
0.302 -0.275 -0.020
0.306 -0.274 -0.020
0.304 -0.268 -0.020
0.297 -0.258 -0.019
0.296 -0.253 -0.019
0.296 -0.249 -0.019
0.300 -0.248 -0.019
0.305 -0.249 -0.019
0.216 -0.167 -0.014
0.209 -0.160 -0.013
0.204 -0.153 -0.013
0.215 -0.159 -0.013
0.214 -0.155 -0.013
0.210 -0.150 -0.013
0.203 -0.143 -0.013
0.207 -0.143 -0.013
0.211 -0.143 -0.013
0.216 -0.144 -0.013
0.218 -0.143 -0.013
0.221 -0.142 -0.013
0.218 -0.138 -0.013
0.215 -0.133 -0.013
0.227 -0.138 -0.014
0.224 -0.134 -0.014
0.230 -0.135 -0.014
0.223 -0.129 -0.013
0.221 -0.125 -0.013
0.217 -0.121 -0.013
0.212 -0.116 -0.013
0.212 -0.113 -0.013
0.213 -0.112 -0.013
0.220 -0.113 -0.013
0.204 -0.103 -0.012
0.207 -0.102 -0.012
0.208 -0.100 -0.012
0.219 -0.104 -0.013
0.227 -0.105 -0.013
0.223 -0.101 -0.013
0.222 -0.098 -0.013
0.227 -0.098 -0.013
0.228 -0.096 -0.013
0.230 -0.095 -0.014
0.216 -0.087 -0.013
0.215 -0.084 -0.013
0.216 -0.083 -0.013
0.216 -0.080 -0.013
0.237 -0.086 -0.014
0.249 -0.088 -0.015
0.250 -0.086 -0.015
0.257 -0.086 -0.015
0.259 -0.084 -0.015
0.267 -0.084 -0.016
0.272 -0.083 -0.016
0.278 -0.082 -0.016
0.282 -0.081 -0.016
0.387 -0.107 -0.022
0.401 -0.108 -0.023
0.408 -0.106 -0.024
0.421 -0.105 -0.024
0.433 -0.104 -0.025
0.441 -0.102 -0.025
0.438 -0.097 -0.025
0.424 -0.090 -0.024
0.408 -0.083 -0.024
0.405 -0.079 -0.023
0.398 -0.074 -0.023
0.292 -0.051 -0.017
0.290 -0.048 -0.017
0.288 -0.046 -0.017
0.292 -0.043 -0.017
0.296 -0.041 -0.017
0.290 -0.038 -0.017
0.277 -0.034 -0.016
0.291 -0.033 -0.017
0.294 -0.030 -0.017
0.307 -0.029 -0.018
0.312 -0.027 -0.018
0.299 -0.020 -0.017
0.298 -0.017 -0.017
0.303 -0.015 -0.017
0.326 -0.013 -0.019
0.320 -0.010 -0.018
0.302 -0.007 -0.017
0.303 -0.004 -0.017
0.305 -0.001 -0.017
0.307 0.001 -0.018
0.309 0.004 -0.018
0.313 0.007 -0.018
0.315 0.010 -0.018
0.316 0.013 -0.018
0.318 0.016 -0.018
0.319 0.019 -0.018
0.322 0.022 -0.018
0.317 0.024 -0.018
0.318 0.027 -0.018
0.321 0.030 -0.018
0.321 0.033 -0.018
0.321 0.036 -0.018
0.321 0.039 -0.018
0.321 0.042 -0.018
0.322 0.045 -0.019
0.324 0.048 -0.019
0.330 0.052 -0.019
0.320 0.053 -0.018
0.322 0.057 -0.019
0.322 0.060 -0.019
0.322 0.063 -0.019
0.321 0.065 -0.019
0.320 0.068 -0.019
0.319 0.071 -0.018
0.318 0.074 -0.018
0.317 0.076 -0.018
0.316 0.079 -0.018
0.315 0.082 -0.018
0.314 0.085 -0.018
0.329 0.092 -0.019
0.335 0.097 -0.020
0.331 0.099 -0.019
0.329 0.101 -0.019
0.342 0.108 -0.020
0.349 0.114 -0.020
0.320 0.108 -0.019
0.321 0.111 -0.019
0.338 0.127 -0.020
0.334 0.129 -0.020
1.251 0.558 -0.074
1.255 0.586 -0.075
1.264 0.670 -0.076
0.502 0.574 -0.035
0.505 0.587 -0.035
0.512 0.605 -0.036
0.506 0.608 -0.036
0.496 0.605 -0.035
0.394 0.513 -0.029
0.201 -0.276 -0.012
0.201 -0.273 -0.012
0.187 -0.251 -0.011
0.188 -0.249 -0.011
0.176 -0.230 -0.010
0.174 -0.223 -0.010
0.175 -0.222 -0.010
0.178 -0.222 -0.010
0.183 -0.226 -0.011
0.216 -0.258 -0.013
0.217 -0.256 -0.013
0.224 -0.260 -0.013
0.235 -0.270 -0.014
0.283 -0.315 -0.016
0.288 -0.315 -0.016
0.281 -0.303 -0.016
0.283 -0.301 -0.016
0.294 -0.308 -0.017
0.296 -0.305 -0.017
0.288 -0.287 -0.016
0.295 -0.290 -0.016
0.296 -0.286 -0.016
0.291 -0.277 -0.016
0.287 -0.269 -0.016
0.289 -0.267 -0.016
0.302 -0.275 -0.016
0.299 -0.267 -0.016
0.298 -0.263 -0.016
0.298 -0.258 -0.016
0.284 -0.239 -0.015
0.287 -0.238 -0.015
0.277 -0.222 -0.015
0.208 -0.158 -0.011
0.208 -0.156 -0.011
0.207 -0.153 -0.011
0.214 -0.155 -0.011
0.210 -0.150 -0.011
0.209 -0.147 -0.011
0.203 -0.140 -0.011
0.206 -0.140 -0.011
0.218 -0.146 -0.011
0.222 -0.146 -0.011
0.216 -0.139 -0.011
0.218 -0.138 -0.011
0.222 -0.138 -0.011
0.223 -0.136 -0.011
0.231 -0.139 -0.012
0.224 -0.132 -0.011
0.221 -0.127 -0.011
0.219 -0.124 -0.011
0.218 -0.121 -0.011
0.214 -0.117 -0.011
0.208 -0.111 -0.011
0.213 -0.111 -0.011
0.219 -0.113 -0.011
0.219 -0.110 -0.011
0.214 -0.105 -0.011
0.216 -0.104 -0.011
0.221 -0.104 -0.011
0.223 -0.103 -0.011
0.226 -0.102 -0.011
0.224 -0.099 -0.011
0.224 -0.097 -0.011
0.225 -0.095 -0.011
0.223 -0.092 -0.011
0.221 -0.089 -0.011
0.218 -0.086 -0.011
0.209 -0.080 -0.010
0.213 -0.080 -0.011
0.236 -0.086 -0.012
0.247 -0.087 -0.012
0.254 -0.088 -0.013
0.254 -0.085 -0.012
0.261 -0.085 -0.013
0.267 -0.084 -0.013
0.270 -0.083 -0.013
0.272 -0.081 -0.013
0.278 -0.080 -0.014
0.386 -0.107 -0.019
0.401 -0.108 -0.020
0.409 -0.106 -0.020
0.417 -0.104 -0.020
0.432 -0.104 -0.021
0.436 -0.101 -0.021
0.436 -0.097 -0.021
0.426 -0.091 -0.021
0.412 -0.084 -0.020
0.294 -0.052 -0.014
0.291 -0.049 -0.014
0.289 -0.046 -0.014
0.292 -0.043 -0.014
0.296 -0.041 -0.014
0.294 -0.038 -0.014
0.281 -0.034 -0.014
0.282 -0.032 -0.014
0.290 -0.030 -0.014
0.324 -0.031 -0.016
0.311 -0.027 -0.015
0.321 -0.025 -0.016
0.319 -0.022 -0.015
0.306 -0.018 -0.015
0.305 -0.015 -0.015
0.318 -0.013 -0.015
0.321 -0.010 -0.016
0.301 -0.007 -0.015
0.302 -0.004 -0.015
0.304 -0.001 -0.015
0.306 0.001 -0.015
0.309 0.004 -0.015
0.311 0.007 -0.015
0.314 0.010 -0.015
0.315 0.013 -0.015
0.316 0.016 -0.015
0.317 0.018 -0.015
0.320 0.021 -0.015
0.324 0.025 -0.016
0.324 0.028 -0.016
0.320 0.030 -0.016
0.321 0.033 -0.016
0.322 0.036 -0.016
0.321 0.039 -0.016
0.322 0.042 -0.016
0.325 0.045 -0.016
0.324 0.048 -0.016
0.321 0.051 -0.016
0.321 0.054 -0.016
0.321 0.057 -0.016
0.321 0.060 -0.016
0.321 0.062 -0.016
0.320 0.065 -0.016
0.319 0.068 -0.016
0.318 0.071 -0.016
0.317 0.073 -0.015
0.316 0.076 -0.015
0.315 0.079 -0.015
0.314 0.082 -0.015
0.314 0.085 -0.015
0.328 0.092 -0.016
0.332 0.096 -0.016
0.331 0.098 -0.016
0.335 0.103 -0.016
0.339 0.107 -0.017
0.338 0.110 -0.017
0.324 0.109 -0.016
0.323 0.112 -0.016
0.326 0.116 -0.016
0.341 0.128 -0.017
0.335 0.207 -0.017
0.482 0.524 -0.028
0.502 0.574 -0.029
0.509 0.591 -0.030
0.511 0.603 -0.030
0.505 0.606 -0.030
0.493 0.602 -0.029
0.437 0.551 -0.026
0.424 0.542 -0.026
0.454 0.591 -0.028
0.189 -0.261 -0.009
0.179 -0.243 -0.009
0.178 -0.239 -0.009
0.181 -0.239 -0.009
0.178 -0.233 -0.008
0.173 -0.223 -0.008
0.175 -0.222 -0.008
0.182 -0.227 -0.009
0.190 -0.234 -0.009
0.204 -0.247 -0.010
0.210 -0.251 -0.010
0.209 -0.247 -0.010
0.261 -0.209 -0.011
0.249 -0.196 -0.011
0.218 -0.169 -0.009
0.209 -0.159 -0.009
0.209 -0.157 -0.009
0.210 -0.155 -0.009
0.209 -0.152 -0.009
0.212 -0.151 -0.009
0.210 -0.147 -0.009
0.208 -0.143 -0.009
0.208 -0.141 -0.009
0.218 -0.146 -0.009
0.223 -0.146 -0.009
0.221 -0.142 -0.009
0.219 -0.138 -0.009
0.222 -0.138 -0.009
0.226 -0.138 -0.009
0.224 -0.134 -0.009
0.218 -0.129 -0.009
0.221 -0.127 -0.009
0.223 -0.126 -0.009
0.217 -0.121 -0.009
0.203 -0.111 -0.008
0.201 -0.107 -0.008
0.205 -0.107 -0.008
0.208 -0.107 -0.008
0.208 -0.104 -0.008
0.205 -0.101 -0.008
0.207 -0.100 -0.008
0.212 -0.100 -0.009
0.223 -0.103 -0.009
0.224 -0.101 -0.009
0.226 -0.100 -0.009
0.225 -0.097 -0.009
0.226 -0.095 -0.009
0.223 -0.092 -0.009
0.222 -0.089 -0.009
0.216 -0.085 -0.009
0.211 -0.081 -0.008
0.208 -0.078 -0.008
