VERSION .7
FIELDS x y z
SIZE 4 4 4
TYPE F F F
COUNT 1 1 1
WIDTH     2434
HEIGHT 1
VIEWPOINT 0 0 0 1 0 0 0
POINTS     2434
DATA ascii
0.302 -0.249 -0.069
0.299 -0.242 -0.068
0.300 -0.239 -0.068
0.297 -0.233 -0.067
0.290 -0.224 -0.065
0.241 -0.180 -0.054
0.231 -0.169 -0.051
0.227 -0.164 -0.050
0.227 -0.161 -0.050
0.237 -0.165 -0.052
0.241 -0.165 -0.053
0.242 -0.163 -0.053
0.240 -0.159 -0.053
0.228 -0.148 -0.050
0.223 -0.143 -0.049
0.224 -0.141 -0.049
0.207 -0.127 -0.045
0.206 -0.125 -0.045
0.202 -0.120 -0.043
0.213 -0.124 -0.046
0.218 -0.124 -0.047
0.209 -0.117 -0.045
0.207 -0.114 -0.044
0.207 -0.112 -0.044
0.207 -0.110 -0.044
0.242 -0.123 -0.051
0.245 -0.122 -0.052
0.242 -0.117 -0.051
0.242 -0.115 -0.051
0.250 -0.116 -0.053
0.313 -0.142 -0.066
0.314 -0.140 -0.066
0.314 -0.137 -0.066
0.297 -0.126 -0.062
0.284 -0.118 -0.059
0.271 -0.110 -0.056
0.268 -0.106 -0.056
0.270 -0.104 -0.056
0.271 -0.102 -0.056
0.351 -0.122 -0.073
0.357 -0.120 -0.074
0.363 -0.119 -0.075
0.369 -0.117 -0.076
0.375 -0.115 -0.077
0.380 -0.113 -0.078
0.387 -0.112 -0.079
0.398 -0.111 -0.082
0.404 -0.109 -0.083
0.419 -0.109 -0.086
0.426 -0.107 -0.087
0.434 -0.105 -0.089
0.437 -0.102 -0.089
0.412 -0.092 -0.084
0.407 -0.087 -0.083
0.395 -0.081 -0.081
0.386 -0.076 -0.079
0.288 -0.051 -0.059
0.290 -0.049 -0.059
0.288 -0.046 -0.058
0.289 -0.043 -0.059
0.289 -0.041 -0.059
0.285 -0.037 -0.058
0.285 -0.035 -0.058
0.298 -0.034 -0.060
0.302 -0.031 -0.061
0.284 -0.027 -0.058
0.291 -0.025 -0.059
0.299 -0.023 -0.061
0.299 -0.020 -0.060
0.297 -0.018 -0.060
0.306 -0.015 -0.062
0.311 -0.013 -0.063
0.308 -0.010 -0.062
0.301 -0.007 -0.061
0.302 -0.004 -0.061
0.305 -0.001 -0.062
0.306 0.001 -0.062
0.307 0.004 -0.062
0.311 0.007 -0.063
0.314 0.010 -0.063
0.315 0.013 -0.064
0.315 0.016 -0.064
0.315 0.019 -0.064
0.317 0.021 -0.064
0.318 0.024 -0.064
0.319 0.027 -0.065
0.319 0.030 -0.065
0.321 0.033 -0.065
0.322 0.036 -0.065
0.320 0.039 -0.065
0.320 0.042 -0.065
0.321 0.045 -0.065
0.321 0.048 -0.065
0.321 0.051 -0.065
0.321 0.054 -0.065
0.321 0.057 -0.065
0.320 0.060 -0.065
0.320 0.063 -0.065
0.318 0.065 -0.065
0.317 0.068 -0.065
0.315 0.071 -0.065
0.315 0.074 -0.065
0.315 0.076 -0.065
0.314 0.079 -0.064
0.313 0.082 -0.064
0.316 0.086 -0.065
0.316 0.089 -0.065
0.317 0.092 -0.065
0.319 0.096 -0.066
0.318 0.099 -0.066
0.319 0.102 -0.066
0.303 0.100 -0.063
0.310 0.105 -0.064
0.317 0.111 -0.066
0.300 0.114 -0.063
0.295 0.115 -0.062
0.311 0.153 -0.066
0.330 0.173 -0.071
0.341 0.182 -0.073
0.346 0.189 -0.074
0.353 0.197 -0.076
0.353 0.200 -0.076
0.362 0.210 -0.078
0.368 0.218 -0.080
0.369 0.222 -0.080
0.369 0.227 -0.081
0.367 0.229 -0.080
0.361 0.230 -0.079
0.343 0.223 -0.076
0.336 0.222 -0.074
0.357 0.267 -0.081
0.247 -0.342 -0.062
0.298 -0.391 -0.074
0.300 -0.389 -0.074
0.297 -0.380 -0.073
0.300 -0.378 -0.074
0.302 -0.376 -0.074
0.305 -0.374 -0.074
0.305 -0.368 -0.074
0.302 -0.359 -0.073
0.304 -0.357 -0.073
0.303 -0.350 -0.072
0.303 -0.345 -0.072
0.305 -0.342 -0.072
0.306 -0.338 -0.072
0.305 -0.332 -0.072
0.305 -0.327 -0.071
0.304 -0.321 -0.071
0.301 -0.313 -0.070
0.299 -0.306 -0.069
0.301 -0.304 -0.069
0.303 -0.300 -0.069
0.302 -0.296 -0.069
0.302 -0.291 -0.068
0.302 -0.286 -0.068
0.303 -0.283 -0.068
0.304 -0.279 -0.068
0.303 -0.274 -0.067
0.302 -0.269 -0.067
0.302 -0.265 -0.067
0.304 -0.262 -0.067
0.306 -0.260 -0.067
0.306 -0.255 -0.067
0.307 -0.252 -0.067
0.307 -0.248 -0.066
0.304 -0.242 -0.066
0.300 -0.235 -0.065
0.291 -0.224 -0.062
0.286 -0.217 -0.061
0.251 -0.187 -0.053
0.239 -0.175 -0.051
0.227 -0.163 -0.048
0.224 -0.159 -0.047
0.227 -0.158 -0.048
0.240 -0.164 -0.050
0.243 -0.163 -0.051
0.241 -0.159 -0.050
0.230 -0.149 -0.048
0.227 -0.145 -0.047
0.222 -0.139 -0.046
0.207 -0.128 -0.043
0.205 -0.124 -0.042
0.206 -0.122 -0.042
0.206 -0.120 -0.042
0.213 -0.122 -0.044
0.213 -0.119 -0.043
0.206 -0.113 -0.042
0.207 -0.111 -0.042
0.208 -0.110 -0.042
0.220 -0.114 -0.045
0.242 -0.123 -0.049
0.245 -0.121 -0.049
0.244 -0.118 -0.049
0.241 -0.115 -0.049
0.246 -0.114 -0.049
0.310 -0.141 -0.062
0.312 -0.139 -0.062
0.310 -0.135 -0.062
0.275 -0.114 -0.055
0.265 -0.107 -0.053
0.265 -0.105 -0.053
0.265 -0.102 -0.053
0.263 -0.099 -0.052
0.354 -0.122 -0.070
0.357 -0.120 -0.070
0.364 -0.119 -0.072
0.369 -0.117 -0.073
0.373 -0.115 -0.073
0.378 -0.113 -0.074
0.386 -0.111 -0.076
0.397 -0.111 -0.078
0.404 -0.109 -0.079
0.413 -0.108 -0.081
0.425 -0.107 -0.083
0.430 -0.104 -0.084
0.430 -0.100 -0.084
0.420 -0.094 -0.082
0.406 -0.087 -0.079
0.394 -0.081 -0.077
0.385 -0.075 -0.075
0.378 -0.070 -0.073
0.283 -0.050 -0.055
0.285 -0.048 -0.055
0.291 -0.046 -0.056
0.286 -0.043 -0.055
0.286 -0.040 -0.055
0.286 -0.038 -0.055
0.288 -0.035 -0.056
0.301 -0.034 -0.058
0.305 -0.032 -0.059
0.299 -0.028 -0.058
0.308 -0.024 -0.060
0.302 -0.021 -0.058
0.295 -0.017 -0.057
0.308 -0.015 -0.060
0.313 -0.013 -0.060
0.296 -0.009 -0.057
0.301 -0.007 -0.058
0.303 -0.004 -0.058
0.305 -0.001 -0.059
0.307 0.001 -0.059
0.309 0.004 -0.060
0.311 0.007 -0.060
0.314 0.010 -0.061
0.315 0.013 -0.061
0.316 0.016 -0.061
0.316 0.019 -0.061
0.317 0.021 -0.061
0.324 0.025 -0.063
0.322 0.028 -0.062
0.321 0.030 -0.062
0.321 0.033 -0.062
0.322 0.036 -0.062
0.322 0.039 -0.063
0.322 0.045 -0.062
0.322 0.048 -0.062
0.321 0.051 -0.062
0.321 0.054 -0.062
0.321 0.057 -0.062
0.321 0.060 -0.062
0.321 0.063 -0.062
0.321 0.066 -0.063
0.320 0.069 -0.062
0.317 0.071 -0.062
0.317 0.074 -0.062
0.316 0.077 -0.062
0.315 0.079 -0.062
0.313 0.082 -0.061
0.319 0.086 -0.063
0.320 0.090 -0.063
0.320 0.093 -0.063
0.321 0.096 -0.063
0.329 0.102 -0.065
0.324 0.104 -0.064
0.304 0.100 -0.060
0.311 0.105 -0.062
0.324 0.113 -0.064
0.329 0.118 -0.065
0.301 0.114 -0.060
0.290 0.112 -0.058
0.358 0.169 -0.073
0.346 0.166 -0.070
0.314 0.154 -0.064
0.336 0.176 -0.069
0.330 0.176 -0.068
0.337 0.184 -0.069
0.349 0.194 -0.072
0.367 0.216 -0.076
0.373 0.224 -0.077
0.358 0.220 -0.075
0.342 0.214 -0.071
0.350 0.231 -0.074
0.345 0.240 -0.073
0.371 0.268 -0.079
0.338 0.299 -0.076
0.362 0.332 -0.082
0.255 -0.353 -0.061
0.253 -0.346 -0.061
0.253 -0.342 -0.061
0.262 -0.344 -0.062
0.268 -0.347 -0.063
0.300 -0.357 -0.069
0.302 -0.354 -0.069
0.304 -0.351 -0.069
0.302 -0.344 -0.068
0.300 -0.336 -0.068
0.303 -0.334 -0.068
0.304 -0.331 -0.068
0.305 -0.326 -0.068
0.303 -0.319 -0.067
0.302 -0.314 -0.066
0.304 -0.311 -0.067
0.304 -0.307 -0.066
0.305 -0.303 -0.066
0.305 -0.298 -0.066
0.305 -0.293 -0.066
0.306 -0.290 -0.066
0.307 -0.286 -0.066
0.307 -0.282 -0.065
0.306 -0.277 -0.065
0.306 -0.272 -0.065
0.306 -0.267 -0.064
0.310 -0.267 -0.065
0.309 -0.262 -0.064
0.309 -0.258 -0.064
0.311 -0.256 -0.064
0.311 -0.252 -0.064
0.308 -0.245 -0.063
0.306 -0.239 -0.063
0.296 -0.228 -0.060
0.297 -0.224 -0.060
0.289 -0.215 -0.059
0.224 -0.161 -0.045
0.219 -0.155 -0.044
0.216 -0.150 -0.043
0.235 -0.161 -0.047
0.240 -0.161 -0.048
0.229 -0.151 -0.046
0.224 -0.145 -0.044
0.220 -0.140 -0.043
0.213 -0.133 -0.042
0.203 -0.125 -0.040
0.204 -0.123 -0.040
0.205 -0.122 -0.040
0.206 -0.120 -0.040
0.212 -0.121 -0.041
0.214 -0.120 -0.042
0.205 -0.113 -0.040
0.206 -0.111 -0.040
0.208 -0.110 -0.040
0.216 -0.112 -0.042
0.240 -0.122 -0.046
0.241 -0.120 -0.046
0.245 -0.119 -0.047
0.241 -0.114 -0.046
0.242 -0.113 -0.046
0.298 -0.136 -0.057
0.309 -0.138 -0.059
0.306 -0.133 -0.058
0.262 -0.098 -0.049
0.247 -0.090 -0.046
0.354 -0.123 -0.067
0.360 -0.121 -0.067
0.367 -0.120 -0.069
0.370 -0.117 -0.069
0.373 -0.115 -0.070
0.378 -0.113 -0.071
0.388 -0.112 -0.072
0.396 -0.111 -0.074
0.404 -0.109 -0.075
0.412 -0.107 -0.077
0.420 -0.105 -0.078
0.424 -0.103 -0.079
0.423 -0.098 -0.079
0.417 -0.093 -0.077
0.408 -0.087 -0.076
0.395 -0.081 -0.073
0.381 -0.075 -0.071
0.370 -0.069 -0.068
0.282 -0.050 -0.052
0.283 -0.048 -0.052
0.286 -0.045 -0.053
0.291 -0.044 -0.054
0.290 -0.041 -0.054
0.294 -0.039 -0.054
0.295 -0.036 -0.054
0.299 -0.034 -0.055
0.312 -0.033 -0.058
0.309 -0.027 -0.057
0.317 -0.024 -0.058
0.300 -0.020 -0.055
0.297 -0.017 -0.055
0.308 -0.015 -0.057
0.313 -0.013 -0.058
0.296 -0.009 -0.055
0.302 -0.007 -0.056
0.304 -0.004 -0.056
0.306 -0.001 -0.056
0.309 0.001 -0.057
0.310 0.004 -0.057
0.312 0.007 -0.057
0.315 0.010 -0.058
0.316 0.013 -0.058
0.317 0.016 -0.058
0.320 0.019 -0.059
0.322 0.022 -0.059
0.317 0.024 -0.058
0.318 0.027 -0.059
0.319 0.030 -0.059
0.321 0.033 -0.059
0.321 0.036 -0.059
0.320 0.039 -0.059
0.321 0.042 -0.059
0.322 0.045 -0.060
0.329 0.049 -0.061
0.321 0.051 -0.059
0.321 0.054 -0.060
0.321 0.057 -0.060
0.322 0.060 -0.060
0.321 0.063 -0.060
0.321 0.066 -0.060
0.319 0.068 -0.059
0.318 0.071 -0.059
0.318 0.074 -0.059
0.318 0.077 -0.059
0.315 0.079 -0.059
0.314 0.082 -0.059
0.314 0.085 -0.059
0.322 0.090 -0.060
0.319 0.092 -0.060
0.320 0.096 -0.060
0.326 0.101 -0.061
0.326 0.104 -0.061
0.308 0.101 -0.058
0.305 0.103 -0.058
0.324 0.113 -0.061
0.338 0.121 -0.064
0.327 0.120 -0.062
0.313 0.118 -0.059
0.335 0.154 -0.064
0.346 0.162 -0.067
0.338 0.177 -0.066
0.327 0.175 -0.064
0.335 0.182 -0.065
0.350 0.194 -0.069
0.349 0.198 -0.069
0.354 0.205 -0.070
0.363 0.214 -0.072
0.348 0.213 -0.069
0.338 0.211 -0.067
0.344 0.235 -0.070
0.372 0.268 -0.076
0.330 0.260 -0.069
0.351 0.295 -0.074
0.263 -0.364 -0.060
0.251 -0.342 -0.057
0.251 -0.338 -0.057
0.250 -0.332 -0.056
0.265 -0.348 -0.060
0.261 -0.338 -0.059
0.259 -0.331 -0.058
0.261 -0.329 -0.058
0.269 -0.334 -0.060
0.275 -0.336 -0.061
0.281 -0.338 -0.062
0.280 -0.333 -0.061
0.297 -0.343 -0.064
0.292 -0.327 -0.062
0.292 -0.322 -0.062
0.302 -0.329 -0.064
0.304 -0.325 -0.064
0.300 -0.316 -0.063
0.304 -0.315 -0.064
0.306 -0.313 -0.064
0.308 -0.310 -0.064
0.307 -0.305 -0.063
0.307 -0.299 -0.063
0.307 -0.295 -0.063
0.309 -0.292 -0.063
0.311 -0.289 -0.063
0.310 -0.284 -0.063
0.310 -0.280 -0.062
0.309 -0.275 -0.062
0.311 -0.272 -0.062
0.312 -0.269 -0.062
0.311 -0.264 -0.062
0.312 -0.260 -0.062
0.314 -0.257 -0.062
0.313 -0.253 -0.061
0.311 -0.247 -0.061
0.309 -0.242 -0.060
0.306 -0.235 -0.059
0.306 -0.231 -0.059
0.225 -0.162 -0.043
0.213 -0.151 -0.041
0.209 -0.145 -0.040
0.220 -0.150 -0.042
0.224 -0.150 -0.042
0.207 -0.137 -0.039
0.199 -0.129 -0.038
0.201 -0.128 -0.038
0.203 -0.127 -0.038
0.204 -0.125 -0.038
0.204 -0.123 -0.038
0.204 -0.121 -0.038
0.202 -0.117 -0.037
0.205 -0.117 -0.038
0.218 -0.122 -0.040
0.205 -0.112 -0.038
0.204 -0.110 -0.038
0.206 -0.108 -0.038
0.208 -0.108 -0.038
0.238 -0.120 -0.043
0.239 -0.119 -0.044
0.240 -0.117 -0.044
0.241 -0.115 -0.044
0.241 -0.112 -0.044
0.208 -0.088 -0.038
0.213 -0.088 -0.038
0.225 -0.091 -0.041
0.214 -0.084 -0.038
0.209 -0.080 -0.037
0.271 -0.099 -0.049
0.273 -0.097 -0.049
0.351 -0.121 -0.063
0.354 -0.119 -0.063
0.362 -0.118 -0.065
0.371 -0.118 -0.066
0.376 -0.116 -0.067
0.379 -0.113 -0.067
0.386 -0.111 -0.068
0.395 -0.110 -0.070
0.403 -0.109 -0.071
0.411 -0.107 -0.073
0.417 -0.105 -0.074
0.420 -0.102 -0.074
0.420 -0.098 -0.074
0.415 -0.093 -0.073
0.407 -0.087 -0.072
0.394 -0.081 -0.069
0.379 -0.074 -0.067
0.285 -0.050 -0.050
0.283 -0.047 -0.050
0.284 -0.045 -0.050
0.288 -0.043 -0.051
0.292 -0.041 -0.051
0.291 -0.038 -0.051
0.295 -0.036 -0.052
0.302 -0.034 -0.053
0.310 -0.032 -0.054
0.312 -0.030 -0.055
0.314 -0.027 -0.055
0.311 -0.024 -0.054
0.314 -0.021 -0.055
0.302 -0.018 -0.053
0.305 -0.015 -0.053
0.304 -0.012 -0.053
0.302 -0.010 -0.053
0.304 -0.007 -0.053
0.306 -0.004 -0.053
0.308 -0.001 -0.054
0.310 0.001 -0.054
0.311 0.004 -0.054
0.315 0.007 -0.055
0.316 0.010 -0.055
0.315 0.013 -0.055
0.319 0.016 -0.056
0.318 0.019 -0.056
0.317 0.021 -0.055
0.318 0.024 -0.056
0.318 0.027 -0.056
0.319 0.030 -0.056
0.319 0.033 -0.056
0.320 0.036 -0.056
0.320 0.039 -0.056
0.321 0.042 -0.056
0.322 0.045 -0.057
0.321 0.048 -0.056
0.331 0.053 -0.058
0.321 0.054 -0.057
0.323 0.057 -0.057
0.322 0.060 -0.057
0.322 0.063 -0.057
0.320 0.066 -0.057
0.320 0.069 -0.056
0.319 0.071 -0.056
0.318 0.074 -0.056
0.316 0.077 -0.056
0.317 0.080 -0.056
0.314 0.082 -0.056
0.314 0.085 -0.056
0.323 0.090 -0.057
0.319 0.092 -0.057
0.318 0.095 -0.057
0.325 0.101 -0.058
0.328 0.104 -0.059
0.324 0.106 -0.058
0.307 0.104 -0.055
0.312 0.109 -0.056
0.332 0.119 -0.060
0.325 0.149 -0.059
0.332 0.156 -0.061
0.353 0.188 -0.065
0.355 0.193 -0.066
0.347 0.193 -0.065
0.358 0.207 -0.067
0.359 0.212 -0.067
0.349 0.210 -0.066
0.332 0.203 -0.063
0.345 0.215 -0.065
0.365 0.232 -0.069
0.363 0.235 -0.069
0.349 0.243 -0.067
0.377 0.267 -0.073
0.367 0.265 -0.071
0.332 0.248 -0.065
0.350 0.299 -0.070
0.241 -0.334 -0.052
0.250 -0.341 -0.054
0.253 -0.341 -0.054
0.259 -0.344 -0.055
0.258 -0.339 -0.055
0.259 -0.336 -0.055
0.258 -0.329 -0.055
0.258 -0.324 -0.054
0.261 -0.324 -0.055
0.274 -0.335 -0.057
0.273 -0.328 -0.057
0.271 -0.322 -0.056
0.270 -0.316 -0.056
0.271 -0.312 -0.055
0.291 -0.307 -0.058
0.299 -0.310 -0.059
0.305 -0.312 -0.060
0.301 -0.303 -0.059
0.305 -0.302 -0.060
0.306 -0.298 -0.059
0.308 -0.296 -0.060
0.310 -0.293 -0.060
0.311 -0.290 -0.060
0.312 -0.286 -0.060
0.311 -0.280 -0.059
0.312 -0.277 -0.059
0.312 -0.273 -0.059
0.313 -0.269 -0.059
0.313 -0.265 -0.059
0.313 -0.261 -0.059
0.314 -0.258 -0.059
0.311 -0.250 -0.058
0.307 -0.244 -0.057
0.308 -0.241 -0.057
0.303 -0.233 -0.056
0.318 -0.240 -0.058
0.211 -0.149 -0.038
0.208 -0.145 -0.038
0.207 -0.141 -0.037
0.216 -0.145 -0.039
0.217 -0.143 -0.039
0.204 -0.132 -0.036
0.202 -0.128 -0.036
0.204 -0.128 -0.036
0.204 -0.125 -0.036
0.213 -0.128 -0.038
0.217 -0.128 -0.038
0.216 -0.125 -0.038
0.217 -0.124 -0.038
0.220 -0.123 -0.039
0.221 -0.121 -0.039
0.225 -0.121 -0.039
0.237 -0.125 -0.041
0.228 -0.118 -0.040
0.225 -0.114 -0.039
0.224 -0.111 -0.039
0.230 -0.112 -0.040
0.233 -0.111 -0.040
0.229 -0.106 -0.039
0.234 -0.106 -0.040
0.223 -0.099 -0.038
0.207 -0.090 -0.036
0.206 -0.087 -0.035
0.207 -0.086 -0.035
0.211 -0.085 -0.036
0.212 -0.083 -0.036
0.208 -0.080 -0.035
0.211 -0.079 -0.036
0.287 -0.102 -0.049
0.290 -0.100 -0.049
0.349 -0.117 -0.059
0.359 -0.117 -0.061
0.367 -0.116 -0.062
0.375 -0.115 -0.063
0.382 -0.114 -0.064
0.386 -0.111 -0.065
0.393 -0.110 -0.066
0.402 -0.108 -0.067
0.410 -0.107 -0.069
0.419 -0.105 -0.070
0.422 -0.102 -0.071
0.432 -0.100 -0.072
0.423 -0.094 -0.071
0.409 -0.087 -0.068
0.393 -0.080 -0.066
0.381 -0.074 -0.064
0.367 -0.068 -0.061
0.283 -0.050 -0.047
0.283 -0.047 -0.047
0.282 -0.045 -0.047
0.283 -0.042 -0.047
0.284 -0.040 -0.047
0.287 -0.038 -0.048
0.294 -0.036 -0.049
0.303 -0.034 -0.050
0.308 -0.032 -0.051
0.306 -0.029 -0.051
0.297 -0.026 -0.049
0.311 -0.024 -0.052
0.308 -0.021 -0.051
0.303 -0.018 -0.050
0.304 -0.015 -0.050
0.302 -0.012 -0.050
0.302 -0.010 -0.050
0.304 -0.007 -0.050
0.306 -0.004 -0.051
0.308 -0.001 -0.051
0.312 0.001 -0.052
0.312 0.004 -0.052
0.315 0.007 -0.052
0.316 0.010 -0.052
0.316 0.013 -0.052
0.321 0.016 -0.053
0.317 0.019 -0.053
0.317 0.021 -0.053
0.317 0.024 -0.053
0.319 0.027 -0.053
0.315 0.030 -0.052
0.316 0.033 -0.053
0.317 0.036 -0.053
0.317 0.039 -0.053
0.318 0.042 -0.053
0.321 0.045 -0.053
0.322 0.048 -0.054
0.321 0.051 -0.054
0.327 0.055 -0.055
0.322 0.057 -0.054
0.322 0.060 -0.054
0.322 0.063 -0.054
0.321 0.066 -0.054
0.320 0.069 -0.054
0.319 0.071 -0.053
0.317 0.074 -0.053
0.318 0.077 -0.053
0.316 0.079 -0.053
0.314 0.082 -0.053
0.313 0.085 -0.053
0.313 0.088 -0.053
0.316 0.092 -0.053
0.318 0.095 -0.054
0.322 0.099 -0.054
0.327 0.104 -0.055
0.320 0.105 -0.054
0.309 0.105 -0.053
0.316 0.110 -0.054
0.315 0.116 -0.054
0.324 0.148 -0.056
0.326 0.153 -0.057
0.315 0.155 -0.055
0.354 0.193 -0.062
0.356 0.209 -0.063
0.319 0.191 -0.057
0.240 -0.332 -0.049
0.248 -0.338 -0.051
0.254 -0.342 -0.052
0.256 -0.341 -0.052
0.251 -0.329 -0.051
0.257 -0.332 -0.051
0.261 -0.333 -0.052
0.261 -0.329 -0.052
0.266 -0.330 -0.053
0.268 -0.328 -0.053
0.269 -0.324 -0.053
0.264 -0.314 -0.052
0.262 -0.307 -0.051
0.265 -0.305 -0.051
0.245 -0.278 -0.047
0.278 -0.292 -0.052
0.282 -0.292 -0.053
0.297 -0.303 -0.055
0.298 -0.299 -0.055
0.297 -0.294 -0.055
0.301 -0.293 -0.055
0.306 -0.293 -0.056
0.307 -0.290 -0.056
0.307 -0.285 -0.056
0.307 -0.281 -0.055
0.309 -0.278 -0.056
0.311 -0.276 -0.056
0.315 -0.275 -0.056
0.312 -0.268 -0.056
0.312 -0.264 -0.055
0.313 -0.260 -0.055
0.312 -0.255 -0.055
0.305 -0.245 -0.053
0.297 -0.231 -0.052
0.295 -0.227 -0.051
0.222 -0.165 -0.038
0.222 -0.159 -0.038
0.218 -0.154 -0.037
0.221 -0.154 -0.038
0.213 -0.145 -0.036
0.215 -0.144 -0.036
0.215 -0.142 -0.036
0.220 -0.142 -0.037
0.223 -0.142 -0.038
0.222 -0.139 -0.037
0.213 -0.131 -0.036
0.221 -0.133 -0.037
0.225 -0.133 -0.037
0.227 -0.131 -0.038
0.223 -0.127 -0.037
0.221 -0.123 -0.037
0.223 -0.122 -0.037
0.224 -0.120 -0.037
0.222 -0.117 -0.036
0.223 -0.115 -0.037
0.218 -0.110 -0.036
0.217 -0.107 -0.035
0.213 -0.103 -0.035
0.217 -0.103 -0.035
0.223 -0.104 -0.036
0.221 -0.100 -0.036
0.215 -0.095 -0.035
0.211 -0.091 -0.034
0.208 -0.088 -0.034
0.210 -0.087 -0.034
0.212 -0.086 -0.034
0.214 -0.084 -0.034
0.212 -0.081 -0.034
0.213 -0.080 -0.034
0.279 -0.099 -0.045
0.279 -0.096 -0.045
0.363 -0.115 -0.058
0.373 -0.115 -0.059
0.381 -0.113 -0.061
0.388 -0.112 -0.062
0.392 -0.109 -0.062
0.399 -0.107 -0.063
0.410 -0.107 -0.065
0.422 -0.106 -0.067
0.430 -0.104 -0.068
0.432 -0.100 -0.068
0.433 -0.097 -0.068
0.417 -0.089 -0.066
0.396 -0.081 -0.062
0.383 -0.075 -0.060
0.373 -0.069 -0.059
0.281 -0.050 -0.044
0.282 -0.047 -0.044
0.279 -0.044 -0.044
0.279 -0.042 -0.044
0.277 -0.039 -0.044
0.284 -0.037 -0.045
0.293 -0.036 -0.046
0.301 -0.034 -0.047
0.299 -0.031 -0.047
0.295 -0.028 -0.046
0.298 -0.026 -0.047
0.310 -0.024 -0.049
0.304 -0.021 -0.048
0.304 -0.018 -0.048
0.306 -0.015 -0.048
0.300 -0.012 -0.047
0.302 -0.010 -0.047
0.304 -0.007 -0.048
0.306 -0.004 -0.048
0.308 -0.001 -0.048
0.310 0.001 -0.049
0.314 0.004 -0.049
0.315 0.007 -0.049
0.315 0.010 -0.049
0.321 0.013 -0.050
0.316 0.016 -0.050
0.316 0.018 -0.050
0.316 0.021 -0.050
0.315 0.024 -0.049
0.316 0.027 -0.050
0.313 0.030 -0.049
0.314 0.033 -0.049
0.315 0.036 -0.050
0.316 0.039 -0.050
0.316 0.042 -0.050
0.321 0.045 -0.051
0.322 0.048 -0.051
0.323 0.051 -0.051
0.321 0.054 -0.051
0.321 0.057 -0.051
0.322 0.060 -0.051
0.322 0.063 -0.051
0.321 0.066 -0.051
0.320 0.069 -0.051
0.319 0.071 -0.051
0.318 0.074 -0.050
0.317 0.077 -0.050
0.316 0.079 -0.050
0.315 0.082 -0.050
0.314 0.085 -0.050
0.312 0.087 -0.050
0.316 0.092 -0.050
0.319 0.096 -0.051
0.322 0.099 -0.052
0.313 0.100 -0.050
0.313 0.103 -0.050
0.310 0.105 -0.050
0.311 0.108 -0.050
0.292 0.104 -0.047
0.295 0.108 -0.048
0.342 0.157 -0.056
0.356 0.167 -0.058
0.319 0.160 -0.053
0.250 -0.345 -0.048
0.250 -0.340 -0.048
0.254 -0.341 -0.048
0.258 -0.342 -0.049
0.264 -0.345 -0.050
0.260 -0.335 -0.049
0.261 -0.333 -0.049
0.263 -0.331 -0.049
0.259 -0.321 -0.048
0.262 -0.320 -0.049
0.264 -0.318 -0.049
0.260 -0.309 -0.048
0.268 -0.281 -0.047
0.278 -0.288 -0.049
0.289 -0.295 -0.051
0.295 -0.296 -0.051
0.296 -0.293 -0.051
0.298 -0.290 -0.051
0.301 -0.288 -0.052
0.299 -0.282 -0.051
0.298 -0.277 -0.051
0.300 -0.275 -0.051
0.303 -0.273 -0.051
0.307 -0.273 -0.052
0.311 -0.271 -0.052
0.310 -0.267 -0.052
0.309 -0.261 -0.051
0.309 -0.257 -0.051
0.305 -0.249 -0.050
0.294 -0.237 -0.049
0.229 -0.176 -0.038
0.225 -0.170 -0.037
0.218 -0.162 -0.035
0.212 -0.155 -0.034
0.216 -0.155 -0.035
0.213 -0.150 -0.034
0.220 -0.152 -0.035
0.221 -0.151 -0.035
0.218 -0.146 -0.035
0.221 -0.146 -0.035
0.221 -0.143 -0.035
0.224 -0.142 -0.035
0.224 -0.140 -0.035
0.222 -0.136 -0.035
0.219 -0.132 -0.034
0.226 -0.133 -0.035
0.224 -0.130 -0.035
0.219 -0.125 -0.034
0.217 -0.121 -0.034
0.216 -0.118 -0.034
0.216 -0.116 -0.034
0.215 -0.113 -0.033
0.211 -0.109 -0.033
0.217 -0.109 -0.033
0.214 -0.106 -0.033
0.215 -0.104 -0.033
0.217 -0.103 -0.033
0.223 -0.103 -0.034
0.224 -0.101 -0.034
0.218 -0.097 -0.033
0.213 -0.092 -0.033
0.214 -0.091 -0.033
0.216 -0.089 -0.033
0.216 -0.087 -0.033
0.217 -0.085 -0.033
0.217 -0.083 -0.033
0.217 -0.081 -0.033
0.232 -0.084 -0.035
0.255 -0.090 -0.038
0.267 -0.092 -0.040
0.268 -0.090 -0.040
0.376 -0.112 -0.056
0.381 -0.110 -0.057
0.390 -0.109 -0.058
0.397 -0.107 -0.059
0.410 -0.106 -0.061
0.417 -0.105 -0.062
0.428 -0.103 -0.064
0.433 -0.100 -0.064
0.433 -0.097 -0.064
0.420 -0.090 -0.062
0.395 -0.081 -0.059
0.387 -0.075 -0.057
0.376 -0.070 -0.056
0.281 -0.050 -0.042
0.281 -0.047 -0.042
0.284 -0.045 -0.042
0.280 -0.042 -0.041
0.278 -0.039 -0.041
0.280 -0.037 -0.041
0.292 -0.036 -0.043
0.294 -0.033 -0.044
0.292 -0.030 -0.043
0.291 -0.028 -0.043
0.308 -0.026 -0.045
0.310 -0.024 -0.046
0.304 -0.021 -0.045
0.308 -0.018 -0.046
0.309 -0.015 -0.046
0.301 -0.012 -0.044
0.302 -0.010 -0.045
0.304 -0.007 -0.045
0.306 -0.004 -0.045
0.308 -0.001 -0.045
0.310 0.001 -0.046
0.315 0.004 -0.046
0.315 0.007 -0.047
0.316 0.010 -0.047
0.317 0.013 -0.047
0.316 0.016 -0.047
0.316 0.018 -0.047
0.315 0.021 -0.047
0.314 0.024 -0.046
0.313 0.027 -0.046
0.312 0.030 -0.046
0.313 0.032 -0.046
0.313 0.035 -0.046
0.314 0.038 -0.047
0.315 0.041 -0.047
0.317 0.044 -0.047
0.321 0.048 -0.048
0.322 0.051 -0.048
0.322 0.054 -0.048
0.325 0.058 -0.048
0.322 0.060 -0.048
0.323 0.063 -0.048
0.322 0.066 -0.048
0.321 0.069 -0.048
0.320 0.071 -0.048
0.318 0.074 -0.048
0.317 0.077 -0.047
0.316 0.080 -0.047
0.316 0.082 -0.047
0.314 0.085 -0.047
0.313 0.088 -0.047
0.320 0.093 -0.048
0.318 0.095 -0.048
0.311 0.096 -0.047
0.309 0.101 -0.047
0.311 0.105 -0.047
0.308 0.107 -0.047
0.301 0.110 -0.046
0.296 0.115 -0.045
1.266 0.515 -0.193
0.345 0.158 -0.053
0.357 0.167 -0.055
0.317 0.162 -0.049
0.237 -0.327 -0.043
0.245 -0.334 -0.044
0.256 -0.344 -0.046
0.260 -0.344 -0.046
0.263 -0.344 -0.047
0.264 -0.340 -0.047
0.261 -0.333 -0.046
0.257 -0.323 -0.045
0.255 -0.316 -0.044
0.260 -0.318 -0.045
0.255 -0.307 -0.044
0.189 -0.217 -0.032
0.191 -0.210 -0.032
0.282 -0.291 -0.046
0.293 -0.299 -0.048
0.295 -0.296 -0.048
0.297 -0.294 -0.048
0.298 -0.290 -0.048
0.292 -0.279 -0.047
0.294 -0.278 -0.047
0.298 -0.277 -0.048
0.299 -0.273 -0.048
0.302 -0.272 -0.048
0.303 -0.268 -0.048
0.306 -0.267 -0.048
0.306 -0.263 -0.048
0.306 -0.259 -0.048
0.305 -0.253 -0.047
0.296 -0.243 -0.046
0.292 -0.235 -0.045
0.234 -0.182 -0.036
0.222 -0.170 -0.034
0.216 -0.163 -0.033
0.212 -0.157 -0.032
0.208 -0.152 -0.032
0.205 -0.147 -0.031
0.208 -0.147 -0.031
0.214 -0.148 -0.032
0.217 -0.148 -0.033
0.218 -0.146 -0.033
0.225 -0.148 -0.034
0.220 -0.142 -0.033
0.214 -0.136 -0.032
0.214 -0.133 -0.032
0.209 -0.128 -0.031
0.217 -0.131 -0.032
0.217 -0.128 -0.032
0.203 -0.118 -0.030
0.204 -0.116 -0.030
0.201 -0.112 -0.029
0.214 -0.117 -0.031
0.215 -0.115 -0.031
0.199 -0.104 -0.029
0.213 -0.110 -0.031
0.208 -0.105 -0.030
0.219 -0.108 -0.032
0.222 -0.107 -0.032
0.223 -0.106 -0.032
0.226 -0.105 -0.033
0.235 -0.107 -0.034
0.222 -0.098 -0.032
0.225 -0.098 -0.032
0.223 -0.094 -0.032
0.223 -0.092 -0.032
0.223 -0.090 -0.032
0.222 -0.087 -0.032
0.215 -0.083 -0.031
0.220 -0.082 -0.031
0.226 -0.082 -0.032
0.247 -0.088 -0.035
0.251 -0.086 -0.035
0.259 -0.087 -0.037
0.260 -0.085 -0.037
0.273 -0.086 -0.038
0.369 -0.106 -0.052
0.382 -0.106 -0.054
0.392 -0.105 -0.055
0.407 -0.106 -0.057
0.420 -0.105 -0.059
0.427 -0.103 -0.060
0.435 -0.101 -0.061
0.436 -0.097 -0.061
0.394 -0.081 -0.055
0.387 -0.075 -0.054
0.385 -0.072 -0.054
0.283 -0.050 -0.039
0.285 -0.048 -0.040
0.284 -0.045 -0.040
0.282 -0.042 -0.039
0.277 -0.039 -0.038
0.277 -0.036 -0.038
0.280 -0.034 -0.039
0.291 -0.033 -0.040
0.295 -0.031 -0.041
0.299 -0.028 -0.041
0.300 -0.026 -0.042
0.296 -0.020 -0.041
0.310 -0.018 -0.043
0.312 -0.016 -0.043
0.302 -0.012 -0.042
0.303 -0.010 -0.042
0.305 -0.007 -0.042
0.307 -0.004 -0.043
0.309 -0.001 -0.043
0.310 0.001 -0.043
0.313 0.004 -0.043
0.315 0.007 -0.044
0.316 0.010 -0.044
0.317 0.013 -0.044
0.318 0.016 -0.044
0.316 0.018 -0.044
0.314 0.021 -0.044
0.314 0.024 -0.044
0.313 0.027 -0.043
0.312 0.030 -0.043
0.312 0.032 -0.043
0.312 0.035 -0.043
0.313 0.038 -0.043
0.314 0.041 -0.044
0.316 0.044 -0.044
0.319 0.048 -0.044
0.321 0.051 -0.045
0.322 0.054 -0.045
0.322 0.057 -0.045
0.322 0.060 -0.045
0.323 0.063 -0.045
0.323 0.066 -0.045
0.322 0.069 -0.045
0.321 0.072 -0.045
0.319 0.074 -0.045
0.318 0.077 -0.045
0.317 0.080 -0.045
0.316 0.082 -0.044
0.315 0.085 -0.044
0.313 0.088 -0.044
0.327 0.094 -0.046
0.313 0.093 -0.044
0.313 0.096 -0.044
0.320 0.102 -0.045
0.316 0.104 -0.045
0.315 0.106 -0.045
0.309 0.107 -0.044
0.306 0.109 -0.044
0.296 0.114 -0.042
1.265 0.514 -0.181
1.260 0.525 -0.181
0.345 0.158 -0.050
0.337 0.158 -0.049
0.323 0.161 -0.047
0.340 0.196 -0.050
0.224 -0.309 -0.038
0.249 -0.339 -0.042
0.253 -0.339 -0.042
0.256 -0.340 -0.043
0.258 -0.338 -0.043
0.260 -0.335 -0.043
0.258 -0.329 -0.042
0.251 -0.316 -0.041
0.253 -0.313 -0.041
0.190 -0.221 -0.030
0.183 -0.210 -0.029
0.184 -0.208 -0.029
0.184 -0.205 -0.029
0.184 -0.202 -0.029
0.190 -0.205 -0.030
0.200 -0.213 -0.031
0.296 -0.301 -0.045
0.297 -0.298 -0.045
0.296 -0.293 -0.045
0.293 -0.284 -0.044
0.290 -0.277 -0.044
0.299 -0.282 -0.045
0.301 -0.279 -0.045
0.301 -0.275 -0.045
0.302 -0.272 -0.045
0.305 -0.270 -0.045
0.302 -0.263 -0.044
0.307 -0.264 -0.045
0.308 -0.260 -0.045
0.302 -0.251 -0.044
0.301 -0.246 -0.044
0.295 -0.237 -0.043
0.224 -0.174 -0.032
0.218 -0.167 -0.031
0.203 -0.153 -0.029
0.207 -0.153 -0.029
0.207 -0.151 -0.029
0.206 -0.148 -0.029
0.206 -0.145 -0.029
0.210 -0.145 -0.029
0.210 -0.143 -0.030
0.208 -0.140 -0.029
0.198 -0.130 -0.028
0.205 -0.132 -0.029
0.209 -0.133 -0.029
0.204 -0.127 -0.028
0.204 -0.125 -0.028
0.212 -0.127 -0.029
0.211 -0.124 -0.029
0.209 -0.121 -0.029
0.212 -0.120 -0.029
0.210 -0.117 -0.029
0.212 -0.116 -0.029
0.214 -0.115 -0.029
0.214 -0.112 -0.029
0.215 -0.111 -0.029
0.215 -0.109 -0.029
0.219 -0.108 -0.030
0.223 -0.108 -0.030
0.227 -0.108 -0.031
0.226 -0.105 -0.030
0.220 -0.100 -0.029
0.241 -0.107 -0.032
0.231 -0.100 -0.031
0.231 -0.098 -0.031
0.228 -0.094 -0.030
0.225 -0.091 -0.030
0.220 -0.087 -0.029
0.218 -0.084 -0.029
0.214 -0.080 -0.028
0.236 -0.086 -0.031
0.238 -0.084 -0.031
0.252 -0.087 -0.033
0.252 -0.084 -0.033
0.251 -0.082 -0.033
0.258 -0.081 -0.034
0.382 -0.106 -0.050
0.396 -0.107 -0.052
0.409 -0.106 -0.054
0.417 -0.105 -0.055
0.427 -0.103 -0.056
0.436 -0.101 -0.057
0.440 -0.098 -0.057
0.425 -0.091 -0.055
0.397 -0.081 -0.052
0.389 -0.076 -0.051
0.378 -0.070 -0.049
0.286 -0.051 -0.037
0.285 -0.048 -0.037
0.285 -0.045 -0.037
0.279 -0.042 -0.036
0.277 -0.039 -0.036
0.280 -0.037 -0.036
0.280 -0.034 -0.036
0.294 -0.033 -0.038
0.302 -0.031 -0.039
0.303 -0.029 -0.039
0.308 -0.026 -0.040
0.295 -0.023 -0.038
0.291 -0.020 -0.038
0.305 -0.018 -0.040
0.315 -0.016 -0.041
0.301 -0.012 -0.039
0.302 -0.010 -0.039
0.305 -0.007 -0.040
0.308 -0.004 -0.040
0.311 -0.001 -0.040
0.313 0.001 -0.041
0.314 0.004 -0.041
0.314 0.007 -0.041
0.317 0.010 -0.041
0.318 0.013 -0.041
0.317 0.016 -0.041
0.316 0.018 -0.041
0.315 0.021 -0.041
0.314 0.024 -0.041
0.313 0.027 -0.041
0.312 0.029 -0.040
0.312 0.032 -0.040
0.312 0.035 -0.040
0.312 0.038 -0.041
0.314 0.041 -0.041
0.316 0.044 -0.041
0.318 0.047 -0.041
0.321 0.051 -0.042
0.323 0.054 -0.042
0.323 0.057 -0.042
0.323 0.060 -0.042
0.324 0.063 -0.042
0.323 0.066 -0.042
0.322 0.069 -0.042
0.321 0.072 -0.042
0.319 0.074 -0.042
0.319 0.077 -0.042
0.318 0.080 -0.042
0.317 0.083 -0.042
0.315 0.085 -0.041
0.314 0.088 -0.041
0.318 0.092 -0.042
0.317 0.095 -0.042
0.322 0.099 -0.043
0.325 0.103 -0.043
0.322 0.106 -0.043
0.317 0.107 -0.042
0.310 0.108 -0.041
0.308 0.110 -0.041
0.306 0.112 -0.041
1.258 0.511 -0.169
0.293 0.140 -0.040
0.327 0.170 -0.045
0.261 -0.359 -0.041
0.245 -0.334 -0.038
0.249 -0.335 -0.039
0.249 -0.331 -0.038
0.257 -0.336 -0.039
0.260 -0.335 -0.040
0.253 -0.322 -0.039
0.250 -0.314 -0.038
0.193 -0.228 -0.029
0.191 -0.222 -0.028
0.185 -0.212 -0.027
0.180 -0.204 -0.026
0.177 -0.198 -0.026
0.186 -0.205 -0.027
0.191 -0.206 -0.028
0.197 -0.210 -0.028
0.292 -0.298 -0.042
0.297 -0.297 -0.042
0.293 -0.289 -0.041
0.292 -0.284 -0.041
0.297 -0.284 -0.042
0.297 -0.280 -0.041
0.302 -0.280 -0.042
0.301 -0.275 -0.042
0.296 -0.266 -0.041
0.298 -0.264 -0.041
0.302 -0.263 -0.041
0.307 -0.263 -0.042
0.311 -0.263 -0.042
0.304 -0.253 -0.041
0.302 -0.246 -0.041
0.304 -0.245 -0.041
0.218 -0.169 -0.029
0.214 -0.164 -0.028
0.211 -0.159 -0.028
0.203 -0.150 -0.027
0.204 -0.149 -0.027
0.208 -0.149 -0.027
0.205 -0.145 -0.027
0.205 -0.142 -0.027
0.209 -0.142 -0.027
0.212 -0.142 -0.028
0.209 -0.137 -0.027
0.211 -0.136 -0.027
0.203 -0.129 -0.026
0.206 -0.129 -0.027
0.206 -0.126 -0.026
0.204 -0.123 -0.026
0.211 -0.125 -0.027
0.214 -0.124 -0.027
0.214 -0.119 -0.027
0.213 -0.116 -0.027
0.201 -0.108 -0.025
0.213 -0.112 -0.027
0.200 -0.103 -0.025
0.217 -0.109 -0.027
0.217 -0.107 -0.027
0.220 -0.106 -0.028
0.226 -0.107 -0.028
0.225 -0.104 -0.028
0.222 -0.101 -0.028
0.230 -0.102 -0.029
0.235 -0.102 -0.029
0.232 -0.098 -0.029
0.226 -0.093 -0.028
0.217 -0.087 -0.027
0.216 -0.085 -0.027
0.213 -0.082 -0.026
0.200 -0.075 -0.025
0.232 -0.085 -0.029
0.246 -0.087 -0.030
0.246 -0.085 -0.030
0.249 -0.083 -0.031
0.256 -0.083 -0.031
0.251 -0.079 -0.031
0.247 -0.076 -0.030
0.394 -0.110 -0.048
0.400 -0.108 -0.049
0.411 -0.107 -0.050
0.417 -0.104 -0.051
0.423 -0.102 -0.051
0.430 -0.100 -0.052
0.434 -0.097 -0.053
0.424 -0.090 -0.051
0.285 -0.050 -0.034
0.286 -0.048 -0.035
0.279 -0.044 -0.034
0.277 -0.041 -0.033
0.277 -0.039 -0.033
0.281 -0.037 -0.034
0.288 -0.035 -0.035
0.295 -0.033 -0.036
0.302 -0.031 -0.036
0.297 -0.028 -0.036
0.296 -0.025 -0.036
0.295 -0.023 -0.036
0.295 -0.020 -0.036
0.302 -0.018 -0.036
0.313 -0.016 -0.038
0.300 -0.012 -0.036
0.303 -0.010 -0.036
0.304 -0.007 -0.037
0.307 -0.004 -0.037
0.309 -0.001 -0.037
0.314 0.001 -0.038
0.315 0.004 -0.038
0.317 0.007 -0.038
0.318 0.010 -0.038
0.317 0.013 -0.038
0.316 0.016 -0.038
0.316 0.018 -0.038
0.315 0.021 -0.038
0.314 0.024 -0.038
0.313 0.027 -0.038
0.312 0.029 -0.038
0.312 0.032 -0.038
0.312 0.035 -0.038
0.312 0.038 -0.038
0.314 0.041 -0.038
0.316 0.044 -0.038
0.319 0.048 -0.039
0.322 0.051 -0.039
0.325 0.054 -0.039
0.324 0.057 -0.039
0.325 0.060 -0.039
0.324 0.063 -0.039
0.323 0.066 -0.039
0.323 0.069 -0.039
0.321 0.072 -0.039
0.320 0.074 -0.039
0.319 0.077 -0.039
0.318 0.080 -0.039
0.317 0.082 -0.039
0.315 0.085 -0.038
0.314 0.088 -0.038
0.319 0.092 -0.039
0.319 0.095 -0.039
0.321 0.099 -0.039
0.328 0.104 -0.040
0.324 0.106 -0.040
0.319 0.107 -0.039
0.310 0.108 -0.038
0.310 0.111 -0.038
0.308 0.113 -0.038
0.317 0.122 -0.039
1.253 0.509 -0.156
0.325 0.169 -0.041
0.241 -0.332 -0.035
0.252 -0.343 -0.036
0.250 -0.336 -0.036
0.254 -0.337 -0.036
0.258 -0.337 -0.037
0.264 -0.340 -0.037
0.189 -0.227 -0.026
0.185 -0.218 -0.025
0.185 -0.215 -0.025
0.182 -0.209 -0.025
0.177 -0.200 -0.024
0.177 -0.197 -0.024
0.186 -0.205 -0.025
0.194 -0.210 -0.026
0.207 -0.220 -0.028
0.295 -0.300 -0.039
0.296 -0.296 -0.039
0.294 -0.290 -0.038
0.295 -0.286 -0.038
0.296 -0.283 -0.038
0.298 -0.281 -0.038
0.301 -0.279 -0.039
0.304 -0.277 -0.039
0.298 -0.268 -0.038
0.302 -0.267 -0.038
0.301 -0.262 -0.038
0.301 -0.258 -0.038
0.303 -0.256 -0.038
0.302 -0.251 -0.038
0.301 -0.246 -0.038
0.297 -0.239 -0.037
0.206 -0.160 -0.025
0.208 -0.159 -0.026
0.206 -0.155 -0.025
0.195 -0.144 -0.024
0.204 -0.149 -0.025
0.204 -0.146 -0.025
0.204 -0.143 -0.025
0.205 -0.142 -0.025
0.210 -0.143 -0.025
0.219 -0.146 -0.026
0.217 -0.143 -0.026
0.214 -0.138 -0.026
0.211 -0.134 -0.025
0.211 -0.131 -0.025
0.214 -0.131 -0.025
0.210 -0.126 -0.025
0.212 -0.125 -0.025
0.212 -0.123 -0.025
0.213 -0.121 -0.025
0.197 -0.110 -0.023
0.213 -0.116 -0.025
0.215 -0.115 -0.025
0.201 -0.106 -0.023
0.210 -0.108 -0.024
0.201 -0.101 -0.023
0.212 -0.105 -0.025
0.220 -0.106 -0.026
0.221 -0.105 -0.026
0.221 -0.102 -0.026
0.224 -0.101 -0.026
0.223 -0.099 -0.026
0.237 -0.102 -0.027
0.227 -0.096 -0.026
0.222 -0.092 -0.025
0.218 -0.088 -0.025
0.213 -0.084 -0.024
0.220 -0.084 -0.025
0.223 -0.083 -0.025
0.232 -0.085 -0.026
0.242 -0.086 -0.028
0.248 -0.085 -0.028
0.255 -0.085 -0.029
0.254 -0.083 -0.029
0.247 -0.078 -0.028
0.243 -0.074 -0.027
0.284 -0.084 -0.032
0.296 -0.085 -0.033
0.396 -0.110 -0.045
0.401 -0.108 -0.045
0.411 -0.107 -0.046
0.415 -0.104 -0.047
0.419 -0.101 -0.047
0.422 -0.098 -0.047
0.420 -0.093 -0.047
0.409 -0.087 -0.046
0.391 -0.080 -0.044
0.382 -0.074 -0.043
0.367 -0.068 -0.041
0.286 -0.050 -0.032
0.282 -0.047 -0.032
0.280 -0.044 -0.031
0.281 -0.042 -0.031
0.281 -0.039 -0.031
0.281 -0.037 -0.031
0.286 -0.035 -0.032
0.299 -0.034 -0.033
0.302 -0.031 -0.034
0.298 -0.028 -0.033
0.293 -0.025 -0.033
0.298 -0.023 -0.033
0.301 -0.020 -0.034
0.302 -0.018 -0.034
0.304 -0.015 -0.034
0.302 -0.012 -0.034
0.303 -0.010 -0.034
0.304 -0.007 -0.034
0.307 -0.004 -0.034
0.309 -0.001 -0.034
0.313 0.001 -0.035
0.315 0.004 -0.035
0.316 0.007 -0.035
0.317 0.010 -0.035
0.317 0.013 -0.035
0.316 0.016 -0.035
0.316 0.018 -0.035
0.315 0.021 -0.035
0.314 0.024 -0.035
0.314 0.027 -0.035
0.313 0.030 -0.035
0.313 0.032 -0.035
0.312 0.035 -0.035
0.313 0.038 -0.035
0.315 0.041 -0.035
0.316 0.044 -0.035
0.319 0.048 -0.036
0.322 0.051 -0.036
0.324 0.054 -0.036
0.324 0.057 -0.036
0.323 0.060 -0.036
0.323 0.063 -0.036
0.323 0.066 -0.036
0.322 0.069 -0.036
0.321 0.072 -0.036
0.321 0.075 -0.036
0.319 0.077 -0.036
0.318 0.080 -0.036
0.316 0.082 -0.036
0.314 0.085 -0.036
0.314 0.088 -0.036
0.321 0.093 -0.036
0.311 0.093 -0.035
0.309 0.095 -0.035
0.320 0.102 -0.036
0.320 0.105 -0.036
0.316 0.107 -0.036
0.309 0.107 -0.035
0.313 0.112 -0.036
0.310 0.117 -0.036
1.249 0.507 -0.144
0.349 0.163 -0.041
0.350 0.213 -0.042
0.352 0.219 -0.042
0.243 -0.334 -0.032
0.264 -0.359 -0.035
0.261 -0.350 -0.034
0.259 -0.342 -0.034
0.259 -0.339 -0.034
0.188 -0.233 -0.024
0.183 -0.222 -0.023
0.184 -0.220 -0.023
0.178 -0.211 -0.022
0.177 -0.206 -0.022
0.181 -0.207 -0.023
0.182 -0.205 -0.023
0.184 -0.205 -0.023
0.188 -0.206 -0.023
0.289 -0.298 -0.035
0.294 -0.299 -0.035
0.298 -0.299 -0.036
0.297 -0.293 -0.036
0.297 -0.288 -0.035
0.296 -0.283 -0.035
0.297 -0.279 -0.035
0.300 -0.278 -0.035
0.301 -0.274 -0.035
0.301 -0.270 -0.035
0.306 -0.270 -0.036
0.305 -0.266 -0.035
0.302 -0.259 -0.035
0.301 -0.253 -0.035
0.300 -0.249 -0.034
0.298 -0.243 -0.034
0.293 -0.236 -0.033
0.220 -0.171 -0.025
0.210 -0.161 -0.024
0.207 -0.156 -0.023
0.203 -0.150 -0.023
0.199 -0.144 -0.022
0.204 -0.146 -0.023
0.208 -0.146 -0.023
0.206 -0.143 -0.023
0.210 -0.143 -0.023
0.218 -0.146 -0.024
0.216 -0.142 -0.024
0.214 -0.136 -0.023
0.214 -0.133 -0.023
0.206 -0.126 -0.022
0.215 -0.129 -0.023
0.213 -0.125 -0.023
0.212 -0.123 -0.023
0.209 -0.119 -0.023
0.206 -0.115 -0.022
0.206 -0.113 -0.022
0.216 -0.116 -0.023
0.211 -0.111 -0.023
0.213 -0.109 -0.023
0.214 -0.108 -0.023
0.214 -0.106 -0.023
0.218 -0.105 -0.023
0.222 -0.105 -0.024
0.221 -0.102 -0.023
0.219 -0.099 -0.023
0.221 -0.098 -0.023
0.216 -0.093 -0.023
0.224 -0.095 -0.024
0.219 -0.090 -0.023
0.218 -0.088 -0.023
0.218 -0.086 -0.023
0.212 -0.081 -0.022
0.231 -0.086 -0.024
0.230 -0.084 -0.024
0.240 -0.085 -0.025
0.250 -0.086 -0.026
0.253 -0.085 -0.026
0.250 -0.081 -0.026
0.248 -0.078 -0.026
0.266 -0.082 -0.028
0.270 -0.080 -0.028
0.392 -0.109 -0.041
0.402 -0.108 -0.042
0.408 -0.106 -0.042
0.413 -0.103 -0.043
0.417 -0.100 -0.043
0.424 -0.098 -0.044
0.423 -0.094 -0.044
0.399 -0.085 -0.041
0.385 -0.078 -0.040
0.381 -0.074 -0.039
0.366 -0.068 -0.038
0.287 -0.051 -0.030
0.284 -0.047 -0.029
0.283 -0.045 -0.029
0.283 -0.042 -0.029
0.285 -0.040 -0.029
0.283 -0.037 -0.029
0.285 -0.035 -0.029
0.293 -0.033 -0.030
0.303 -0.031 -0.031
0.300 -0.028 -0.031
0.305 -0.026 -0.031
0.302 -0.023 -0.031
0.302 -0.020 -0.031
0.302 -0.018 -0.031
0.302 -0.015 -0.031
0.302 -0.012 -0.031
0.302 -0.010 -0.031
0.304 -0.007 -0.031
0.306 -0.004 -0.031
0.310 -0.001 -0.032
0.311 0.001 -0.032
0.313 0.004 -0.032
0.315 0.007 -0.032
0.316 0.010 -0.032
0.316 0.013 -0.032
0.316 0.016 -0.032
0.316 0.018 -0.032
0.316 0.021 -0.032
0.315 0.024 -0.032
0.315 0.027 -0.032
0.315 0.030 -0.032
0.314 0.033 -0.032
0.314 0.035 -0.032
0.313 0.038 -0.032
0.314 0.041 -0.032
0.317 0.044 -0.033
0.318 0.047 -0.033
0.322 0.051 -0.033
0.323 0.054 -0.033
0.321 0.057 -0.033
0.322 0.060 -0.033
0.322 0.063 -0.033
0.323 0.066 -0.033
0.321 0.069 -0.033
0.320 0.071 -0.033
0.320 0.074 -0.033
0.318 0.077 -0.033
0.317 0.079 -0.033
0.315 0.082 -0.033
0.314 0.085 -0.033
0.313 0.087 -0.033
0.316 0.091 -0.033
0.309 0.092 -0.032
0.302 0.093 -0.032
0.314 0.100 -0.033
0.316 0.103 -0.033
0.313 0.105 -0.033
0.306 0.106 -0.032
0.312 0.111 -0.033
0.320 0.117 -0.034
1.258 0.549 -0.134
1.292 0.577 -0.138
0.332 0.198 -0.036
0.315 0.199 -0.035
0.322 0.207 -0.036
0.371 0.252 -0.041
0.342 0.241 -0.038
0.336 0.241 -0.038
0.345 0.252 -0.039
0.377 0.289 -0.043
0.374 0.292 -0.043
0.370 0.320 -0.043
0.375 0.330 -0.044
0.374 0.334 -0.044
0.371 0.338 -0.044
0.367 0.339 -0.044
0.380 0.357 -0.046
0.373 0.357 -0.045
0.375 0.364 -0.045
0.379 0.374 -0.046
0.379 0.380 -0.046
0.381 0.389 -0.047
0.384 0.398 -0.047
0.386 0.407 -0.048
0.387 0.415 -0.048
0.396 0.508 -0.052
0.399 0.520 -0.053
0.267 -0.368 -0.032
0.263 -0.358 -0.031
0.264 -0.355 -0.031
0.262 -0.347 -0.031
0.183 -0.226 -0.021
0.176 -0.214 -0.020
0.175 -0.209 -0.020
0.173 -0.205 -0.020
0.176 -0.205 -0.020
0.185 -0.212 -0.021
0.191 -0.216 -0.022
0.198 -0.221 -0.022
0.290 -0.304 -0.032
0.293 -0.302 -0.032
0.296 -0.301 -0.032
0.297 -0.297 -0.032
0.300 -0.296 -0.033
0.297 -0.288 -0.032
0.295 -0.281 -0.032
0.295 -0.277 -0.032
0.297 -0.275 -0.032
0.298 -0.272 -0.032
0.303 -0.272 -0.032
0.307 -0.271 -0.033
0.308 -0.267 -0.032
0.304 -0.260 -0.032
0.301 -0.254 -0.032
0.297 -0.246 -0.031
0.293 -0.239 -0.031
0.292 -0.235 -0.030
0.236 -0.187 -0.024
0.226 -0.175 -0.023
0.216 -0.165 -0.022
0.209 -0.157 -0.021
0.202 -0.150 -0.021
0.203 -0.148 -0.021
0.208 -0.149 -0.021
0.209 -0.147 -0.021
0.207 -0.143 -0.021
0.208 -0.141 -0.021
0.216 -0.144 -0.022
0.220 -0.145 -0.022
0.216 -0.139 -0.022
0.201 -0.127 -0.020
0.213 -0.132 -0.021
0.216 -0.132 -0.021
0.209 -0.126 -0.021
0.215 -0.127 -0.021
0.215 -0.124 -0.021
0.206 -0.117 -0.020
0.205 -0.114 -0.020
0.197 -0.108 -0.019
0.207 -0.111 -0.020
0.212 -0.111 -0.021
0.203 -0.104 -0.020
0.212 -0.107 -0.021
0.211 -0.104 -0.020
0.216 -0.104 -0.021
0.219 -0.104 -0.021
0.220 -0.102 -0.021
0.216 -0.098 -0.021
0.217 -0.096 -0.021
0.220 -0.095 -0.021
0.213 -0.090 -0.021
0.215 -0.089 -0.021
0.214 -0.086 -0.021
0.214 -0.084 -0.021
0.214 -0.082 -0.020
0.210 -0.078 -0.020
0.240 -0.087 -0.023
0.240 -0.085 -0.023
0.241 -0.083 -0.023
0.247 -0.083 -0.023
0.254 -0.083 -0.024
0.261 -0.082 -0.025
0.267 -0.082 -0.025
0.267 -0.079 -0.025
0.391 -0.109 -0.037
0.394 -0.106 -0.037
0.402 -0.104 -0.038
0.410 -0.103 -0.039
0.418 -0.101 -0.039
0.427 -0.099 -0.040
0.434 -0.096 -0.041
0.403 -0.086 -0.038
0.389 -0.079 -0.037
0.387 -0.075 -0.036
0.372 -0.069 -0.035
0.289 -0.051 -0.027
0.286 -0.048 -0.027
0.284 -0.045 -0.027
0.287 -0.043 -0.027
0.286 -0.040 -0.027
0.281 -0.037 -0.026
0.281 -0.034 -0.026
0.289 -0.033 -0.027
0.300 -0.031 -0.028
0.305 -0.029 -0.028
0.308 -0.026 -0.029
0.306 -0.023 -0.029
0.301 -0.020 -0.028
0.300 -0.018 -0.028
0.303 -0.015 -0.028
0.301 -0.012 -0.028
0.302 -0.010 -0.028
0.303 -0.007 -0.028
0.306 -0.004 -0.029
0.309 -0.001 -0.029
0.311 0.001 -0.029
0.313 0.004 -0.029
0.315 0.007 -0.029
0.316 0.010 -0.029
0.322 0.013 -0.030
0.316 0.016 -0.029
0.316 0.018 -0.030
0.316 0.021 -0.030
0.316 0.024 -0.030
0.315 0.027 -0.029
0.315 0.030 -0.029
0.315 0.033 -0.030
0.315 0.035 -0.029
0.315 0.038 -0.029
0.316 0.041 -0.030
0.317 0.044 -0.030
0.319 0.048 -0.030
0.323 0.051 -0.030
0.324 0.054 -0.030
0.322 0.057 -0.030
0.321 0.060 -0.030
0.322 0.063 -0.030
0.322 0.066 -0.030
0.321 0.068 -0.030
0.319 0.071 -0.030
0.319 0.074 -0.030
0.318 0.077 -0.030
0.317 0.079 -0.030
0.315 0.082 -0.030
0.314 0.085 -0.030
0.312 0.087 -0.030
0.313 0.090 -0.030
0.311 0.093 -0.030
0.310 0.095 -0.029
0.316 0.100 -0.030
0.314 0.103 -0.030
0.308 0.104 -0.029
0.306 0.106 -0.029
0.311 0.111 -0.030
0.318 0.117 -0.031
0.306 0.118 -0.029
0.289 0.114 -0.028
1.254 0.521 -0.121
1.261 0.537 -0.122
1.286 0.561 -0.125
1.292 0.577 -0.125
1.255 0.573 -0.122
1.267 0.592 -0.123
1.281 0.611 -0.125
1.284 0.654 -0.126
1.285 0.668 -0.126
1.263 0.670 -0.125
1.003 0.554 -0.099
1.004 0.566 -0.100
1.308 0.781 -0.131
1.311 0.798 -0.131
1.321 0.819 -0.133
1.322 0.835 -0.133
1.319 0.849 -0.133
1.311 0.859 -0.133
1.308 0.873 -0.133
1.308 0.889 -0.133
1.304 0.902 -0.133
1.302 0.917 -0.133
1.314 0.941 -0.135
1.328 0.968 -0.137
1.334 0.989 -0.138
0.364 0.325 -0.039
0.366 0.332 -0.040
0.367 0.339 -0.040
0.369 0.346 -0.040
0.370 0.353 -0.041
0.365 0.355 -0.040
0.364 0.360 -0.040
0.375 0.376 -0.042
0.379 0.387 -0.042
0.382 0.397 -0.043
0.387 0.408 -0.044
0.398 0.426 -0.045
0.404 0.440 -0.046
0.410 0.454 -0.047
0.408 0.515 -0.049
0.399 0.512 -0.048
0.388 0.506 -0.047
0.268 -0.368 -0.029
0.255 -0.346 -0.027
0.257 -0.344 -0.028
0.253 -0.335 -0.027
0.192 -0.241 -0.020
0.181 -0.224 -0.019
0.174 -0.211 -0.018
0.172 -0.206 -0.018
0.174 -0.206 -0.018
0.182 -0.211 -0.019
0.192 -0.220 -0.020
0.199 -0.224 -0.020
0.209 -0.233 -0.021
0.281 -0.299 -0.028
0.288 -0.302 -0.029
0.295 -0.305 -0.029
0.296 -0.300 -0.029
0.297 -0.297 -0.029
0.299 -0.295 -0.029
0.298 -0.289 -0.029
0.292 -0.279 -0.028
0.295 -0.277 -0.029
0.296 -0.274 -0.029
0.299 -0.273 -0.029
0.303 -0.272 -0.029
0.307 -0.271 -0.029
0.302 -0.262 -0.029
0.300 -0.257 -0.029
0.299 -0.252 -0.028
0.295 -0.244 -0.028
0.289 -0.236 -0.027
0.283 -0.227 -0.026
0.225 -0.178 -0.021
0.215 -0.167 -0.020
0.217 -0.166 -0.020
0.219 -0.165 -0.020
0.206 -0.152 -0.019
0.205 -0.149 -0.019
0.205 -0.147 -0.019
0.207 -0.145 -0.019
0.207 -0.143 -0.019
0.209 -0.142 -0.019
0.215 -0.144 -0.020
0.222 -0.145 -0.020
0.222 -0.143 -0.020
0.225 -0.140 -0.020
0.222 -0.136 -0.020
0.217 -0.130 -0.019
0.215 -0.127 -0.019
0.213 -0.123 -0.019
0.208 -0.118 -0.019
0.197 -0.110 -0.018
0.210 -0.115 -0.019
0.211 -0.113 -0.019
0.206 -0.108 -0.018
0.209 -0.107 -0.018
0.204 -0.103 -0.018
0.208 -0.103 -0.018
0.213 -0.103 -0.019
0.217 -0.103 -0.019
0.217 -0.100 -0.019
0.221 -0.100 -0.019
0.218 -0.097 -0.019
0.227 -0.098 -0.020
0.212 -0.090 -0.018
0.209 -0.086 -0.018
0.212 -0.085 -0.018
0.208 -0.082 -0.018
0.212 -0.081 -0.018
0.223 -0.083 -0.019
0.238 -0.087 -0.021
0.242 -0.085 -0.021
0.233 -0.080 -0.020
0.252 -0.084 -0.022
0.257 -0.084 -0.022
0.262 -0.083 -0.022
0.259 -0.079 -0.022
0.271 -0.080 -0.023
0.285 -0.082 -0.024
0.388 -0.108 -0.033
0.392 -0.105 -0.033
0.398 -0.103 -0.034
0.407 -0.102 -0.035
0.419 -0.101 -0.036
0.431 -0.100 -0.037
0.427 -0.095 -0.036
0.407 -0.087 -0.035
0.393 -0.080 -0.033
0.383 -0.074 -0.032
0.378 -0.070 -0.032
0.288 -0.051 -0.024
0.288 -0.048 -0.024
0.290 -0.046 -0.025
0.290 -0.043 -0.025
0.290 -0.041 -0.025
0.281 -0.037 -0.024
0.280 -0.034 -0.024
0.286 -0.032 -0.024
0.298 -0.031 -0.025
0.301 -0.029 -0.025
0.308 -0.026 -0.026
0.304 -0.023 -0.026
0.299 -0.020 -0.025
0.295 -0.017 -0.025
0.303 -0.015 -0.026
0.305 -0.012 -0.026
0.299 -0.009 -0.025
0.304 -0.007 -0.026
0.306 -0.004 -0.026
0.308 -0.001 -0.026
0.311 0.001 -0.026
0.315 0.004 -0.027
0.316 0.007 -0.027
0.316 0.010 -0.027
0.324 0.013 -0.027
0.316 0.016 -0.027
0.317 0.018 -0.027
0.317 0.021 -0.027
0.317 0.024 -0.027
0.316 0.027 -0.027
0.317 0.030 -0.027
0.316 0.033 -0.027
0.316 0.036 -0.027
0.317 0.039 -0.027
0.319 0.042 -0.027
0.320 0.045 -0.027
0.323 0.048 -0.027
0.324 0.051 -0.027
0.322 0.054 -0.027
0.326 0.057 -0.028
0.321 0.060 -0.027
0.322 0.063 -0.027
0.322 0.066 -0.027
0.321 0.068 -0.027
0.320 0.071 -0.027
0.318 0.074 -0.027
0.318 0.077 -0.027
0.317 0.080 -0.027
0.316 0.082 -0.027
0.314 0.085 -0.027
0.312 0.087 -0.027
0.313 0.090 -0.027
0.314 0.093 -0.027
0.319 0.098 -0.027
0.332 0.105 -0.029
0.327 0.107 -0.028
0.310 0.104 -0.027
0.320 0.111 -0.028
0.316 0.113 -0.027
0.333 0.125 -0.029
0.324 0.125 -0.028
0.314 0.124 -0.027
1.268 0.540 -0.111
1.282 0.559 -0.112
1.280 0.571 -0.112
1.283 0.586 -0.113
1.283 0.599 -0.113
1.267 0.605 -0.112
1.272 0.621 -0.112
1.283 0.640 -0.114
1.289 0.656 -0.114
1.289 0.670 -0.115
1.277 0.677 -0.114
1.250 0.677 -0.112
1.012 0.570 -0.091
1.302 0.777 -0.117
1.309 0.796 -0.118
1.311 0.813 -0.119
1.315 0.830 -0.120
1.313 0.845 -0.120
1.305 0.855 -0.119
1.297 0.865 -0.119
1.294 0.879 -0.119
1.306 0.903 -0.120
1.307 0.920 -0.121
1.310 0.938 -0.121
1.310 0.954 -0.122
1.302 0.966 -0.122
1.296 0.978 -0.121
1.296 0.994 -0.122
1.293 1.010 -0.122
0.419 0.464 -0.043
0.513 0.597 -0.054
0.512 0.605 -0.054
0.503 0.604 -0.053
0.494 0.603 -0.053
0.480 0.596 -0.051
0.355 0.462 -0.039
0.261 -0.359 -0.025
0.241 -0.328 -0.023
0.182 -0.237 -0.017
0.183 -0.235 -0.017
0.187 -0.237 -0.018
0.187 -0.234 -0.017
0.176 -0.218 -0.016
0.173 -0.210 -0.016
0.173 -0.207 -0.016
0.176 -0.208 -0.016
0.187 -0.218 -0.017
0.194 -0.222 -0.018
0.206 -0.233 -0.019
0.280 -0.298 -0.025
0.285 -0.298 -0.025
0.289 -0.298 -0.026
0.292 -0.297 -0.026
0.294 -0.294 -0.026
0.298 -0.294 -0.026
0.295 -0.286 -0.026
0.291 -0.278 -0.025
0.291 -0.274 -0.025
0.294 -0.272 -0.025
0.295 -0.268 -0.025
0.300 -0.269 -0.026
0.294 -0.260 -0.025
0.293 -0.254 -0.025
0.294 -0.251 -0.025
0.295 -0.248 -0.025
0.290 -0.240 -0.024
0.286 -0.233 -0.024
0.284 -0.227 -0.024
0.221 -0.174 -0.018
0.213 -0.166 -0.018
0.200 -0.152 -0.017
0.212 -0.159 -0.017
0.212 -0.157 -0.017
0.205 -0.149 -0.017
0.203 -0.145 -0.017
0.205 -0.144 -0.017
0.208 -0.144 -0.017
0.213 -0.145 -0.017
0.216 -0.144 -0.018
0.213 -0.139 -0.017
0.225 -0.145 -0.018
0.207 -0.131 -0.017
0.207 -0.129 -0.017
0.208 -0.127 -0.017
0.216 -0.130 -0.017
0.214 -0.126 -0.017
0.211 -0.122 -0.017
0.218 -0.124 -0.017
0.205 -0.114 -0.016
0.211 -0.115 -0.017
0.210 -0.112 -0.017
0.211 -0.110 -0.017
0.216 -0.111 -0.017
0.217 -0.109 -0.017
0.214 -0.105 -0.017
0.213 -0.103 -0.017
0.216 -0.102 -0.017
0.219 -0.101 -0.017
0.220 -0.100 -0.017
0.226 -0.100 -0.018
0.223 -0.096 -0.017
0.215 -0.091 -0.017
0.210 -0.087 -0.016
0.210 -0.084 -0.016
0.208 -0.082 -0.016
0.208 -0.080 -0.016
0.218 -0.081 -0.017
0.232 -0.084 -0.018
0.239 -0.084 -0.018
0.246 -0.085 -0.019
0.254 -0.085 -0.019
0.250 -0.081 -0.019
0.251 -0.079 -0.019
0.260 -0.080 -0.020
0.273 -0.081 -0.021
0.384 -0.107 -0.029
0.389 -0.105 -0.030
0.400 -0.104 -0.030
0.407 -0.102 -0.031
0.431 -0.104 -0.033
0.428 -0.099 -0.032
0.419 -0.093 -0.032
0.405 -0.086 -0.031
0.387 -0.079 -0.029
0.374 -0.073 -0.028
0.374 -0.069 -0.028
0.286 -0.050 -0.022
0.286 -0.048 -0.022
0.287 -0.045 -0.022
0.292 -0.044 -0.022
0.291 -0.041 -0.022
0.282 -0.037 -0.021
0.282 -0.034 -0.021
0.287 -0.032 -0.022
0.297 -0.031 -0.022
0.307 -0.029 -0.023
0.309 -0.026 -0.023
0.308 -0.024 -0.023
0.299 -0.020 -0.023
0.292 -0.017 -0.022
0.304 -0.015 -0.023
0.317 -0.013 -0.024
0.297 -0.009 -0.022
0.300 -0.007 -0.023
0.303 -0.004 -0.023
0.307 -0.001 -0.023
0.309 0.001 -0.023
0.313 0.004 -0.024
0.316 0.007 -0.024
0.315 0.010 -0.024
0.315 0.013 -0.024
0.323 0.016 -0.024
0.319 0.019 -0.024
0.319 0.021 -0.024
0.319 0.024 -0.024
0.318 0.027 -0.024
0.318 0.030 -0.024
0.317 0.033 -0.024
0.318 0.036 -0.024
0.319 0.039 -0.024
0.320 0.042 -0.024
0.321 0.045 -0.024
0.322 0.048 -0.024
0.325 0.051 -0.025
0.321 0.054 -0.024
0.320 0.056 -0.024
0.322 0.060 -0.024
0.321 0.063 -0.024
0.321 0.065 -0.024
0.320 0.068 -0.024
0.318 0.071 -0.024
0.318 0.074 -0.024
0.317 0.077 -0.024
0.317 0.079 -0.024
0.316 0.082 -0.024
0.315 0.085 -0.024
0.313 0.087 -0.024
0.313 0.090 -0.024
0.314 0.094 -0.024
0.318 0.098 -0.024
0.330 0.105 -0.025
0.331 0.108 -0.025
0.319 0.107 -0.025
0.310 0.107 -0.024
0.301 0.107 -0.023
0.323 0.118 -0.025
0.330 0.127 -0.026
1.262 0.537 -0.098
1.279 0.557 -0.100
1.281 0.572 -0.100
1.285 0.586 -0.101
1.286 0.600 -0.101
1.271 0.606 -0.100
1.277 0.623 -0.101
1.292 0.643 -0.102
1.296 0.659 -0.103
1.294 0.672 -0.103
1.281 0.679 -0.102
0.999 0.562 -0.080
1.010 0.580 -0.081
1.311 0.797 -0.106
1.313 0.814 -0.106
1.303 0.823 -0.106
1.301 0.837 -0.106
1.298 0.850 -0.106
1.280 0.853 -0.105
1.283 0.871 -0.105
1.305 0.902 -0.107
1.319 0.928 -0.109
1.316 0.942 -0.109
1.304 0.950 -0.108
0.516 0.600 -0.048
0.510 0.603 -0.048
0.504 0.605 -0.048
0.489 0.597 -0.046
0.400 0.513 -0.039
0.402 0.523 -0.039
0.269 -0.371 -0.023
0.186 -0.247 -0.015
0.180 -0.235 -0.015
0.181 -0.233 -0.015
0.180 -0.228 -0.015
0.177 -0.221 -0.014
0.172 -0.212 -0.014
0.172 -0.209 -0.014
0.177 -0.212 -0.014
0.187 -0.221 -0.015
0.190 -0.221 -0.015
0.201 -0.230 -0.016
0.239 -0.269 -0.019
0.262 -0.287 -0.021
0.274 -0.296 -0.022
0.279 -0.296 -0.022
0.281 -0.294 -0.022
0.282 -0.290 -0.022
0.283 -0.287 -0.022
0.288 -0.288 -0.022
0.296 -0.292 -0.023
0.291 -0.281 -0.022
0.289 -0.275 -0.022
0.288 -0.271 -0.022
0.287 -0.265 -0.022
0.287 -0.261 -0.022
0.291 -0.260 -0.022
0.291 -0.256 -0.022
0.292 -0.254 -0.022
0.291 -0.249 -0.022
0.289 -0.243 -0.021
0.285 -0.236 -0.021
0.283 -0.231 -0.021
0.276 -0.222 -0.020
