VERSION .7
FIELDS x y z
SIZE 4 4 4
TYPE F F F
COUNT 1 1 1
WIDTH     2585
HEIGHT 1
VIEWPOINT 0 0 0 1 0 0 0
POINTS     2585
DATA ascii
0.251 -0.206 0.033
0.251 -0.202 0.032
0.244 -0.193 0.031
0.217 -0.169 0.028
0.210 -0.161 0.027
0.207 -0.156 0.026
0.209 -0.155 0.027
0.210 -0.153 0.027
0.212 -0.152 0.027
0.209 -0.147 0.026
0.208 -0.144 0.026
0.210 -0.143 0.026
0.207 -0.139 0.026
0.206 -0.135 0.026
0.205 -0.133 0.025
0.204 -0.129 0.025
0.202 -0.126 0.025
0.203 -0.125 0.025
0.205 -0.123 0.025
0.206 -0.121 0.025
0.204 -0.118 0.025
0.203 -0.115 0.025
0.211 -0.117 0.025
0.212 -0.116 0.026
0.212 -0.114 0.026
0.212 -0.111 0.025
0.215 -0.111 0.026
0.214 -0.108 0.026
0.213 -0.105 0.025
0.203 -0.098 0.024
0.207 -0.098 0.025
0.206 -0.095 0.024
0.213 -0.097 0.025
0.199 -0.088 0.024
0.208 -0.090 0.025
0.210 -0.089 0.025
0.218 -0.090 0.026
0.218 -0.088 0.026
0.218 -0.086 0.026
0.213 -0.082 0.025
0.213 -0.080 0.025
0.214 -0.078 0.025
0.226 -0.080 0.026
0.235 -0.081 0.027
0.234 -0.078 0.027
0.230 -0.075 0.027
0.241 -0.076 0.028
0.246 -0.075 0.028
0.246 -0.073 0.028
0.403 -0.109 0.046
0.410 -0.106 0.047
0.417 -0.104 0.048
0.416 -0.100 0.048
0.343 -0.070 0.039
0.360 -0.070 0.041
0.349 -0.065 0.040
0.282 -0.047 0.032
0.281 -0.045 0.032
0.282 -0.042 0.032
0.282 -0.040 0.032
0.283 -0.037 0.032
0.284 -0.035 0.032
0.289 -0.033 0.033
0.290 -0.030 0.033
0.288 -0.027 0.033
0.286 -0.025 0.033
0.288 -0.022 0.033
0.290 -0.020 0.033
0.287 -0.017 0.033
0.285 -0.014 0.032
0.283 -0.012 0.032
0.289 -0.009 0.033
0.294 -0.007 0.033
0.299 -0.004 0.034
0.300 -0.001 0.034
0.299 0.001 0.034
0.297 0.004 0.034
0.293 0.007 0.033
0.290 0.009 0.033
0.289 0.012 0.033
0.293 0.014 0.033
0.288 0.017 0.033
0.294 0.020 0.034
0.313 0.024 0.036
0.299 0.026 0.034
0.296 0.028 0.034
0.298 0.031 0.034
0.306 0.034 0.035
0.306 0.037 0.035
0.307 0.040 0.035
0.311 0.044 0.036
0.289 0.043 0.033
0.306 0.048 0.035
0.323 0.054 0.037
0.317 0.056 0.036
0.293 0.054 0.034
0.300 0.058 0.034
0.313 0.064 0.036
0.302 0.065 0.035
0.294 0.066 0.034
0.293 0.068 0.034
0.296 0.072 0.034
0.301 0.076 0.035
0.308 0.080 0.036
0.312 0.084 0.036
0.311 0.087 0.036
0.317 0.092 0.037
0.308 0.092 0.036
0.304 0.094 0.035
0.311 0.099 0.036
0.319 0.104 0.037
0.313 0.106 0.037
0.315 0.109 0.037
0.313 0.112 0.037
0.315 0.116 0.037
0.314 0.118 0.037
0.310 0.120 0.036
0.312 0.124 0.037
0.322 0.131 0.038
0.400 0.179 0.048
0.396 0.181 0.047
0.389 0.182 0.047
0.380 0.182 0.045
0.372 0.182 0.045
0.365 0.182 0.044
0.354 0.181 0.043
0.346 0.180 0.042
0.343 0.182 0.042
0.340 0.185 0.041
0.331 0.183 0.040
0.323 0.182 0.039
0.319 0.184 0.039
0.315 0.185 0.039
0.309 0.185 0.038
0.306 0.186 0.038
0.299 0.186 0.037
0.293 0.185 0.036
0.287 0.185 0.036
0.283 0.186 0.035
0.280 0.187 0.035
0.274 0.186 0.035
0.269 0.186 0.034
0.266 0.188 0.034
0.262 0.188 0.033
0.261 0.191 0.033
0.261 0.194 0.034
0.260 0.197 0.034
0.260 0.200 0.034
0.259 0.203 0.034
0.259 0.206 0.034
0.259 0.210 0.034
0.258 0.213 0.034
0.258 0.216 0.034
0.258 0.220 0.034
0.257 0.223 0.034
0.257 0.227 0.035
0.257 0.231 0.035
0.257 0.234 0.035
0.257 0.238 0.035
0.256 0.241 0.035
0.255 0.244 0.035
0.255 0.248 0.035
0.253 0.251 0.035
0.379 0.395 0.054
0.374 0.396 0.054
0.307 0.342 0.045
0.303 0.343 0.045
0.301 0.346 0.045
0.299 0.349 0.045
0.293 0.348 0.044
0.292 0.352 0.044
0.299 0.367 0.046
0.301 0.376 0.046
0.301 0.382 0.047
0.299 0.385 0.047
0.297 0.388 0.047
0.171 -0.237 0.029
0.176 -0.240 0.030
0.180 -0.242 0.030
0.180 -0.239 0.030
0.185 -0.242 0.030
0.185 -0.239 0.030
0.186 -0.237 0.030
0.187 -0.235 0.030
0.191 -0.237 0.031
0.194 -0.237 0.031
0.195 -0.234 0.031
0.198 -0.235 0.031
0.203 -0.237 0.032
0.206 -0.237 0.032
0.208 -0.236 0.032
0.279 -0.259 0.041
0.281 -0.257 0.041
0.284 -0.256 0.041
0.293 -0.260 0.042
0.292 -0.255 0.042
0.295 -0.253 0.042
0.295 -0.250 0.042
0.292 -0.243 0.041
0.288 -0.236 0.040
0.220 -0.171 0.030
0.211 -0.162 0.029
0.208 -0.157 0.029
0.210 -0.156 0.029
0.208 -0.152 0.028
0.207 -0.148 0.028
0.207 -0.146 0.028
0.206 -0.143 0.028
0.209 -0.142 0.028
0.209 -0.140 0.028
0.207 -0.136 0.028
0.202 -0.131 0.027
0.201 -0.128 0.027
0.201 -0.126 0.027
0.204 -0.125 0.027
0.209 -0.126 0.028
0.209 -0.124 0.028
0.207 -0.120 0.027
0.206 -0.117 0.027
0.209 -0.116 0.027
0.211 -0.115 0.027
0.212 -0.114 0.028
0.211 -0.111 0.027
0.210 -0.108 0.027
0.213 -0.108 0.028
0.213 -0.105 0.027
0.206 -0.100 0.027
0.206 -0.098 0.026
0.215 -0.100 0.028
0.209 -0.095 0.027
0.212 -0.094 0.027
0.206 -0.089 0.026
0.216 -0.091 0.027
0.215 -0.089 0.027
0.216 -0.087 0.027
0.217 -0.085 0.027
0.216 -0.083 0.027
0.211 -0.079 0.027
0.216 -0.079 0.027
0.225 -0.080 0.028
0.227 -0.078 0.029
0.236 -0.079 0.030
0.231 -0.075 0.029
0.236 -0.075 0.030
0.241 -0.074 0.030
0.248 -0.074 0.031
0.261 -0.075 0.033
0.406 -0.109 0.050
0.415 -0.108 0.052
0.424 -0.106 0.053
0.423 -0.102 0.053
0.418 -0.097 0.052
0.360 -0.073 0.044
0.362 -0.071 0.045
0.358 -0.067 0.044
0.282 -0.047 0.035
0.283 -0.045 0.035
0.283 -0.042 0.035
0.281 -0.039 0.035
0.281 -0.037 0.035
0.283 -0.035 0.035
0.284 -0.032 0.035
0.287 -0.030 0.035
0.286 -0.027 0.035
0.286 -0.025 0.035
0.287 -0.022 0.035
0.287 -0.019 0.035
0.286 -0.017 0.035
0.284 -0.014 0.035
0.284 -0.012 0.035
0.285 -0.009 0.035
0.290 -0.007 0.036
0.301 -0.004 0.037
0.300 -0.001 0.037
0.296 0.001 0.036
0.302 0.004 0.037
0.296 0.007 0.036
0.295 0.009 0.036
0.297 0.012 0.036
0.287 0.014 0.035
0.286 0.017 0.035
0.300 0.020 0.037
0.303 0.023 0.037
0.305 0.026 0.038
0.303 0.029 0.037
0.303 0.031 0.037
0.307 0.035 0.038
0.309 0.038 0.038
0.313 0.041 0.039
0.307 0.043 0.038
0.306 0.046 0.038
0.311 0.049 0.038
0.321 0.054 0.040
0.322 0.057 0.040
0.326 0.061 0.040
0.329 0.064 0.041
0.312 0.064 0.039
0.300 0.064 0.037
0.290 0.065 0.036
0.295 0.069 0.037
0.302 0.073 0.038
0.314 0.079 0.039
0.322 0.084 0.040
0.313 0.085 0.039
0.317 0.089 0.040
0.313 0.090 0.039
0.301 0.090 0.038
0.296 0.091 0.037
0.303 0.096 0.038
0.314 0.103 0.040
0.314 0.106 0.040
0.308 0.107 0.039
0.305 0.109 0.039
0.304 0.112 0.039
0.298 0.112 0.038
0.302 0.117 0.038
0.306 0.122 0.039
0.317 0.129 0.040
0.320 0.133 0.041
0.393 0.176 0.050
0.394 0.180 0.051
0.389 0.182 0.050
0.377 0.181 0.049
0.371 0.182 0.048
0.356 0.178 0.046
0.352 0.180 0.046
0.345 0.180 0.045
0.341 0.182 0.045
0.336 0.183 0.044
0.329 0.182 0.043
0.324 0.183 0.043
0.316 0.182 0.042
0.311 0.183 0.041
0.311 0.186 0.041
0.302 0.185 0.040
0.299 0.186 0.040
0.292 0.185 0.039
0.286 0.184 0.039
0.282 0.185 0.038
0.278 0.186 0.038
0.271 0.185 0.037
0.267 0.185 0.037
0.264 0.187 0.036
0.262 0.189 0.036
0.261 0.191 0.036
0.261 0.194 0.036
0.260 0.197 0.036
0.260 0.200 0.036
0.259 0.203 0.036
0.259 0.206 0.037
0.259 0.210 0.037
0.258 0.213 0.037
0.258 0.217 0.037
0.258 0.220 0.037
0.257 0.223 0.037
0.257 0.227 0.037
0.258 0.231 0.038
0.257 0.234 0.038
0.256 0.238 0.038
0.255 0.241 0.038
0.254 0.244 0.038
0.254 0.248 0.038
0.253 0.251 0.038
0.340 0.348 0.052
0.312 0.341 0.049
0.303 0.337 0.048
0.296 0.336 0.047
0.294 0.338 0.047
0.294 0.344 0.047
0.292 0.347 0.047
0.294 0.356 0.048
0.298 0.366 0.049
0.300 0.374 0.050
0.301 0.381 0.050
0.300 0.387 0.050
0.299 0.391 0.050
0.181 -0.251 0.033
0.175 -0.239 0.032
0.178 -0.240 0.032
0.187 -0.249 0.033
0.264 -0.337 0.046
0.269 -0.338 0.047
0.268 -0.327 0.046
0.277 -0.319 0.047
0.279 -0.317 0.047
0.281 -0.315 0.047
0.284 -0.313 0.047
0.283 -0.307 0.047
0.283 -0.303 0.046
0.286 -0.301 0.047
0.289 -0.299 0.047
0.290 -0.296 0.047
0.288 -0.290 0.046
0.286 -0.283 0.046
0.288 -0.280 0.046
0.292 -0.280 0.046
0.292 -0.276 0.046
0.291 -0.271 0.045
0.291 -0.267 0.045
0.295 -0.266 0.046
0.297 -0.264 0.046
0.293 -0.256 0.045
0.292 -0.251 0.045
0.294 -0.248 0.045
0.291 -0.242 0.044
0.287 -0.235 0.043
0.212 -0.163 0.031
0.207 -0.156 0.031
0.209 -0.155 0.031
0.209 -0.152 0.031
0.206 -0.148 0.030
0.201 -0.142 0.029
0.203 -0.141 0.029
0.208 -0.142 0.030
0.212 -0.142 0.031
0.212 -0.139 0.030
0.204 -0.132 0.029
0.204 -0.130 0.029
0.205 -0.128 0.029
0.212 -0.130 0.030
0.214 -0.129 0.030
0.211 -0.125 0.030
0.208 -0.121 0.029
0.207 -0.118 0.029
0.206 -0.115 0.029
0.211 -0.115 0.030
0.213 -0.114 0.030
0.210 -0.110 0.029
0.207 -0.107 0.029
0.206 -0.104 0.029
0.207 -0.102 0.029
0.209 -0.101 0.029
0.206 -0.098 0.028
0.208 -0.096 0.029
0.202 -0.092 0.028
0.212 -0.094 0.029
0.203 -0.088 0.028
0.208 -0.088 0.028
0.213 -0.088 0.029
0.213 -0.086 0.029
0.214 -0.084 0.029
0.211 -0.081 0.029
0.211 -0.079 0.029
0.214 -0.078 0.029
0.221 -0.078 0.030
0.226 -0.078 0.030
0.224 -0.075 0.030
0.231 -0.075 0.031
0.232 -0.073 0.031
0.239 -0.073 0.032
0.250 -0.074 0.033
0.405 -0.109 0.054
0.422 -0.110 0.056
0.427 -0.107 0.057
0.426 -0.103 0.057
0.419 -0.097 0.056
0.411 -0.092 0.055
0.361 -0.070 0.048
0.355 -0.066 0.047
0.283 -0.047 0.038
0.284 -0.045 0.038
0.283 -0.042 0.037
0.282 -0.040 0.037
0.283 -0.037 0.037
0.285 -0.035 0.038
0.287 -0.032 0.038
0.285 -0.030 0.038
0.287 -0.027 0.038
0.286 -0.025 0.038
0.285 -0.022 0.038
0.287 -0.019 0.038
0.287 -0.017 0.038
0.287 -0.014 0.038
0.288 -0.012 0.038
0.288 -0.009 0.038
0.288 -0.007 0.038
0.287 -0.004 0.038
0.293 -0.001 0.039
0.296 0.001 0.039
0.298 0.004 0.039
0.304 0.007 0.040
0.304 0.010 0.040
0.296 0.012 0.039
0.287 0.014 0.038
0.284 0.017 0.037
0.284 0.019 0.037
0.290 0.022 0.038
0.293 0.025 0.039
0.299 0.028 0.039
0.296 0.031 0.039
0.300 0.034 0.040
0.305 0.037 0.040
0.306 0.040 0.040
0.304 0.043 0.040
0.305 0.046 0.040
0.309 0.049 0.041
0.318 0.053 0.042
0.326 0.058 0.043
0.337 0.063 0.045
0.321 0.063 0.043
0.311 0.064 0.041
0.302 0.065 0.040
0.302 0.067 0.040
0.298 0.069 0.040
0.293 0.071 0.039
0.309 0.078 0.041
0.325 0.085 0.044
0.324 0.088 0.043
0.307 0.086 0.041
0.306 0.089 0.041
0.301 0.090 0.040
0.298 0.092 0.040
0.306 0.097 0.041
0.314 0.103 0.042
0.309 0.104 0.042
0.304 0.106 0.041
0.296 0.106 0.040
0.294 0.108 0.040
0.298 0.112 0.041
0.305 0.118 0.042
0.327 0.130 0.045
0.320 0.130 0.044
0.323 0.135 0.044
0.327 0.140 0.045
0.391 0.175 0.054
0.391 0.179 0.054
0.383 0.179 0.053
0.379 0.181 0.053
0.370 0.181 0.052
0.360 0.180 0.050
0.349 0.178 0.049
0.344 0.180 0.048
0.340 0.181 0.048
0.335 0.182 0.047
0.330 0.183 0.047
0.323 0.183 0.046
0.316 0.182 0.045
0.311 0.183 0.044
0.306 0.183 0.044
0.302 0.184 0.043
0.297 0.185 0.043
0.294 0.186 0.042
0.289 0.187 0.042
0.282 0.186 0.041
0.279 0.187 0.041
0.271 0.185 0.040
0.267 0.185 0.039
0.264 0.187 0.039
0.262 0.189 0.039
0.261 0.191 0.039
0.260 0.194 0.039
0.260 0.197 0.039
0.260 0.200 0.039
0.259 0.203 0.039
0.259 0.207 0.039
0.258 0.210 0.039
0.258 0.213 0.039
0.259 0.217 0.040
0.258 0.220 0.040
0.257 0.223 0.040
0.257 0.227 0.040
0.258 0.231 0.040
0.256 0.234 0.040
0.255 0.237 0.040
0.254 0.239 0.040
0.254 0.244 0.041
0.255 0.249 0.041
0.254 0.252 0.041
0.262 0.265 0.043
0.303 0.333 0.051
0.295 0.329 0.050
0.290 0.329 0.049
0.292 0.336 0.050
0.293 0.344 0.051
0.293 0.349 0.051
0.293 0.354 0.051
0.299 0.368 0.053
0.301 0.376 0.053
0.300 0.381 0.054
0.298 0.385 0.054
0.294 0.385 0.053
0.169 -0.235 0.033
0.176 -0.241 0.034
0.178 -0.241 0.034
0.274 -0.354 0.051
0.271 -0.346 0.051
0.275 -0.346 0.051
0.280 -0.348 0.052
0.278 -0.341 0.051
0.282 -0.341 0.052
0.283 -0.337 0.051
0.284 -0.333 0.051
0.285 -0.329 0.051
0.283 -0.322 0.051
0.286 -0.320 0.051
0.288 -0.318 0.051
0.287 -0.312 0.050
0.285 -0.305 0.050
0.287 -0.302 0.050
0.288 -0.299 0.050
0.289 -0.295 0.050
0.288 -0.289 0.049
0.288 -0.285 0.049
0.287 -0.280 0.049
0.290 -0.279 0.049
0.292 -0.276 0.049
0.290 -0.270 0.048
0.288 -0.264 0.048
0.289 -0.261 0.048
0.294 -0.261 0.048
0.289 -0.253 0.047
0.289 -0.249 0.047
0.289 -0.244 0.047
0.287 -0.239 0.046
0.285 -0.234 0.046
0.274 -0.221 0.044
0.211 -0.162 0.034
0.208 -0.157 0.033
0.210 -0.156 0.033
0.212 -0.155 0.033
0.209 -0.150 0.033
0.199 -0.141 0.031
0.203 -0.141 0.031
0.213 -0.145 0.033
0.216 -0.145 0.033
0.216 -0.142 0.033
0.213 -0.138 0.033
0.206 -0.131 0.032
0.212 -0.132 0.032
0.210 -0.129 0.032
0.213 -0.128 0.032
0.214 -0.127 0.032
0.210 -0.122 0.032
0.204 -0.116 0.031
0.206 -0.115 0.031
0.201 -0.110 0.030
0.213 -0.114 0.032
0.211 -0.111 0.031
0.207 -0.107 0.031
0.205 -0.104 0.030
0.206 -0.102 0.031
0.202 -0.098 0.030
0.198 -0.094 0.029
0.199 -0.092 0.029
0.210 -0.095 0.031
0.199 -0.088 0.029
0.202 -0.088 0.030
0.202 -0.085 0.029
0.208 -0.086 0.030
0.215 -0.087 0.031
0.215 -0.085 0.031
0.212 -0.082 0.031
0.199 -0.075 0.029
0.215 -0.078 0.031
0.220 -0.078 0.032
0.224 -0.077 0.032
0.225 -0.075 0.032
0.229 -0.075 0.033
0.233 -0.074 0.033
0.238 -0.073 0.034
0.251 -0.075 0.036
0.275 -0.079 0.039
0.288 -0.080 0.041
0.424 -0.110 0.060
0.422 -0.106 0.060
0.414 -0.100 0.059
0.414 -0.096 0.059
0.405 -0.090 0.058
0.346 -0.071 0.049
0.351 -0.068 0.050
0.346 -0.064 0.049
0.285 -0.048 0.040
0.281 -0.045 0.040
0.283 -0.042 0.040
0.282 -0.040 0.040
0.289 -0.038 0.041
0.290 -0.035 0.041
0.287 -0.032 0.041
0.287 -0.030 0.040
0.285 -0.027 0.040
0.286 -0.025 0.040
0.287 -0.022 0.040
0.288 -0.020 0.041
0.291 -0.017 0.041
0.292 -0.015 0.041
0.292 -0.012 0.041
0.290 -0.009 0.041
0.288 -0.007 0.041
0.288 -0.004 0.041
0.289 -0.001 0.041
0.293 0.001 0.041
0.301 0.004 0.042
0.304 0.007 0.043
0.301 0.009 0.042
0.295 0.012 0.042
0.287 0.014 0.040
0.284 0.017 0.040
0.281 0.019 0.040
0.282 0.022 0.040
0.282 0.024 0.040
0.286 0.027 0.040
0.289 0.030 0.041
0.289 0.033 0.041
0.302 0.037 0.043
0.306 0.040 0.043
0.303 0.042 0.043
0.300 0.045 0.042
0.304 0.048 0.043
0.313 0.053 0.044
0.320 0.057 0.045
0.314 0.058 0.045
0.308 0.060 0.044
0.307 0.063 0.044
0.308 0.066 0.044
0.310 0.069 0.044
0.299 0.070 0.043
0.294 0.071 0.042
0.300 0.075 0.043
0.320 0.083 0.046
0.318 0.086 0.046
0.302 0.084 0.043
0.300 0.087 0.043
0.299 0.089 0.043
0.302 0.093 0.043
0.316 0.101 0.046
0.320 0.105 0.046
0.308 0.104 0.045
0.295 0.103 0.043
0.290 0.104 0.042
0.292 0.107 0.043
0.315 0.119 0.046
0.321 0.124 0.047
0.318 0.126 0.046
0.333 0.136 0.049
0.333 0.139 0.049
0.337 0.144 0.050
0.351 0.154 0.052
0.387 0.173 0.057
0.386 0.177 0.057
0.384 0.180 0.057
0.377 0.181 0.056
0.371 0.182 0.055
0.363 0.182 0.054
0.351 0.179 0.052
0.344 0.179 0.052
0.339 0.181 0.051
0.335 0.182 0.051
0.331 0.184 0.050
0.325 0.184 0.049
0.317 0.183 0.048
0.312 0.184 0.048
0.307 0.184 0.047
0.301 0.184 0.046
0.297 0.185 0.046
0.293 0.186 0.045
0.287 0.185 0.044
0.283 0.186 0.044
0.278 0.186 0.043
0.272 0.186 0.043
0.267 0.185 0.042
0.264 0.187 0.042
0.262 0.189 0.041
0.261 0.191 0.041
0.260 0.194 0.041
0.260 0.197 0.042
0.260 0.201 0.042
0.260 0.204 0.042
0.258 0.206 0.042
0.257 0.209 0.042
0.258 0.213 0.042
0.259 0.218 0.042
0.258 0.220 0.043
0.257 0.223 0.042
0.258 0.228 0.043
0.257 0.231 0.043
0.256 0.234 0.043
0.254 0.236 0.043
0.254 0.240 0.043
0.255 0.245 0.044
0.256 0.250 0.044
0.255 0.253 0.044
0.256 0.258 0.045
0.263 0.270 0.046
0.274 0.286 0.048
0.283 0.300 0.050
0.281 0.303 0.050
0.282 0.314 0.051
0.286 0.325 0.052
0.289 0.334 0.053
0.291 0.341 0.054
0.291 0.347 0.054
0.294 0.356 0.055
0.300 0.369 0.056
0.301 0.376 0.057
0.299 0.379 0.057
0.295 0.381 0.057
0.291 0.382 0.056
0.171 -0.237 0.035
0.176 -0.240 0.036
0.184 -0.248 0.037
0.193 -0.257 0.039
0.275 -0.357 0.055
0.278 -0.356 0.055
0.280 -0.353 0.055
0.282 -0.350 0.055
0.283 -0.346 0.055
0.283 -0.341 0.055
0.285 -0.339 0.055
0.286 -0.336 0.055
0.287 -0.331 0.055
0.288 -0.327 0.055
0.288 -0.323 0.055
0.289 -0.319 0.054
0.290 -0.315 0.054
0.290 -0.310 0.054
0.288 -0.304 0.053
0.291 -0.302 0.053
0.288 -0.294 0.053
0.287 -0.289 0.052
0.288 -0.286 0.052
0.289 -0.282 0.052
0.289 -0.278 0.052
0.289 -0.274 0.052
0.288 -0.268 0.051
0.286 -0.262 0.051
0.285 -0.258 0.050
0.286 -0.254 0.050
0.286 -0.250 0.050
0.286 -0.246 0.050
0.283 -0.239 0.049
0.282 -0.235 0.048
0.281 -0.230 0.048
0.276 -0.223 0.047
0.209 -0.158 0.035
0.209 -0.155 0.035
0.208 -0.152 0.035
0.205 -0.148 0.034
0.201 -0.142 0.033
0.210 -0.146 0.035
0.214 -0.146 0.035
0.215 -0.144 0.035
0.213 -0.140 0.035
0.213 -0.138 0.035
0.212 -0.135 0.035
0.207 -0.129 0.034
0.207 -0.127 0.033
0.208 -0.126 0.034
0.211 -0.125 0.034
0.215 -0.125 0.034
0.215 -0.123 0.034
0.204 -0.114 0.033
0.209 -0.115 0.033
0.205 -0.110 0.033
0.214 -0.113 0.034
0.212 -0.109 0.034
0.208 -0.105 0.033
0.208 -0.103 0.033
0.208 -0.101 0.033
0.208 -0.099 0.033
0.207 -0.096 0.032
0.208 -0.094 0.032
0.215 -0.095 0.033
0.201 -0.087 0.031
0.211 -0.089 0.033
0.204 -0.085 0.032
0.216 -0.087 0.033
0.217 -0.085 0.034
0.216 -0.083 0.033
0.217 -0.081 0.033
0.218 -0.080 0.034
0.222 -0.079 0.034
0.220 -0.076 0.034
0.224 -0.075 0.034
0.230 -0.075 0.035
0.234 -0.074 0.036
0.240 -0.074 0.037
0.261 -0.078 0.040
0.263 -0.076 0.040
0.279 -0.078 0.042
0.390 -0.105 0.059
0.398 -0.104 0.060
0.400 -0.100 0.061
0.403 -0.097 0.061
0.401 -0.093 0.061
0.396 -0.088 0.060
0.384 -0.082 0.058
0.338 -0.066 0.051
0.337 -0.063 0.051
0.321 -0.057 0.048
0.278 -0.047 0.042
0.283 -0.045 0.043
0.283 -0.042 0.043
0.284 -0.040 0.043
0.285 -0.037 0.043
0.290 -0.036 0.044
0.288 -0.033 0.043
0.281 -0.029 0.042
0.285 -0.027 0.043
0.286 -0.025 0.043
0.288 -0.022 0.043
0.291 -0.020 0.044
0.291 -0.017 0.044
0.292 -0.015 0.044
0.291 -0.012 0.044
0.289 -0.009 0.043
0.290 -0.007 0.044
0.291 -0.004 0.044
0.290 -0.001 0.043
0.290 0.001 0.044
0.297 0.004 0.045
0.294 0.007 0.044
0.290 0.009 0.043
0.288 0.012 0.043
0.285 0.014 0.043
0.283 0.017 0.043
0.284 0.019 0.043
0.284 0.022 0.043
0.280 0.024 0.042
0.277 0.026 0.042
0.275 0.029 0.041
0.283 0.032 0.043
0.291 0.036 0.044
0.304 0.040 0.046
0.300 0.042 0.045
0.297 0.044 0.045
0.303 0.048 0.046
0.303 0.051 0.046
0.301 0.053 0.046
0.303 0.056 0.046
0.306 0.060 0.046
0.311 0.064 0.047
0.309 0.066 0.047
0.304 0.068 0.046
0.302 0.070 0.046
0.305 0.074 0.046
0.312 0.078 0.047
0.312 0.081 0.048
0.302 0.082 0.046
0.298 0.083 0.045
0.290 0.084 0.044
0.286 0.086 0.044
0.293 0.090 0.045
0.308 0.098 0.047
0.322 0.106 0.050
0.309 0.104 0.048
0.294 0.102 0.045
0.292 0.104 0.045
0.302 0.111 0.047
0.311 0.117 0.048
0.323 0.125 0.050
0.333 0.136 0.052
0.348 0.145 0.054
0.351 0.150 0.055
0.363 0.159 0.057
0.380 0.170 0.060
0.380 0.175 0.060
0.378 0.178 0.060
0.375 0.180 0.059
0.371 0.182 0.059
0.363 0.182 0.058
0.351 0.179 0.056
0.344 0.180 0.055
0.338 0.180 0.054
0.334 0.182 0.054
0.330 0.183 0.053
0.325 0.184 0.052
0.317 0.183 0.051
0.311 0.183 0.050
0.303 0.182 0.049
0.301 0.184 0.049
0.297 0.185 0.049
0.292 0.185 0.048
0.287 0.186 0.047
0.283 0.186 0.047
0.278 0.187 0.046
0.272 0.186 0.045
0.266 0.185 0.044
0.264 0.187 0.044
0.262 0.189 0.044
0.261 0.191 0.044
0.260 0.194 0.044
0.260 0.197 0.044
0.260 0.201 0.044
0.259 0.204 0.044
0.258 0.206 0.044
0.257 0.209 0.044
0.258 0.214 0.045
0.258 0.217 0.045
0.258 0.220 0.045
0.258 0.224 0.045
0.257 0.227 0.045
0.256 0.231 0.046
0.255 0.233 0.046
0.255 0.237 0.046
0.254 0.241 0.046
0.255 0.245 0.046
0.254 0.249 0.047
0.254 0.252 0.047
0.257 0.260 0.048
0.266 0.273 0.049
0.280 0.293 0.053
0.278 0.295 0.052
0.272 0.294 0.052
0.267 0.293 0.051
0.270 0.302 0.052
0.279 0.317 0.054
0.285 0.329 0.056
0.285 0.334 0.056
0.289 0.345 0.057
0.299 0.363 0.060
0.300 0.370 0.060
0.297 0.372 0.060
0.292 0.372 0.059
0.293 0.379 0.060
0.289 0.380 0.060
0.152 -0.211 0.033
0.184 -0.249 0.040
0.189 -0.253 0.041
0.277 -0.360 0.059
0.279 -0.357 0.059
0.281 -0.355 0.059
0.282 -0.351 0.059
0.281 -0.345 0.058
0.283 -0.342 0.058
0.286 -0.341 0.059
0.287 -0.337 0.059
0.287 -0.332 0.058
0.288 -0.328 0.058
0.289 -0.324 0.058
0.290 -0.320 0.058
0.292 -0.318 0.058
0.292 -0.313 0.058
0.292 -0.308 0.057
0.291 -0.303 0.057
0.290 -0.297 0.056
0.288 -0.290 0.056
0.288 -0.286 0.055
0.289 -0.283 0.055
0.290 -0.279 0.055
0.290 -0.275 0.055
0.288 -0.269 0.054
0.286 -0.262 0.054
0.286 -0.258 0.053
0.285 -0.253 0.053
0.285 -0.249 0.053
0.284 -0.245 0.052
0.282 -0.239 0.052
0.281 -0.235 0.051
0.280 -0.230 0.051
0.278 -0.224 0.050
0.220 -0.169 0.039
0.214 -0.162 0.038
0.206 -0.153 0.037
0.207 -0.151 0.037
0.203 -0.146 0.036
0.202 -0.143 0.036
0.206 -0.143 0.036
0.211 -0.145 0.037
0.211 -0.142 0.037
0.211 -0.139 0.037
0.211 -0.137 0.036
0.208 -0.133 0.036
0.202 -0.126 0.035
0.200 -0.123 0.034
0.205 -0.124 0.035
0.205 -0.122 0.035
0.208 -0.121 0.035
0.213 -0.121 0.036
0.202 -0.113 0.034
0.209 -0.115 0.035
0.205 -0.110 0.035
0.213 -0.112 0.036
0.215 -0.111 0.036
0.213 -0.108 0.036
0.212 -0.105 0.035
0.211 -0.102 0.035
0.202 -0.096 0.034
0.204 -0.095 0.034
0.205 -0.093 0.034
0.212 -0.094 0.035
0.203 -0.088 0.034
0.215 -0.091 0.036
0.204 -0.084 0.034
0.213 -0.086 0.035
0.216 -0.085 0.035
0.211 -0.081 0.035
0.217 -0.081 0.036
0.210 -0.077 0.034
0.218 -0.077 0.035
0.219 -0.076 0.036
0.222 -0.075 0.036
0.228 -0.075 0.037
0.232 -0.074 0.038
0.247 -0.076 0.040
0.250 -0.075 0.041
0.264 -0.076 0.043
0.271 -0.076 0.044
0.370 -0.100 0.060
0.385 -0.100 0.062
0.395 -0.099 0.064
0.395 -0.095 0.064
0.392 -0.091 0.063
0.389 -0.087 0.062
0.376 -0.081 0.060
0.361 -0.074 0.058
0.351 -0.069 0.056
0.336 -0.063 0.054
0.281 -0.047 0.045
0.284 -0.045 0.045
0.287 -0.043 0.046
0.286 -0.040 0.046
0.286 -0.038 0.046
0.285 -0.035 0.046
0.282 -0.032 0.045
0.283 -0.029 0.045
0.283 -0.027 0.045
0.285 -0.025 0.045
0.290 -0.022 0.046
0.291 -0.020 0.046
0.290 -0.017 0.046
0.288 -0.014 0.046
0.291 -0.012 0.046
0.292 -0.009 0.046
0.292 -0.007 0.046
0.292 -0.004 0.046
0.290 -0.001 0.046
0.289 0.001 0.046
0.290 0.004 0.046
0.292 0.007 0.046
0.285 0.009 0.045
0.282 0.011 0.045
0.282 0.014 0.045
0.282 0.017 0.045
0.284 0.019 0.045
0.296 0.023 0.047
0.288 0.025 0.046
0.282 0.027 0.045
0.281 0.029 0.045
0.282 0.032 0.045
0.294 0.036 0.047
0.295 0.039 0.047
0.308 0.043 0.049
0.298 0.045 0.048
0.299 0.048 0.048
0.300 0.050 0.048
0.289 0.051 0.046
0.311 0.058 0.050
0.314 0.062 0.050
0.309 0.063 0.050
0.306 0.066 0.049
0.301 0.067 0.049
0.298 0.069 0.048
0.297 0.072 0.048
0.303 0.076 0.049
0.304 0.079 0.049
0.297 0.081 0.048
0.293 0.082 0.048
0.289 0.084 0.047
0.284 0.085 0.046
0.285 0.088 0.046
0.285 0.091 0.046
0.293 0.099 0.048
0.291 0.101 0.048
0.288 0.103 0.047
0.296 0.109 0.049
0.305 0.115 0.050
0.300 0.116 0.049
0.308 0.122 0.051
0.356 0.149 0.059
0.367 0.157 0.061
0.377 0.165 0.063
0.377 0.169 0.063
0.373 0.171 0.062
0.370 0.174 0.062
0.372 0.179 0.062
0.368 0.180 0.062
0.358 0.180 0.060
0.353 0.180 0.060
0.344 0.180 0.058
0.338 0.180 0.057
0.333 0.181 0.057
0.328 0.182 0.056
0.321 0.182 0.055
0.315 0.182 0.054
0.310 0.183 0.053
0.306 0.184 0.053
0.299 0.183 0.052
0.296 0.185 0.051
0.292 0.185 0.051
0.287 0.186 0.050
0.283 0.187 0.050
0.278 0.187 0.049
0.268 0.183 0.047
0.265 0.185 0.047
0.263 0.187 0.047
0.262 0.189 0.047
0.261 0.191 0.047
0.260 0.194 0.047
0.259 0.197 0.047
0.259 0.200 0.047
0.259 0.204 0.047
0.258 0.206 0.047
0.259 0.210 0.047
0.258 0.214 0.048
0.258 0.217 0.048
0.258 0.221 0.048
0.257 0.224 0.048
0.257 0.227 0.048
0.256 0.231 0.048
0.256 0.235 0.049
0.255 0.238 0.049
0.255 0.242 0.049
0.255 0.246 0.049
0.254 0.249 0.049
0.252 0.251 0.049
0.255 0.258 0.050
0.278 0.286 0.055
0.280 0.293 0.056
0.279 0.297 0.056
0.268 0.290 0.054
0.261 0.287 0.053
0.263 0.294 0.054
0.269 0.306 0.055
0.276 0.319 0.057
0.284 0.334 0.059
0.288 0.344 0.060
0.297 0.361 0.063
0.299 0.369 0.064
0.293 0.368 0.063
0.287 0.366 0.062
0.289 0.373 0.063
0.289 0.379 0.063
0.117 -0.162 0.027
0.119 -0.164 0.027
0.123 -0.167 0.028
0.281 -0.355 0.062
0.281 -0.350 0.062
0.277 -0.340 0.061
0.282 -0.341 0.062
0.286 -0.341 0.062
0.287 -0.337 0.062
0.288 -0.333 0.062
0.289 -0.329 0.062
0.289 -0.325 0.061
0.290 -0.321 0.061
0.292 -0.318 0.061
0.293 -0.315 0.061
0.291 -0.308 0.060
0.291 -0.303 0.060
0.290 -0.297 0.060
0.290 -0.293 0.059
0.292 -0.290 0.059
0.289 -0.283 0.058
0.290 -0.280 0.058
0.291 -0.276 0.058
0.290 -0.270 0.058
0.289 -0.265 0.057
0.287 -0.260 0.057
0.286 -0.255 0.056
0.285 -0.250 0.056
0.285 -0.246 0.055
0.284 -0.241 0.055
0.284 -0.237 0.055
0.282 -0.232 0.054
0.278 -0.225 0.053
0.269 -0.214 0.051
0.209 -0.161 0.040
0.201 -0.152 0.038
0.203 -0.151 0.038
0.203 -0.149 0.038
0.202 -0.145 0.038
0.200 -0.142 0.037
0.203 -0.141 0.038
0.205 -0.140 0.038
0.206 -0.139 0.038
0.208 -0.137 0.038
0.212 -0.138 0.039
0.213 -0.136 0.039
0.211 -0.132 0.038
0.203 -0.125 0.037
0.202 -0.122 0.037
0.202 -0.120 0.037
0.203 -0.118 0.037
0.209 -0.119 0.037
0.214 -0.120 0.038
0.201 -0.110 0.036
0.203 -0.109 0.036
0.204 -0.107 0.036
0.216 -0.112 0.038
0.218 -0.110 0.039
0.218 -0.108 0.039
0.213 -0.103 0.038
0.210 -0.100 0.037
0.202 -0.094 0.036
0.203 -0.093 0.036
0.204 -0.091 0.036
0.219 -0.095 0.038
0.211 -0.088 0.037
0.206 -0.083 0.036
0.211 -0.083 0.037
0.214 -0.082 0.037
0.204 -0.077 0.035
0.202 -0.074 0.035
0.215 -0.077 0.037
0.218 -0.075 0.037
0.221 -0.074 0.038
0.229 -0.075 0.039
0.236 -0.075 0.040
0.240 -0.074 0.041
0.252 -0.075 0.043
0.259 -0.075 0.044
0.266 -0.074 0.045
0.383 -0.100 0.065
0.392 -0.099 0.067
0.390 -0.094 0.066
0.387 -0.090 0.066
0.386 -0.086 0.066
0.383 -0.082 0.065
0.372 -0.076 0.063
0.361 -0.071 0.061
0.348 -0.065 0.059
0.299 -0.053 0.051
0.289 -0.049 0.049
0.285 -0.045 0.048
0.286 -0.043 0.048
0.286 -0.040 0.048
0.285 -0.037 0.048
0.283 -0.035 0.048
0.283 -0.032 0.048
0.281 -0.029 0.047
0.283 -0.027 0.048
0.288 -0.025 0.048
0.290 -0.022 0.049
0.295 -0.020 0.050
0.291 -0.017 0.049
0.287 -0.014 0.048
0.290 -0.012 0.049
0.292 -0.009 0.049
0.293 -0.007 0.049
0.294 -0.004 0.049
0.291 -0.001 0.049
0.286 0.001 0.048
0.293 0.004 0.049
0.295 0.007 0.050
0.290 0.009 0.049
0.283 0.011 0.048
0.286 0.014 0.048
0.290 0.017 0.049
0.289 0.020 0.049
0.301 0.023 0.051
0.295 0.025 0.050
0.292 0.028 0.049
0.290 0.030 0.049
0.291 0.033 0.049
0.296 0.036 0.050
0.303 0.040 0.051
0.303 0.043 0.051
0.299 0.045 0.051
0.298 0.047 0.050
0.305 0.051 0.052
0.307 0.055 0.052
0.311 0.058 0.053
0.308 0.060 0.052
0.302 0.062 0.051
0.301 0.065 0.051
0.301 0.067 0.051
0.297 0.069 0.051
0.288 0.070 0.049
0.292 0.074 0.050
0.294 0.077 0.050
0.294 0.080 0.050
0.294 0.083 0.050
0.300 0.087 0.052
0.294 0.088 0.051
0.290 0.090 0.050
0.286 0.091 0.049
0.269 0.091 0.047
0.281 0.098 0.049
0.282 0.101 0.049
0.281 0.103 0.049
0.299 0.113 0.052
0.301 0.117 0.052
0.306 0.122 0.053
0.358 0.150 0.063
0.370 0.159 0.065
0.374 0.164 0.066
0.373 0.168 0.066
0.368 0.169 0.065
0.365 0.171 0.065
0.367 0.177 0.065
0.365 0.179 0.065
0.359 0.180 0.064
0.352 0.180 0.063
0.346 0.181 0.062
0.338 0.180 0.061
0.332 0.181 0.060
0.326 0.181 0.059
0.321 0.182 0.058
0.315 0.182 0.057
0.310 0.183 0.056
0.304 0.183 0.056
0.299 0.183 0.055
0.295 0.184 0.054
0.292 0.186 0.054
0.287 0.186 0.053
0.282 0.186 0.052
0.276 0.185 0.051
0.272 0.186 0.051
0.265 0.185 0.050
0.264 0.187 0.050
0.262 0.189 0.049
0.261 0.192 0.049
0.259 0.194 0.049
0.258 0.197 0.049
0.259 0.201 0.050
0.259 0.204 0.050
0.260 0.208 0.050
0.259 0.211 0.050
0.258 0.214 0.050
0.257 0.217 0.050
0.258 0.221 0.051
0.257 0.224 0.051
0.257 0.228 0.051
0.258 0.232 0.051
0.256 0.235 0.051
0.256 0.238 0.052
0.256 0.243 0.052
0.255 0.246 0.052
0.254 0.249 0.052
0.253 0.252 0.052
0.266 0.270 0.055
0.271 0.279 0.057
0.280 0.294 0.059
0.274 0.292 0.058
0.264 0.286 0.056
0.259 0.285 0.055
0.262 0.294 0.057
0.266 0.303 0.058
0.272 0.314 0.059
0.279 0.328 0.061
0.286 0.342 0.063
0.294 0.357 0.066
0.296 0.365 0.066
0.291 0.365 0.066
0.286 0.364 0.065
0.285 0.369 0.065
0.289 0.380 0.067
0.106 -0.148 0.026
0.113 -0.155 0.027
0.118 -0.159 0.028
0.278 -0.336 0.064
0.283 -0.337 0.065
0.287 -0.338 0.065
0.289 -0.334 0.065
0.288 -0.328 0.065
0.289 -0.325 0.065
0.290 -0.321 0.064
0.292 -0.319 0.065
0.293 -0.314 0.064
0.291 -0.308 0.064
0.291 -0.303 0.063
0.292 -0.299 0.063
0.292 -0.295 0.063
0.293 -0.292 0.063
0.290 -0.284 0.062
0.290 -0.280 0.062
0.291 -0.276 0.061
0.290 -0.271 0.061
0.289 -0.266 0.060
0.289 -0.262 0.060
0.288 -0.256 0.060
0.288 -0.252 0.059
0.285 -0.246 0.058
0.285 -0.242 0.058
0.285 -0.238 0.058
0.283 -0.233 0.057
0.280 -0.227 0.056
0.273 -0.218 0.055
0.264 -0.207 0.053
0.199 -0.151 0.040
0.198 -0.147 0.039
0.200 -0.147 0.040
0.200 -0.145 0.039
0.201 -0.142 0.039
0.203 -0.141 0.040
0.208 -0.142 0.040
0.206 -0.138 0.040
0.206 -0.136 0.040
0.214 -0.139 0.041
0.221 -0.141 0.043
0.215 -0.135 0.041
0.209 -0.129 0.040
0.202 -0.122 0.039
0.203 -0.121 0.039
0.204 -0.119 0.039
0.206 -0.118 0.039
0.214 -0.120 0.040
0.219 -0.120 0.041
0.202 -0.109 0.038
0.213 -0.112 0.040
0.210 -0.109 0.039
0.215 -0.109 0.040
0.215 -0.107 0.040
0.213 -0.103 0.040
0.209 -0.099 0.039
0.206 -0.096 0.038
0.212 -0.097 0.039
0.215 -0.096 0.040
0.213 -0.093 0.039
0.220 -0.093 0.040
0.208 -0.086 0.038
0.219 -0.089 0.040
0.211 -0.083 0.039
0.213 -0.082 0.039
0.214 -0.080 0.039
0.216 -0.079 0.039
0.219 -0.078 0.040
0.218 -0.075 0.040
0.222 -0.075 0.040
0.229 -0.075 0.041
0.234 -0.074 0.042
0.237 -0.073 0.043
0.246 -0.073 0.044
0.254 -0.073 0.046
0.263 -0.073 0.047
0.366 -0.099 0.066
0.382 -0.100 0.069
0.391 -0.098 0.070
0.389 -0.094 0.070
0.385 -0.090 0.069
0.384 -0.086 0.069
0.381 -0.082 0.068
0.382 -0.078 0.068
0.372 -0.073 0.066
0.284 -0.048 0.051
0.281 -0.045 0.050
0.281 -0.042 0.050
0.282 -0.040 0.050
0.282 -0.037 0.050
0.283 -0.035 0.050
0.283 -0.032 0.050
0.283 -0.030 0.050
0.283 -0.027 0.050
0.284 -0.024 0.050
0.291 -0.022 0.052
0.296 -0.020 0.053
0.293 -0.017 0.052
0.290 -0.014 0.051
0.291 -0.012 0.052
0.294 -0.009 0.052
0.293 -0.007 0.052
0.293 -0.004 0.052
0.291 -0.001 0.052
0.288 0.001 0.051
0.295 0.004 0.052
0.295 0.007 0.052
0.291 0.009 0.052
0.293 0.012 0.052
0.295 0.015 0.052
0.291 0.017 0.052
0.297 0.020 0.053
0.294 0.023 0.052
0.293 0.025 0.052
0.295 0.028 0.053
0.296 0.031 0.053
0.294 0.033 0.052
0.294 0.036 0.052
0.302 0.040 0.054
0.302 0.042 0.054
0.299 0.045 0.053
0.299 0.048 0.053
0.306 0.052 0.055
0.307 0.055 0.055
0.304 0.057 0.054
0.305 0.060 0.055
0.297 0.061 0.053
0.297 0.064 0.053
0.298 0.067 0.053
0.293 0.068 0.053
0.286 0.069 0.051
0.288 0.073 0.052
0.296 0.078 0.053
0.298 0.081 0.054
0.299 0.084 0.054
0.301 0.087 0.054
0.298 0.089 0.054
0.292 0.091 0.053
0.296 0.095 0.054
0.288 0.095 0.052
0.265 0.090 0.048
0.272 0.098 0.050
0.264 0.097 0.048
0.296 0.112 0.054
0.299 0.116 0.055
0.294 0.117 0.054
0.337 0.138 0.062
0.343 0.143 0.063
0.330 0.142 0.061
0.359 0.157 0.066
0.366 0.164 0.068
0.362 0.167 0.068
0.359 0.169 0.067
0.356 0.171 0.067
0.364 0.179 0.068
0.354 0.178 0.067
0.349 0.179 0.066
0.343 0.180 0.065
0.336 0.180 0.064
0.330 0.180 0.063
0.325 0.181 0.062
0.321 0.182 0.061
0.315 0.182 0.060
0.309 0.182 0.059
0.304 0.183 0.059
0.298 0.183 0.058
0.295 0.184 0.057
0.292 0.186 0.057
0.287 0.186 0.056
0.282 0.186 0.055
0.275 0.185 0.054
0.269 0.184 0.053
0.267 0.186 0.053
0.265 0.188 0.052
0.263 0.190 0.052
0.261 0.192 0.052
0.260 0.194 0.052
0.259 0.197 0.052
0.260 0.202 0.053
0.261 0.206 0.053
0.259 0.208 0.053
0.259 0.211 0.053
0.259 0.215 0.053
0.258 0.218 0.053
0.257 0.221 0.053
0.257 0.224 0.054
0.257 0.228 0.054
0.257 0.232 0.054
0.256 0.235 0.054
0.254 0.237 0.054
0.256 0.243 0.055
0.255 0.246 0.055
0.254 0.249 0.055
0.253 0.252 0.055
0.266 0.269 0.058
0.266 0.274 0.059
0.268 0.281 0.059
0.263 0.281 0.059
0.249 0.270 0.056
0.255 0.281 0.058
0.260 0.292 0.059
0.267 0.304 0.061
0.273 0.316 0.063
0.281 0.331 0.065
0.281 0.337 0.066
0.284 0.345 0.067
0.288 0.356 0.068
0.290 0.364 0.069
0.283 0.361 0.068
0.281 0.364 0.068
0.282 0.372 0.069
0.105 -0.146 0.027
0.107 -0.146 0.027
0.106 -0.144 0.027
0.107 -0.143 0.027
0.108 -0.142 0.027
0.113 -0.146 0.028
0.288 -0.333 0.068
0.287 -0.328 0.068
0.287 -0.323 0.068
0.289 -0.320 0.068
0.291 -0.317 0.068
0.292 -0.314 0.068
0.292 -0.309 0.067
0.292 -0.305 0.067
0.292 -0.300 0.066
0.293 -0.296 0.066
0.293 -0.292 0.066
0.291 -0.285 0.065
0.290 -0.280 0.065
0.290 -0.276 0.064
0.290 -0.271 0.064
0.290 -0.267 0.064
0.289 -0.262 0.063
0.289 -0.258 0.063
0.289 -0.254 0.063
0.286 -0.247 0.062
0.286 -0.243 0.061
0.286 -0.239 0.061
0.285 -0.235 0.061
0.282 -0.228 0.060
0.276 -0.220 0.058
0.269 -0.211 0.057
0.204 -0.155 0.043
0.197 -0.147 0.041
0.198 -0.145 0.041
0.200 -0.144 0.041
0.199 -0.141 0.041
0.207 -0.144 0.043
0.210 -0.144 0.043
0.208 -0.140 0.043
0.204 -0.135 0.042
0.211 -0.137 0.043
0.218 -0.139 0.044
0.217 -0.136 0.044
0.203 -0.125 0.041
0.204 -0.123 0.041
0.204 -0.121 0.041
0.206 -0.120 0.041
0.206 -0.118 0.041
0.206 -0.115 0.041
0.204 -0.112 0.040
0.203 -0.109 0.040
0.206 -0.109 0.041
0.205 -0.106 0.040
0.207 -0.105 0.041
0.210 -0.104 0.041
0.210 -0.102 0.041
0.208 -0.099 0.041
0.207 -0.096 0.040
0.208 -0.095 0.040
0.212 -0.094 0.041
0.200 -0.087 0.039
0.210 -0.089 0.041
0.198 -0.082 0.038
0.209 -0.085 0.040
0.209 -0.083 0.040
0.211 -0.082 0.041
0.219 -0.082 0.042
0.225 -0.083 0.043
0.223 -0.080 0.043
0.222 -0.077 0.042
0.220 -0.074 0.042
0.231 -0.076 0.044
0.232 -0.074 0.044
0.234 -0.072 0.044
0.239 -0.071 0.045
0.250 -0.072 0.047
0.259 -0.073 0.049
0.361 -0.098 0.068
0.375 -0.098 0.071
0.384 -0.097 0.073
0.387 -0.094 0.073
0.383 -0.089 0.072
0.358 -0.080 0.067
0.361 -0.077 0.068
0.377 -0.077 0.071
0.370 -0.072 0.069
0.295 -0.052 0.055
0.281 -0.047 0.053
0.274 -0.044 0.051
0.278 -0.042 0.052
0.281 -0.040 0.053
0.282 -0.037 0.053
0.282 -0.035 0.053
0.284 -0.032 0.053
0.285 -0.030 0.053
0.287 -0.027 0.054
0.281 -0.024 0.053
0.282 -0.022 0.053
0.289 -0.020 0.054
0.290 -0.017 0.054
0.288 -0.014 0.054
0.291 -0.012 0.054
0.291 -0.009 0.054
0.292 -0.007 0.055
0.291 -0.004 0.054
0.289 -0.001 0.054
0.291 0.001 0.054
0.294 0.004 0.055
0.293 0.007 0.055
0.293 0.009 0.055
0.297 0.012 0.055
0.294 0.015 0.055
0.293 0.017 0.055
0.292 0.020 0.055
0.294 0.023 0.055
0.290 0.025 0.054
0.293 0.028 0.055
0.297 0.031 0.056
0.296 0.034 0.055
0.293 0.036 0.055
0.302 0.040 0.057
0.303 0.043 0.057
0.300 0.045 0.056
0.303 0.048 0.057
0.301 0.051 0.057
0.301 0.053 0.057
0.303 0.057 0.057
0.302 0.059 0.057
0.302 0.062 0.057
0.297 0.064 0.056
0.293 0.066 0.055
0.292 0.068 0.055
0.284 0.069 0.054
0.289 0.073 0.055
0.290 0.076 0.055
0.299 0.081 0.057
0.298 0.084 0.057
0.297 0.086 0.057
0.296 0.089 0.056
0.288 0.089 0.055
0.290 0.093 0.055
0.293 0.096 0.056
0.280 0.095 0.054
0.277 0.097 0.053
0.256 0.094 0.049
0.276 0.105 0.053
0.291 0.113 0.056
0.298 0.119 0.058
0.320 0.131 0.062
0.327 0.137 0.064
0.327 0.140 0.064
0.331 0.145 0.065
0.345 0.155 0.067
0.352 0.162 0.069
0.351 0.165 0.069
0.347 0.167 0.068
0.343 0.169 0.068
0.343 0.172 0.068
0.341 0.175 0.067
0.335 0.176 0.067
0.332 0.177 0.066
0.326 0.178 0.065
0.323 0.180 0.065
0.320 0.182 0.064
0.315 0.183 0.063
0.309 0.183 0.062
0.303 0.182 0.061
0.297 0.182 0.060
0.294 0.184 0.060
0.290 0.185 0.059
0.286 0.185 0.059
0.281 0.186 0.058
0.275 0.185 0.057
0.270 0.185 0.056
0.266 0.186 0.055
0.265 0.188 0.055
0.263 0.190 0.055
0.261 0.192 0.055
0.260 0.194 0.055
0.260 0.198 0.055
0.261 0.202 0.055
0.260 0.205 0.056
0.260 0.209 0.056
0.259 0.212 0.056
0.259 0.215 0.056
0.258 0.218 0.056
0.257 0.221 0.056
0.257 0.225 0.056
0.256 0.228 0.057
0.256 0.232 0.057
0.255 0.235 0.057
0.255 0.238 0.057
0.255 0.242 0.057
0.254 0.246 0.058
0.254 0.250 0.058
0.252 0.252 0.058
0.261 0.265 0.060
0.257 0.266 0.060
0.254 0.266 0.059
0.252 0.269 0.059
0.250 0.272 0.059
0.250 0.276 0.059
0.260 0.291 0.062
0.264 0.301 0.064
0.273 0.317 0.066
0.276 0.325 0.067
0.278 0.333 0.068
0.278 0.338 0.069
0.281 0.348 0.070
0.276 0.352 0.070
0.274 0.355 0.070
0.230 0.303 0.059
0.107 -0.148 0.028
0.106 -0.146 0.028
0.106 -0.144 0.028
0.107 -0.143 0.028
0.107 -0.141 0.028
0.107 -0.139 0.028
0.105 -0.135 0.027
0.110 -0.137 0.028
0.113 -0.140 0.029
0.134 -0.160 0.034
0.138 -0.163 0.035
0.286 -0.322 0.071
0.288 -0.320 0.071
0.291 -0.318 0.071
0.292 -0.314 0.071
0.293 -0.310 0.071
0.292 -0.304 0.070
0.292 -0.301 0.070
0.293 -0.296 0.069
0.292 -0.291 0.069
0.291 -0.286 0.068
0.291 -0.281 0.068
0.290 -0.276 0.068
0.290 -0.271 0.067
0.290 -0.267 0.067
0.289 -0.262 0.066
0.288 -0.257 0.066
0.289 -0.254 0.066
0.288 -0.249 0.065
0.286 -0.244 0.065
0.286 -0.239 0.064
0.285 -0.235 0.064
0.283 -0.229 0.063
0.278 -0.221 0.062
0.209 -0.161 0.046
0.204 -0.155 0.045
0.202 -0.151 0.044
0.202 -0.148 0.044
0.200 -0.145 0.043
0.209 -0.148 0.045
0.206 -0.144 0.044
0.211 -0.145 0.045
0.217 -0.146 0.046
0.210 -0.139 0.045
0.205 -0.134 0.044
0.213 -0.136 0.045
0.217 -0.137 0.046
0.206 -0.127 0.043
0.202 -0.122 0.043
0.205 -0.122 0.043
0.206 -0.120 0.043
0.209 -0.119 0.044
0.207 -0.116 0.043
0.204 -0.112 0.042
0.205 -0.111 0.043
0.206 -0.109 0.043
0.206 -0.107 0.042
0.204 -0.103 0.042
0.208 -0.103 0.043
0.210 -0.102 0.043
0.209 -0.100 0.043
0.206 -0.096 0.042
0.199 -0.091 0.041
0.205 -0.091 0.042
0.212 -0.093 0.043
0.198 -0.084 0.040
0.213 -0.089 0.043
0.197 -0.080 0.040
0.211 -0.084 0.043
0.211 -0.081 0.042
0.207 -0.078 0.042
0.227 -0.081 0.045
0.220 -0.076 0.044
0.223 -0.075 0.045
0.230 -0.075 0.046
0.236 -0.075 0.047
0.228 -0.070 0.046
0.236 -0.071 0.047
0.247 -0.071 0.049
0.264 -0.074 0.052
0.368 -0.096 0.073
0.375 -0.094 0.074
0.380 -0.092 0.075
0.368 -0.086 0.073
0.352 -0.079 0.070
0.351 -0.075 0.069
0.357 -0.073 0.070
0.363 -0.071 0.071
0.297 -0.053 0.059
0.288 -0.048 0.057
0.275 -0.044 0.054
0.279 -0.042 0.055
0.283 -0.040 0.056
0.282 -0.037 0.055
0.281 -0.034 0.055
0.282 -0.032 0.055
0.286 -0.030 0.056
0.288 -0.027 0.056
0.287 -0.025 0.056
0.281 -0.022 0.055
0.282 -0.019 0.055
0.286 -0.017 0.056
0.288 -0.014 0.056
0.290 -0.012 0.057
0.289 -0.009 0.057
0.286 -0.007 0.056
0.287 -0.004 0.056
0.289 -0.001 0.057
0.292 0.001 0.057
0.295 0.004 0.058
0.290 0.007 0.057
0.290 0.009 0.057
0.294 0.012 0.058
0.295 0.015 0.058
0.296 0.017 0.058
0.299 0.020 0.059
0.294 0.023 0.058
0.289 0.025 0.057
0.296 0.028 0.058
0.297 0.031 0.058
0.289 0.033 0.057
0.294 0.036 0.058
0.303 0.040 0.060
0.303 0.043 0.060
0.302 0.045 0.060
0.303 0.048 0.060
0.303 0.051 0.060
0.298 0.053 0.059
0.297 0.056 0.059
0.300 0.059 0.059
0.300 0.062 0.059
0.298 0.064 0.059
0.293 0.066 0.058
0.290 0.068 0.058
0.291 0.071 0.058
0.281 0.071 0.056
0.279 0.073 0.055
0.282 0.077 0.056
0.294 0.083 0.059
0.291 0.085 0.058
0.284 0.085 0.057
0.287 0.089 0.057
0.286 0.091 0.057
0.285 0.094 0.057
0.285 0.097 0.057
0.279 0.097 0.056
0.279 0.100 0.056
0.273 0.101 0.055
0.270 0.102 0.055
0.278 0.108 0.056
0.318 0.130 0.065
0.321 0.135 0.065
0.322 0.138 0.066
0.326 0.144 0.067
0.330 0.149 0.068
0.331 0.152 0.068
0.326 0.154 0.067
0.331 0.159 0.068
0.335 0.165 0.069
0.338 0.170 0.070
0.336 0.173 0.070
0.330 0.173 0.069
0.324 0.174 0.068
0.322 0.176 0.067
0.320 0.178 0.067
0.317 0.181 0.067
0.312 0.181 0.066
0.308 0.182 0.065
0.303 0.183 0.064
0.296 0.182 0.063
0.292 0.183 0.062
0.289 0.184 0.062
0.284 0.185 0.061
0.280 0.185 0.060
0.276 0.186 0.060
0.271 0.186 0.059
0.267 0.186 0.058
0.263 0.187 0.058
0.262 0.190 0.058
0.261 0.192 0.057
0.260 0.195 0.058
0.258 0.197 0.057
0.261 0.202 0.058
0.260 0.205 0.058
0.260 0.209 0.058
0.259 0.212 0.059
0.258 0.215 0.059
0.257 0.218 0.059
0.257 0.221 0.059
0.257 0.224 0.059
0.256 0.228 0.059
0.255 0.231 0.059
0.255 0.235 0.060
0.254 0.238 0.060
0.253 0.241 0.060
0.253 0.244 0.060
0.256 0.252 0.061
0.253 0.254 0.061
0.249 0.253 0.060
0.246 0.255 0.060
0.249 0.262 0.061
0.249 0.267 0.061
0.249 0.271 0.062
0.254 0.281 0.063
0.249 0.280 0.063
0.267 0.310 0.068
0.273 0.322 0.070
0.271 0.326 0.070
0.193 0.247 0.051
0.191 0.248 0.051
0.198 0.261 0.053
0.116 -0.161 0.032
0.112 -0.154 0.031
0.112 -0.152 0.031
0.114 -0.152 0.031
0.118 -0.155 0.032
0.117 -0.152 0.032
0.116 -0.149 0.031
0.119 -0.150 0.032
0.114 -0.142 0.031
0.114 -0.141 0.030
0.115 -0.139 0.030
0.130 -0.156 0.034
0.132 -0.156 0.035
0.143 -0.164 0.037
0.291 -0.318 0.074
0.291 -0.314 0.074
0.291 -0.309 0.074
0.290 -0.303 0.073
0.291 -0.299 0.073
0.292 -0.296 0.073
0.291 -0.291 0.072
0.291 -0.286 0.072
0.291 -0.282 0.071
0.291 -0.277 0.071
0.290 -0.272 0.070
0.289 -0.266 0.070
0.290 -0.263 0.070
0.290 -0.259 0.069
0.288 -0.253 0.069
0.287 -0.249 0.068
0.287 -0.244 0.068
0.284 -0.238 0.067
0.283 -0.234 0.066
0.282 -0.229 0.066
0.276 -0.221 0.064
0.268 -0.211 0.062
0.207 -0.160 0.048
0.206 -0.156 0.047
0.205 -0.153 0.047
0.205 -0.151 0.047
0.208 -0.150 0.047
0.205 -0.146 0.047
0.203 -0.142 0.046
0.207 -0.142 0.047
0.216 -0.146 0.049
0.209 -0.139 0.047
0.208 -0.135 0.046
0.209 -0.134 0.046
0.215 -0.135 0.048
0.219 -0.135 0.048
0.200 -0.121 0.044
0.200 -0.119 0.044
0.206 -0.120 0.045
0.207 -0.119 0.045
0.207 -0.116 0.045
0.205 -0.113 0.045
0.203 -0.110 0.044
0.206 -0.109 0.045
0.207 -0.107 0.045
0.216 -0.110 0.047
0.210 -0.104 0.045
0.209 -0.102 0.045
0.208 -0.099 0.045
0.206 -0.096 0.044
0.211 -0.096 0.045
0.207 -0.092 0.044
0.210 -0.092 0.045
0.211 -0.090 0.045
0.211 -0.088 0.045
0.214 -0.087 0.045
0.210 -0.083 0.044
0.211 -0.082 0.045
0.217 -0.082 0.046
0.223 -0.079 0.047
0.219 -0.076 0.046
0.219 -0.074 0.046
0.228 -0.075 0.048
0.233 -0.074 0.049
0.239 -0.074 0.050
0.241 -0.072 0.050
0.249 -0.072 0.052
0.261 -0.073 0.054
0.340 -0.092 0.071
0.351 -0.092 0.073
0.367 -0.092 0.076
0.364 -0.088 0.075
0.354 -0.082 0.073
0.352 -0.079 0.073
0.348 -0.075 0.072
0.351 -0.072 0.072
0.351 -0.069 0.072
0.339 -0.063 0.070
0.280 -0.047 0.058
0.276 -0.044 0.057
0.278 -0.042 0.057
0.282 -0.040 0.058
0.281 -0.037 0.058
0.281 -0.035 0.058
0.283 -0.032 0.058
0.286 -0.030 0.059
0.288 -0.027 0.059
0.287 -0.025 0.059
0.285 -0.022 0.058
0.280 -0.019 0.057
0.283 -0.017 0.058
0.285 -0.014 0.058
0.286 -0.012 0.059
0.284 -0.009 0.058
0.282 -0.006 0.058
0.283 -0.004 0.058
0.291 -0.001 0.060
0.294 0.001 0.060
0.294 0.004 0.060
0.288 0.006 0.059
0.287 0.009 0.059
0.290 0.012 0.060
0.294 0.015 0.060
0.299 0.018 0.061
0.302 0.021 0.062
0.300 0.023 0.062
0.294 0.025 0.060
0.297 0.028 0.061
0.300 0.031 0.062
0.279 0.032 0.057
0.281 0.034 0.058
0.296 0.039 0.061
0.297 0.042 0.061
0.299 0.045 0.062
0.307 0.049 0.063
0.304 0.051 0.063
0.291 0.052 0.060
0.281 0.053 0.058
0.287 0.056 0.059
0.291 0.060 0.060
0.281 0.061 0.058
0.290 0.065 0.060
0.293 0.069 0.061
0.290 0.071 0.060
0.283 0.072 0.059
0.274 0.072 0.057
0.279 0.076 0.058
0.289 0.081 0.060
0.290 0.084 0.061
0.283 0.085 0.059
0.286 0.089 0.060
0.289 0.092 0.061
0.284 0.094 0.060
0.285 0.097 0.060
0.285 0.100 0.060
0.286 0.103 0.061
0.287 0.106 0.061
0.277 0.105 0.059
0.267 0.104 0.057
0.271 0.108 0.058
0.315 0.129 0.067
0.318 0.133 0.068
0.318 0.137 0.068
0.319 0.141 0.068
0.323 0.145 0.069
0.320 0.147 0.069
0.315 0.149 0.068
0.308 0.149 0.067
0.314 0.155 0.068
0.325 0.164 0.071
0.326 0.168 0.071
0.319 0.167 0.070
0.319 0.171 0.070
0.318 0.174 0.070
0.315 0.176 0.069
0.312 0.178 0.069
0.310 0.180 0.068
0.307 0.182 0.068
0.302 0.182 0.067
0.295 0.182 0.066
0.292 0.183 0.065
0.288 0.184 0.065
0.284 0.185 0.064
0.278 0.184 0.063
0.275 0.185 0.062
0.270 0.186 0.061
0.265 0.185 0.060
0.263 0.187 0.060
0.261 0.189 0.060
0.261 0.193 0.060
0.259 0.194 0.060
0.260 0.198 0.060
0.259 0.202 0.061
0.259 0.205 0.061
0.258 0.208 0.061
0.259 0.212 0.061
0.258 0.215 0.061
0.257 0.218 0.061
0.257 0.221 0.062
0.256 0.224 0.062
0.255 0.227 0.062
0.255 0.231 0.062
0.254 0.234 0.062
0.254 0.238 0.062
0.253 0.241 0.063
0.253 0.246 0.063
0.255 0.251 0.064
0.252 0.252 0.063
0.246 0.251 0.062
0.245 0.253 0.062
0.248 0.261 0.063
0.254 0.272 0.066
0.247 0.269 0.064
0.192 0.231 0.052
0.194 0.237 0.053
0.193 0.240 0.053
0.190 0.240 0.052
0.191 0.245 0.053
0.192 0.249 0.053
0.182 0.241 0.051
0.105 -0.146 0.031
0.112 -0.155 0.033
0.113 -0.154 0.033
0.111 -0.148 0.032
0.107 -0.141 0.031
0.111 -0.145 0.032
0.117 -0.150 0.033
0.114 -0.144 0.032
0.118 -0.148 0.033
0.113 -0.139 0.031
0.119 -0.145 0.033
0.121 -0.143 0.033
0.124 -0.144 0.034
0.135 -0.155 0.037
0.288 -0.306 0.076
0.289 -0.302 0.076
0.288 -0.297 0.075
0.289 -0.293 0.075
0.289 -0.289 0.075
0.290 -0.286 0.075
0.288 -0.279 0.074
0.289 -0.275 0.074
0.291 -0.273 0.074
0.288 -0.267 0.073
0.289 -0.263 0.073
0.291 -0.260 0.073
0.292 -0.257 0.073
0.286 -0.248 0.071
0.286 -0.244 0.071
0.285 -0.239 0.070
0.283 -0.234 0.069
0.281 -0.228 0.068
0.277 -0.221 0.067
0.270 -0.212 0.065
0.207 -0.158 0.050
0.206 -0.154 0.049
0.209 -0.154 0.050
0.209 -0.151 0.050
0.203 -0.145 0.048
0.202 -0.141 0.048
0.201 -0.138 0.047
0.202 -0.137 0.047
0.210 -0.139 0.049
0.207 -0.135 0.048
0.207 -0.133 0.048
0.209 -0.131 0.048
0.211 -0.130 0.049
0.199 -0.121 0.046
0.199 -0.118 0.046
0.202 -0.118 0.046
0.204 -0.117 0.047
0.204 -0.115 0.046
0.203 -0.112 0.046
0.205 -0.111 0.047
0.202 -0.107 0.046
0.207 -0.107 0.047
0.207 -0.105 0.047
0.205 -0.102 0.046
0.209 -0.102 0.047
0.205 -0.098 0.046
0.202 -0.094 0.045
0.202 -0.093 0.045
0.202 -0.090 0.045
0.204 -0.089 0.045
0.206 -0.088 0.046
0.201 -0.084 0.045
0.210 -0.085 0.046
0.201 -0.080 0.044
0.209 -0.081 0.046
0.202 -0.076 0.044
0.204 -0.075 0.045
0.207 -0.074 0.046
0.220 -0.076 0.048
0.219 -0.074 0.048
0.223 -0.073 0.049
0.232 -0.074 0.051
0.237 -0.073 0.052
0.240 -0.072 0.052
0.247 -0.072 0.054
0.252 -0.071 0.055
0.337 -0.091 0.073
0.350 -0.091 0.076
0.355 -0.089 0.077
0.352 -0.085 0.076
0.344 -0.080 0.075
0.343 -0.077 0.074
0.345 -0.074 0.074
0.335 -0.069 0.072
0.343 -0.067 0.074
0.338 -0.063 0.073
0.283 -0.048 0.061
0.275 -0.044 0.059
0.277 -0.042 0.060
0.279 -0.039 0.060
0.281 -0.037 0.060
0.282 -0.035 0.060
0.283 -0.032 0.061
0.283 -0.030 0.061
0.287 -0.027 0.061
0.289 -0.025 0.062
0.279 -0.022 0.060
0.283 -0.019 0.061
0.282 -0.017 0.061
0.280 -0.014 0.060
0.283 -0.012 0.061
0.282 -0.009 0.060
0.282 -0.006 0.060
0.283 -0.004 0.061
0.290 -0.001 0.062
0.290 0.001 0.062
0.287 0.004 0.061
0.286 0.006 0.061
0.288 0.009 0.062
0.289 0.012 0.062
0.290 0.014 0.062
0.294 0.017 0.063
0.297 0.020 0.064
0.296 0.023 0.064
0.296 0.026 0.064
0.297 0.028 0.064
0.294 0.031 0.063
0.297 0.034 0.064
0.285 0.035 0.061
0.281 0.037 0.061
0.291 0.041 0.063
0.302 0.045 0.065
0.302 0.048 0.065
0.298 0.050 0.064
0.274 0.049 0.059
0.278 0.052 0.060
0.275 0.054 0.060
0.278 0.057 0.060
0.276 0.059 0.060
0.261 0.059 0.057
0.278 0.065 0.060
0.284 0.069 0.062
0.278 0.070 0.060
0.274 0.072 0.060
0.280 0.076 0.061
0.291 0.082 0.063
0.289 0.084 0.063
0.285 0.086 0.062
0.280 0.087 0.061
0.287 0.092 0.063
0.288 0.095 0.063
0.287 0.098 0.063
0.292 0.102 0.064
0.294 0.106 0.065
0.295 0.109 0.065
0.297 0.113 0.066
0.277 0.108 0.061
0.264 0.106 0.059
0.261 0.107 0.058
0.311 0.131 0.069
0.314 0.135 0.070
0.314 0.138 0.070
0.317 0.143 0.071
0.316 0.146 0.071
0.313 0.148 0.070
0.307 0.148 0.069
0.304 0.150 0.069
0.305 0.154 0.069
0.309 0.159 0.070
0.310 0.163 0.071
0.313 0.168 0.072
0.313 0.171 0.072
0.311 0.174 0.071
0.309 0.176 0.071
0.307 0.179 0.071
0.303 0.180 0.070
0.300 0.182 0.070
0.296 0.182 0.069
0.291 0.183 0.068
0.287 0.184 0.067
0.281 0.183 0.066
0.277 0.184 0.065
0.274 0.185 0.065
0.268 0.184 0.064
0.265 0.185 0.063
0.262 0.187 0.063
0.261 0.189 0.063
0.261 0.192 0.063
0.261 0.196 0.063
0.260 0.199 0.063
0.258 0.201 0.063
0.258 0.205 0.063
0.258 0.208 0.063
0.257 0.211 0.064
0.257 0.214 0.064
0.256 0.217 0.064
0.256 0.221 0.064
0.255 0.223 0.064
0.254 0.226 0.064
0.254 0.231 0.065
0.255 0.236 0.065
0.254 0.239 0.065
0.253 0.242 0.065
0.251 0.243 0.065
0.249 0.245 0.065
0.244 0.245 0.064
0.240 0.244 0.063
0.244 0.253 0.065
0.241 0.254 0.065
0.194 0.223 0.054
0.199 0.232 0.055
0.191 0.226 0.053
0.189 0.228 0.053
0.190 0.232 0.054
0.189 0.235 0.054
0.189 0.239 0.055
0.195 0.251 0.057
0.240 0.317 0.070
0.097 -0.136 0.030
0.099 -0.136 0.030
0.099 -0.135 0.030
0.099 -0.133 0.030
0.100 -0.133 0.030
0.100 -0.131 0.030
0.101 -0.130 0.030
0.101 -0.128 0.030
0.101 -0.126 0.030
0.101 -0.125 0.030
0.100 -0.122 0.029
0.102 -0.122 0.029
0.103 -0.122 0.029
0.130 -0.149 0.037
0.123 -0.137 0.035
0.124 -0.137 0.035
0.272 -0.281 0.074
0.279 -0.283 0.076
0.284 -0.285 0.077
0.284 -0.280 0.076
0.285 -0.277 0.076
0.283 -0.270 0.075
0.288 -0.270 0.076
0.289 -0.268 0.076
0.288 -0.262 0.075
0.289 -0.259 0.075
0.289 -0.255 0.075
0.284 -0.247 0.074
0.284 -0.243 0.073
0.285 -0.240 0.073
0.285 -0.236 0.073
0.283 -0.230 0.072
0.274 -0.220 0.070
0.265 -0.209 0.067
0.206 -0.157 0.052
0.207 -0.155 0.052
0.211 -0.156 0.052
0.205 -0.149 0.051
0.204 -0.145 0.050
0.204 -0.143 0.050
0.203 -0.140 0.050
0.201 -0.136 0.049
0.202 -0.134 0.049
0.206 -0.134 0.050
0.207 -0.133 0.050
0.206 -0.130 0.050
0.202 -0.125 0.049
0.205 -0.125 0.049
0.203 -0.121 0.049
0.202 -0.118 0.048
0.202 -0.116 0.048
0.200 -0.113 0.048
0.202 -0.112 0.048
0.203 -0.110 0.048
0.204 -0.108 0.048
0.194 -0.101 0.046
0.174 -0.089 0.041
0.173 -0.086 0.041
0.173 -0.084 0.040
0.171 -0.082 0.040
0.172 -0.081 0.040
0.174 -0.080 0.040
0.175 -0.078 0.041
0.177 -0.077 0.041
0.178 -0.076 0.041
0.179 -0.075 0.041
0.179 -0.073 0.041
0.187 -0.074 0.043
0.192 -0.074 0.044
0.208 -0.078 0.048
0.210 -0.077 0.048
0.218 -0.078 0.050
0.220 -0.076 0.050
0.223 -0.075 0.051
0.226 -0.074 0.052
