VERSION .7
FIELDS x y z
SIZE 4 4 4
TYPE F F F
COUNT 1 1 1
WIDTH     2585
HEIGHT 1
VIEWPOINT 0 0 0 1 0 0 0
POINTS     2585
DATA ascii
0.292 -0.314 0.067
0.293 -0.310 0.067
0.293 -0.305 0.067
0.292 -0.300 0.066
0.291 -0.295 0.066
0.291 -0.290 0.065
0.291 -0.286 0.065
0.290 -0.279 0.065
0.291 -0.276 0.065
0.292 -0.273 0.064
0.288 -0.265 0.063
0.287 -0.260 0.063
0.287 -0.256 0.062
0.287 -0.252 0.062
0.286 -0.248 0.062
0.286 -0.243 0.061
0.283 -0.237 0.061
0.284 -0.234 0.060
0.282 -0.229 0.060
0.209 -0.161 0.044
0.202 -0.153 0.042
0.203 -0.152 0.042
0.202 -0.148 0.042
0.204 -0.147 0.042
0.205 -0.146 0.042
0.196 -0.136 0.040
0.198 -0.135 0.040
0.206 -0.138 0.042
0.214 -0.141 0.043
0.217 -0.141 0.044
0.218 -0.139 0.044
0.216 -0.135 0.044
0.209 -0.129 0.042
0.205 -0.124 0.041
0.205 -0.121 0.041
0.210 -0.122 0.042
0.212 -0.121 0.042
0.213 -0.119 0.042
0.208 -0.114 0.041
0.204 -0.110 0.040
0.205 -0.108 0.040
0.206 -0.107 0.041
0.207 -0.105 0.041
0.207 -0.103 0.041
0.208 -0.101 0.041
0.206 -0.098 0.040
0.203 -0.095 0.040
0.207 -0.094 0.040
0.210 -0.094 0.041
0.201 -0.088 0.039
0.215 -0.091 0.042
0.199 -0.083 0.038
0.210 -0.085 0.040
0.212 -0.084 0.041
0.213 -0.082 0.041
0.219 -0.082 0.042
0.228 -0.084 0.044
0.214 -0.076 0.041
0.226 -0.078 0.043
0.221 -0.074 0.042
0.223 -0.073 0.042
0.228 -0.072 0.043
0.233 -0.072 0.044
0.239 -0.071 0.045
0.251 -0.073 0.048
0.259 -0.072 0.049
0.380 -0.099 0.072
0.388 -0.098 0.073
0.390 -0.094 0.074
0.381 -0.089 0.072
0.372 -0.083 0.070
0.369 -0.079 0.069
0.367 -0.075 0.069
0.355 -0.070 0.067
0.348 -0.065 0.065
0.276 -0.044 0.052
0.283 -0.042 0.053
0.285 -0.040 0.053
0.286 -0.038 0.053
0.283 -0.035 0.053
0.285 -0.032 0.053
0.292 -0.031 0.055
0.292 -0.028 0.055
0.286 -0.025 0.053
0.283 -0.022 0.053
0.283 -0.019 0.053
0.288 -0.017 0.054
0.292 -0.015 0.054
0.289 -0.012 0.054
0.288 -0.009 0.054
0.291 -0.007 0.054
0.293 -0.004 0.055
0.290 -0.001 0.054
0.292 0.001 0.054
0.295 0.004 0.055
0.291 0.007 0.054
0.285 0.009 0.053
0.285 0.012 0.053
0.291 0.014 0.054
0.292 0.017 0.055
0.294 0.020 0.055
0.298 0.023 0.056
0.298 0.026 0.056
0.297 0.028 0.055
0.297 0.031 0.056
0.297 0.034 0.056
0.292 0.036 0.055
0.295 0.039 0.055
0.298 0.042 0.056
0.299 0.045 0.056
0.300 0.048 0.056
0.299 0.050 0.056
0.295 0.052 0.055
0.294 0.055 0.055
0.294 0.058 0.055
0.298 0.061 0.056
0.294 0.063 0.055
0.286 0.064 0.054
0.285 0.067 0.054
0.309 0.075 0.059
0.309 0.078 0.059
0.296 0.078 0.056
0.289 0.078 0.055
0.284 0.080 0.054
0.292 0.085 0.056
0.294 0.088 0.056
0.281 0.087 0.054
0.271 0.086 0.052
0.283 0.093 0.054
0.286 0.097 0.055
0.288 0.100 0.055
0.262 0.094 0.050
0.265 0.098 0.051
0.284 0.107 0.055
0.286 0.111 0.055
0.297 0.118 0.057
0.328 0.134 0.064
0.334 0.140 0.065
0.335 0.144 0.065
0.331 0.146 0.065
0.328 0.148 0.064
0.331 0.152 0.065
0.342 0.161 0.067
0.352 0.170 0.069
0.344 0.169 0.068
0.342 0.172 0.068
0.341 0.175 0.067
0.340 0.178 0.067
0.336 0.180 0.067
0.331 0.181 0.066
0.325 0.181 0.065
0.319 0.181 0.064
0.312 0.181 0.063
0.308 0.182 0.062
0.303 0.183 0.061
0.298 0.183 0.060
0.294 0.184 0.060
0.291 0.186 0.059
0.289 0.187 0.059
0.284 0.188 0.058
0.275 0.185 0.057
0.268 0.184 0.056
0.265 0.185 0.055
0.263 0.187 0.055
0.261 0.189 0.055
0.260 0.192 0.055
0.259 0.194 0.055
0.259 0.198 0.055
0.261 0.202 0.055
0.260 0.205 0.055
0.259 0.208 0.056
0.258 0.211 0.056
0.257 0.214 0.056
0.257 0.217 0.056
0.258 0.222 0.056
0.258 0.225 0.057
0.257 0.228 0.057
0.257 0.232 0.057
0.255 0.235 0.057
0.255 0.238 0.057
0.254 0.241 0.057
0.253 0.244 0.057
0.254 0.249 0.058
0.254 0.254 0.058
0.254 0.259 0.059
0.255 0.263 0.059
0.259 0.272 0.060
0.257 0.275 0.060
0.255 0.277 0.060
0.254 0.281 0.060
0.258 0.290 0.062
0.265 0.302 0.064
0.273 0.317 0.066
0.278 0.328 0.068
0.280 0.336 0.069
0.276 0.337 0.068
0.280 0.347 0.070
0.280 0.353 0.070
0.270 0.345 0.068
0.239 0.315 0.061
0.106 -0.147 0.028
0.107 -0.146 0.028
0.107 -0.145 0.028
0.108 -0.144 0.028
0.107 -0.141 0.028
0.107 -0.140 0.028
0.108 -0.138 0.028
0.107 -0.136 0.028
0.112 -0.140 0.029
0.119 -0.147 0.030
0.126 -0.153 0.032
0.131 -0.156 0.033
0.288 -0.324 0.071
0.288 -0.320 0.071
0.289 -0.316 0.070
0.290 -0.312 0.070
0.291 -0.308 0.070
0.291 -0.304 0.070
0.293 -0.301 0.070
0.291 -0.295 0.069
0.291 -0.290 0.069
0.290 -0.285 0.068
0.290 -0.280 0.068
0.291 -0.276 0.068
0.291 -0.273 0.067
0.290 -0.267 0.067
0.289 -0.262 0.066
0.288 -0.257 0.066
0.287 -0.252 0.065
0.287 -0.249 0.065
0.287 -0.244 0.065
0.285 -0.239 0.064
0.284 -0.234 0.064
0.283 -0.229 0.063
0.205 -0.158 0.045
0.204 -0.155 0.045
0.201 -0.150 0.044
0.202 -0.149 0.044
0.204 -0.147 0.044
0.202 -0.144 0.044
0.200 -0.139 0.043
0.200 -0.137 0.043
0.210 -0.142 0.045
0.215 -0.142 0.046
0.216 -0.141 0.046
0.219 -0.140 0.046
0.219 -0.138 0.046
0.216 -0.133 0.046
0.209 -0.127 0.044
0.207 -0.123 0.043
0.208 -0.121 0.043
0.211 -0.121 0.044
0.208 -0.117 0.043
0.207 -0.114 0.043
0.206 -0.111 0.043
0.203 -0.108 0.042
0.208 -0.108 0.043
0.207 -0.105 0.043
0.210 -0.105 0.043
0.207 -0.101 0.042
0.206 -0.098 0.042
0.206 -0.096 0.042
0.200 -0.091 0.041
0.208 -0.093 0.042
0.211 -0.092 0.043
0.199 -0.085 0.040
0.211 -0.088 0.043
0.197 -0.080 0.040
0.212 -0.084 0.043
0.211 -0.081 0.043
0.207 -0.078 0.042
0.213 -0.074 0.043
0.219 -0.074 0.044
0.222 -0.073 0.044
0.227 -0.072 0.045
0.232 -0.071 0.046
0.236 -0.070 0.047
0.250 -0.072 0.050
0.263 -0.074 0.052
0.366 -0.096 0.073
0.380 -0.096 0.075
0.373 -0.090 0.074
0.365 -0.085 0.072
0.369 -0.082 0.073
0.356 -0.076 0.070
0.353 -0.072 0.070
0.354 -0.069 0.070
0.344 -0.064 0.068
0.300 -0.050 0.059
0.287 -0.046 0.056
0.278 -0.042 0.055
0.283 -0.040 0.056
0.284 -0.037 0.056
0.287 -0.035 0.056
0.288 -0.033 0.056
0.288 -0.030 0.056
0.290 -0.028 0.057
0.292 -0.025 0.057
0.287 -0.022 0.056
0.286 -0.019 0.056
0.292 -0.017 0.057
0.297 -0.015 0.058
0.290 -0.012 0.057
0.283 -0.009 0.055
0.287 -0.007 0.056
0.295 -0.004 0.058
0.291 -0.001 0.057
0.293 0.001 0.057
0.296 0.004 0.058
0.292 0.007 0.057
0.287 0.009 0.056
0.288 0.012 0.056
0.289 0.014 0.057
0.288 0.017 0.056
0.288 0.020 0.057
0.294 0.023 0.058
0.298 0.026 0.059
0.298 0.028 0.058
0.296 0.031 0.058
0.297 0.034 0.058
0.296 0.036 0.058
0.295 0.039 0.058
0.297 0.042 0.058
0.299 0.045 0.059
0.301 0.048 0.059
0.302 0.051 0.060
0.293 0.052 0.058
0.296 0.055 0.058
0.298 0.059 0.059
0.298 0.061 0.059
0.295 0.063 0.058
0.278 0.062 0.055
0.309 0.075 0.061
0.303 0.077 0.060
0.294 0.077 0.059
0.287 0.078 0.057
0.287 0.081 0.057
0.292 0.085 0.058
0.306 0.092 0.061
0.297 0.092 0.060
0.268 0.086 0.054
0.266 0.088 0.053
0.295 0.103 0.059
0.279 0.100 0.056
0.261 0.096 0.053
0.263 0.100 0.053
0.324 0.132 0.066
0.329 0.138 0.067
0.328 0.141 0.067
0.323 0.142 0.066
0.320 0.144 0.066
0.319 0.147 0.066
0.330 0.155 0.068
0.340 0.164 0.070
0.340 0.167 0.070
0.336 0.169 0.070
0.336 0.172 0.070
0.329 0.173 0.069
0.330 0.177 0.069
0.328 0.179 0.069
0.322 0.180 0.068
0.318 0.181 0.067
0.312 0.181 0.066
0.307 0.182 0.065
0.302 0.182 0.064
0.298 0.183 0.063
0.294 0.184 0.063
0.291 0.185 0.062
0.288 0.187 0.062
0.283 0.188 0.061
0.274 0.184 0.059
0.268 0.184 0.058
0.265 0.185 0.058
0.262 0.186 0.057
0.261 0.189 0.057
0.260 0.191 0.057
0.259 0.194 0.057
0.259 0.198 0.058
0.260 0.202 0.058
0.260 0.205 0.058
0.259 0.208 0.058
0.258 0.211 0.058
0.258 0.214 0.059
0.258 0.218 0.059
0.257 0.221 0.059
0.257 0.225 0.059
0.257 0.229 0.059
0.256 0.232 0.060
0.256 0.235 0.060
0.255 0.238 0.060
0.254 0.242 0.060
0.254 0.246 0.060
0.255 0.251 0.061
0.255 0.255 0.061
0.250 0.254 0.060
0.245 0.253 0.060
0.246 0.259 0.060
0.259 0.277 0.064
0.259 0.281 0.064
0.256 0.284 0.064
0.255 0.287 0.064
0.256 0.293 0.065
0.268 0.316 0.069
0.272 0.327 0.070
0.267 0.326 0.069
0.199 0.255 0.053
0.188 0.244 0.050
0.190 0.251 0.051
0.117 -0.163 0.033
0.114 -0.157 0.032
0.115 -0.156 0.032
0.115 -0.154 0.032
0.117 -0.155 0.032
0.115 -0.150 0.031
0.113 -0.145 0.031
0.113 -0.143 0.030
0.114 -0.143 0.031
0.117 -0.144 0.031
0.119 -0.145 0.032
0.124 -0.149 0.033
0.128 -0.152 0.034
0.154 -0.176 0.040
0.288 -0.315 0.073
0.286 -0.308 0.073
0.288 -0.305 0.073
0.290 -0.303 0.073
0.291 -0.299 0.073
0.292 -0.295 0.072
0.290 -0.290 0.072
0.290 -0.285 0.071
0.290 -0.281 0.071
0.290 -0.277 0.071
0.290 -0.272 0.070
0.290 -0.268 0.070
0.290 -0.264 0.070
0.288 -0.257 0.069
0.288 -0.253 0.069
0.288 -0.249 0.068
0.287 -0.244 0.068
0.284 -0.239 0.067
0.285 -0.235 0.067
0.280 -0.227 0.065
0.273 -0.218 0.063
0.205 -0.156 0.047
0.201 -0.151 0.046
0.202 -0.149 0.046
0.202 -0.146 0.046
0.203 -0.145 0.046
0.201 -0.141 0.045
0.204 -0.140 0.046
0.206 -0.139 0.046
0.212 -0.140 0.047
0.215 -0.140 0.048
0.214 -0.137 0.048
0.218 -0.137 0.048
0.222 -0.137 0.049
0.215 -0.130 0.047
0.208 -0.124 0.046
0.208 -0.121 0.046
0.208 -0.119 0.046
0.208 -0.117 0.045
0.206 -0.114 0.045
0.206 -0.111 0.045
0.207 -0.109 0.045
0.206 -0.107 0.045
0.212 -0.108 0.046
0.206 -0.103 0.044
0.207 -0.101 0.044
0.207 -0.099 0.044
0.208 -0.097 0.045
0.212 -0.097 0.045
0.206 -0.092 0.044
0.207 -0.090 0.044
0.208 -0.089 0.044
0.209 -0.087 0.044
0.213 -0.086 0.045
0.206 -0.082 0.044
0.212 -0.082 0.045
0.212 -0.080 0.045
0.224 -0.082 0.047
0.210 -0.075 0.044
0.211 -0.073 0.044
0.216 -0.073 0.045
0.224 -0.073 0.047
0.232 -0.074 0.048
0.233 -0.072 0.049
0.236 -0.071 0.049
0.243 -0.070 0.051
0.258 -0.072 0.054
0.339 -0.092 0.071
0.353 -0.092 0.073
0.363 -0.091 0.075
0.360 -0.087 0.075
0.359 -0.084 0.074
0.357 -0.080 0.074
0.363 -0.078 0.075
0.345 -0.071 0.071
0.342 -0.067 0.071
0.338 -0.063 0.070
0.326 -0.058 0.067
0.283 -0.045 0.058
0.284 -0.043 0.059
0.282 -0.040 0.058
0.283 -0.037 0.058
0.284 -0.035 0.058
0.284 -0.032 0.058
0.284 -0.030 0.058
0.288 -0.027 0.059
0.290 -0.025 0.059
0.290 -0.022 0.060
0.291 -0.020 0.060
0.294 -0.017 0.060
0.295 -0.015 0.061
0.292 -0.012 0.060
0.283 -0.009 0.058
0.281 -0.006 0.058
0.286 -0.004 0.059
0.293 -0.001 0.060
0.294 0.001 0.060
0.298 0.004 0.061
0.295 0.007 0.060
0.287 0.009 0.059
0.290 0.012 0.060
0.288 0.014 0.059
0.285 0.017 0.058
0.285 0.019 0.059
0.290 0.022 0.060
0.294 0.025 0.060
0.292 0.028 0.060
0.288 0.030 0.059
0.291 0.033 0.060
0.292 0.036 0.060
0.290 0.038 0.060
0.293 0.041 0.060
0.296 0.045 0.061
0.303 0.048 0.063
0.302 0.051 0.062
0.301 0.054 0.062
0.302 0.057 0.063
0.301 0.059 0.062
0.299 0.062 0.062
0.299 0.064 0.062
0.304 0.068 0.063
0.309 0.072 0.064
0.304 0.074 0.063
0.299 0.076 0.062
0.285 0.075 0.059
0.285 0.078 0.060
0.288 0.081 0.060
0.299 0.087 0.063
0.299 0.090 0.063
0.291 0.090 0.061
0.282 0.090 0.059
0.275 0.091 0.058
0.282 0.101 0.060
0.268 0.099 0.057
0.270 0.103 0.057
0.318 0.134 0.068
0.322 0.138 0.069
0.323 0.142 0.069
0.317 0.143 0.068
0.313 0.144 0.067
0.306 0.144 0.066
0.307 0.148 0.066
0.311 0.153 0.067
0.317 0.160 0.069
0.319 0.164 0.069
0.320 0.168 0.070
0.320 0.171 0.070
0.319 0.175 0.070
0.319 0.178 0.070
0.314 0.179 0.069
0.309 0.180 0.068
0.304 0.180 0.067
0.301 0.182 0.067
0.297 0.183 0.066
0.293 0.184 0.066
0.289 0.185 0.065
0.285 0.185 0.064
0.281 0.186 0.063
0.276 0.186 0.062
0.267 0.184 0.061
0.264 0.185 0.060
0.262 0.186 0.060
0.260 0.189 0.060
0.260 0.192 0.060
0.260 0.195 0.060
0.260 0.199 0.061
0.260 0.202 0.061
0.259 0.205 0.061
0.259 0.208 0.061
0.259 0.212 0.061
0.258 0.215 0.061
0.257 0.218 0.061
0.257 0.222 0.062
0.257 0.225 0.062
0.256 0.229 0.062
0.256 0.232 0.062
0.254 0.234 0.062
0.255 0.239 0.063
0.253 0.241 0.063
0.252 0.244 0.063
0.253 0.249 0.063
0.252 0.252 0.063
0.247 0.252 0.063
0.245 0.254 0.063
0.246 0.259 0.063
0.257 0.275 0.066
0.259 0.282 0.067
0.246 0.277 0.065
0.214 0.250 0.057
0.207 0.245 0.056
0.203 0.244 0.055
0.195 0.239 0.053
0.192 0.239 0.053
0.190 0.239 0.052
0.190 0.244 0.053
0.188 0.245 0.053
0.171 0.226 0.048
0.110 -0.153 0.032
0.113 -0.155 0.033
0.114 -0.154 0.033
0.116 -0.155 0.033
0.114 -0.150 0.033
0.111 -0.145 0.032
0.112 -0.144 0.032
0.114 -0.144 0.032
0.114 -0.143 0.032
0.115 -0.142 0.032
0.117 -0.143 0.033
0.116 -0.139 0.032
0.117 -0.138 0.032
0.142 -0.163 0.039
0.285 -0.303 0.075
0.287 -0.301 0.075
0.288 -0.297 0.075
0.289 -0.293 0.075
0.289 -0.288 0.075
0.288 -0.284 0.074
0.289 -0.280 0.074
0.289 -0.275 0.073
0.288 -0.271 0.073
0.289 -0.267 0.073
0.288 -0.262 0.072
0.287 -0.257 0.072
0.287 -0.253 0.071
0.287 -0.249 0.071
0.287 -0.245 0.071
0.286 -0.240 0.070
0.283 -0.234 0.069
0.283 -0.230 0.069
0.226 -0.175 0.055
0.216 -0.164 0.052
0.206 -0.154 0.049
0.204 -0.150 0.049
0.204 -0.148 0.049
0.203 -0.145 0.048
0.204 -0.143 0.048
0.198 -0.136 0.047
0.199 -0.135 0.047
0.206 -0.137 0.048
0.205 -0.134 0.048
0.211 -0.135 0.049
0.213 -0.134 0.049
0.213 -0.132 0.049
0.211 -0.128 0.049
0.203 -0.121 0.047
0.202 -0.118 0.046
0.205 -0.117 0.047
0.206 -0.116 0.047
0.206 -0.114 0.047
0.207 -0.112 0.047
0.206 -0.109 0.047
0.206 -0.107 0.047
0.205 -0.104 0.046
0.205 -0.102 0.046
0.206 -0.100 0.046
0.208 -0.099 0.047
0.206 -0.096 0.046
0.199 -0.091 0.044
0.198 -0.089 0.044
0.204 -0.089 0.045
0.206 -0.088 0.046
0.200 -0.083 0.044
0.207 -0.084 0.046
0.201 -0.080 0.044
0.211 -0.081 0.047
0.204 -0.077 0.045
0.209 -0.077 0.046
0.210 -0.075 0.046
0.210 -0.073 0.046
0.212 -0.072 0.046
0.228 -0.075 0.050
0.233 -0.074 0.051
0.237 -0.073 0.052
0.240 -0.072 0.052
0.248 -0.072 0.054
0.250 -0.070 0.054
0.350 -0.091 0.076
0.353 -0.089 0.077
0.350 -0.085 0.076
0.346 -0.081 0.075
0.347 -0.078 0.075
0.350 -0.075 0.076
0.342 -0.070 0.074
0.339 -0.067 0.073
0.333 -0.062 0.072
0.321 -0.057 0.069
0.305 -0.051 0.066
0.281 -0.045 0.060
0.278 -0.042 0.060
0.280 -0.040 0.060
0.279 -0.037 0.060
0.279 -0.034 0.060
0.282 -0.032 0.061
0.283 -0.030 0.061
0.284 -0.027 0.061
0.285 -0.025 0.061
0.286 -0.022 0.061
0.288 -0.020 0.062
0.291 -0.017 0.062
0.291 -0.015 0.062
0.288 -0.012 0.062
0.284 -0.009 0.061
0.284 -0.006 0.061
0.281 -0.004 0.060
0.288 -0.001 0.062
0.295 0.001 0.063
0.297 0.004 0.064
0.293 0.007 0.063
0.291 0.009 0.062
0.288 0.012 0.062
0.287 0.014 0.062
0.285 0.017 0.061
0.286 0.019 0.061
0.291 0.022 0.062
0.291 0.025 0.063
0.286 0.027 0.061
0.282 0.029 0.061
0.278 0.032 0.060
0.283 0.035 0.061
0.282 0.037 0.061
0.286 0.040 0.062
0.293 0.044 0.063
0.302 0.048 0.065
0.300 0.051 0.065
0.299 0.053 0.065
0.295 0.055 0.064
0.299 0.059 0.065
0.294 0.061 0.064
0.296 0.064 0.064
0.305 0.069 0.066
0.305 0.071 0.066
0.291 0.071 0.063
0.284 0.072 0.062
0.286 0.075 0.062
0.275 0.075 0.060
0.285 0.080 0.062
0.290 0.084 0.063
0.287 0.086 0.063
0.281 0.087 0.061
0.279 0.089 0.061
0.287 0.095 0.063
0.302 0.103 0.067
0.297 0.104 0.065
0.289 0.104 0.064
0.287 0.106 0.064
0.288 0.109 0.064
0.285 0.111 0.063
0.258 0.106 0.058
0.314 0.135 0.070
0.318 0.140 0.071
0.317 0.143 0.071
0.312 0.144 0.070
0.307 0.145 0.069
0.302 0.146 0.068
0.303 0.149 0.069
0.306 0.154 0.069
0.307 0.158 0.070
0.310 0.163 0.071
0.314 0.169 0.072
0.314 0.172 0.072
0.312 0.174 0.072
0.309 0.176 0.071
0.306 0.178 0.071
0.302 0.179 0.070
0.297 0.180 0.069
0.296 0.182 0.069
0.293 0.184 0.068
0.288 0.184 0.068
0.283 0.184 0.067
0.279 0.185 0.066
0.275 0.186 0.065
0.268 0.185 0.064
0.264 0.185 0.063
0.262 0.187 0.063
0.261 0.190 0.063
0.261 0.193 0.063
0.261 0.196 0.063
0.260 0.199 0.063
0.259 0.202 0.063
0.258 0.205 0.063
0.258 0.208 0.064
0.259 0.212 0.064
0.258 0.215 0.064
0.256 0.218 0.064
0.257 0.222 0.065
0.256 0.225 0.065
0.255 0.228 0.065
0.255 0.231 0.065
0.251 0.232 0.064
0.251 0.235 0.065
0.250 0.239 0.065
0.248 0.240 0.064
0.245 0.241 0.064
0.242 0.243 0.064
0.249 0.254 0.066
0.246 0.256 0.066
0.238 0.251 0.064
0.210 0.233 0.057
0.205 0.231 0.056
0.207 0.238 0.057
0.204 0.238 0.057
0.198 0.234 0.055
0.196 0.236 0.055
0.196 0.239 0.056
0.191 0.237 0.055
0.187 0.237 0.054
0.189 0.242 0.055
0.239 0.315 0.070
0.101 -0.141 0.031
0.098 -0.135 0.030
0.099 -0.135 0.030
0.100 -0.134 0.030
0.100 -0.132 0.030
0.100 -0.131 0.030
0.101 -0.130 0.030
0.101 -0.128 0.030
0.100 -0.125 0.029
0.100 -0.124 0.029
0.101 -0.123 0.029
0.102 -0.122 0.029
0.104 -0.123 0.030
0.106 -0.124 0.030
0.122 -0.136 0.034
0.126 -0.138 0.035
0.133 -0.144 0.037
0.277 -0.290 0.076
0.283 -0.292 0.077
0.285 -0.290 0.077
0.284 -0.284 0.077
0.283 -0.279 0.076
0.284 -0.275 0.076
0.283 -0.270 0.075
0.286 -0.269 0.076
0.287 -0.266 0.076
0.286 -0.261 0.075
0.286 -0.256 0.075
0.286 -0.252 0.074
0.286 -0.249 0.074
0.286 -0.244 0.074
0.286 -0.240 0.073
0.285 -0.236 0.073
0.283 -0.231 0.072
0.264 -0.212 0.067
0.254 -0.200 0.064
0.213 -0.163 0.053
0.208 -0.156 0.052
0.207 -0.153 0.052
0.201 -0.146 0.050
0.199 -0.142 0.049
0.198 -0.139 0.049
0.209 -0.144 0.051
0.198 -0.134 0.048
0.201 -0.134 0.049
0.199 -0.130 0.048
0.208 -0.134 0.051
0.208 -0.131 0.050
0.208 -0.129 0.050
0.202 -0.123 0.049
0.200 -0.119 0.048
0.200 -0.117 0.048
0.202 -0.116 0.048
0.204 -0.115 0.049
0.210 -0.116 0.050
0.213 -0.115 0.051
0.211 -0.112 0.050
0.175 -0.089 0.041
0.173 -0.086 0.041
0.173 -0.084 0.040
0.171 -0.082 0.040
0.171 -0.080 0.040
0.173 -0.079 0.040
0.175 -0.078 0.041
0.176 -0.077 0.041
0.177 -0.076 0.041
0.179 -0.075 0.041
0.181 -0.074 0.042
0.185 -0.073 0.043
0.191 -0.074 0.044
0.207 -0.078 0.048
0.208 -0.077 0.048
0.211 -0.075 0.048
0.210 -0.073 0.048
0.216 -0.073 0.049
0.226 -0.074 0.052
0.234 -0.075 0.053
0.239 -0.074 0.054
0.243 -0.073 0.055
0.249 -0.072 0.056
0.343 -0.090 0.078
0.339 -0.086 0.077
0.337 -0.082 0.076
0.337 -0.079 0.076
0.337 -0.076 0.076
0.336 -0.072 0.076
0.337 -0.069 0.076
0.335 -0.066 0.075
0.330 -0.062 0.074
0.316 -0.056 0.071
0.303 -0.051 0.068
0.283 -0.045 0.064
0.280 -0.042 0.063
0.276 -0.039 0.062
0.274 -0.036 0.061
0.277 -0.034 0.062
0.281 -0.032 0.063
0.282 -0.030 0.063
0.280 -0.027 0.063
0.279 -0.024 0.062
0.280 -0.022 0.063
0.281 -0.019 0.063
0.282 -0.017 0.063
0.287 -0.014 0.064
0.285 -0.012 0.064
0.284 -0.009 0.064
0.283 -0.006 0.063
0.288 -0.004 0.064
0.291 -0.001 0.065
0.291 0.001 0.065
0.290 0.004 0.065
0.292 0.007 0.065
0.288 0.009 0.064
0.288 0.012 0.064
0.285 0.014 0.064
0.286 0.017 0.064
0.288 0.020 0.065
0.289 0.022 0.065
0.293 0.025 0.066
0.291 0.028 0.065
0.279 0.029 0.062
0.276 0.031 0.062
0.280 0.034 0.063
0.277 0.037 0.062
0.280 0.040 0.063
0.284 0.043 0.064
0.294 0.047 0.066
0.292 0.049 0.066
0.289 0.051 0.065
0.286 0.054 0.065
0.286 0.056 0.065
0.284 0.059 0.064
0.282 0.061 0.064
0.275 0.070 0.063
0.279 0.076 0.063
0.275 0.078 0.063
0.276 0.080 0.063
0.277 0.083 0.063
0.279 0.087 0.064
0.281 0.090 0.064
0.290 0.096 0.067
0.307 0.105 0.071
0.306 0.107 0.070
0.295 0.106 0.068
0.296 0.109 0.068
0.298 0.113 0.069
0.296 0.115 0.068
0.294 0.118 0.068
0.271 0.111 0.063
0.299 0.129 0.070
0.310 0.137 0.072
0.314 0.142 0.073
0.311 0.144 0.073
0.309 0.146 0.073
0.306 0.148 0.072
0.301 0.148 0.071
0.293 0.148 0.070
0.297 0.153 0.070
0.303 0.159 0.072
0.308 0.165 0.073
0.308 0.169 0.074
0.305 0.171 0.073
0.302 0.172 0.073
0.299 0.174 0.072
0.299 0.177 0.072
0.295 0.178 0.071
0.292 0.180 0.071
0.290 0.183 0.071
0.286 0.183 0.070
0.282 0.184 0.069
0.276 0.183 0.068
0.272 0.184 0.067
0.268 0.185 0.067
0.265 0.186 0.066
0.261 0.187 0.065
0.260 0.189 0.065
0.261 0.193 0.066
0.261 0.196 0.066
0.260 0.199 0.066
0.259 0.202 0.066
0.258 0.204 0.066
0.257 0.208 0.066
0.257 0.211 0.066
0.256 0.214 0.066
0.254 0.216 0.066
0.253 0.218 0.066
0.251 0.221 0.066
0.254 0.227 0.067
0.251 0.228 0.067
0.249 0.230 0.066
0.245 0.230 0.066
0.242 0.231 0.065
0.238 0.231 0.065
0.235 0.233 0.064
0.211 0.219 0.059
0.211 0.226 0.059
0.205 0.224 0.058
0.203 0.225 0.058
0.201 0.227 0.058
0.199 0.229 0.058
0.195 0.227 0.057
0.194 0.230 0.057
0.197 0.237 0.058
0.199 0.244 0.059
0.219 0.272 0.065
0.226 0.286 0.068
0.250 0.331 0.077
0.099 -0.136 0.031
0.100 -0.136 0.031
0.101 -0.136 0.032
0.099 -0.132 0.031
0.101 -0.132 0.031
0.101 -0.130 0.031
0.100 -0.128 0.031
0.101 -0.126 0.031
0.101 -0.125 0.031
0.101 -0.123 0.031
0.103 -0.124 0.031
0.101 -0.120 0.030
0.102 -0.118 0.030
0.102 -0.117 0.030
0.102 -0.116 0.030
0.119 -0.133 0.035
0.122 -0.134 0.035
0.125 -0.135 0.036
0.276 -0.281 0.078
0.277 -0.277 0.078
0.278 -0.275 0.078
0.279 -0.271 0.078
0.280 -0.268 0.078
0.283 -0.266 0.078
0.283 -0.262 0.078
0.283 -0.258 0.077
0.282 -0.253 0.077
0.284 -0.251 0.077
0.285 -0.248 0.077
0.284 -0.243 0.076
0.283 -0.238 0.076
0.283 -0.235 0.075
0.281 -0.229 0.074
0.272 -0.218 0.072
0.208 -0.159 0.054
0.206 -0.154 0.053
0.203 -0.150 0.053
0.200 -0.145 0.052
0.197 -0.141 0.051
0.197 -0.138 0.050
0.198 -0.136 0.051
0.204 -0.138 0.052
0.199 -0.133 0.051
0.201 -0.131 0.051
0.203 -0.130 0.051
0.210 -0.132 0.053
0.203 -0.125 0.051
0.201 -0.122 0.050
0.207 -0.123 0.052
0.209 -0.122 0.052
0.208 -0.120 0.052
0.214 -0.120 0.053
0.199 -0.110 0.049
0.169 -0.092 0.042
0.168 -0.089 0.041
0.169 -0.088 0.042
0.171 -0.087 0.042
0.171 -0.082 0.042
0.172 -0.081 0.042
0.174 -0.080 0.042
0.175 -0.078 0.042
0.176 -0.077 0.043
0.177 -0.076 0.043
0.178 -0.074 0.043
0.178 -0.073 0.043
0.179 -0.071 0.043
0.180 -0.070 0.043
0.181 -0.068 0.043
0.184 -0.068 0.044
0.191 -0.068 0.046
0.212 -0.074 0.051
0.217 -0.074 0.052
0.226 -0.074 0.054
0.233 -0.074 0.055
0.238 -0.074 0.057
0.242 -0.073 0.057
0.247 -0.072 0.059
0.256 -0.072 0.061
0.327 -0.086 0.077
0.331 -0.084 0.078
0.330 -0.080 0.078
0.331 -0.077 0.078
0.330 -0.074 0.077
0.327 -0.070 0.077
0.323 -0.066 0.076
0.325 -0.064 0.076
0.322 -0.060 0.075
0.313 -0.056 0.073
0.298 -0.050 0.070
0.290 -0.046 0.068
0.279 -0.042 0.065
0.277 -0.039 0.065
0.276 -0.036 0.064
0.278 -0.034 0.065
0.280 -0.032 0.065
0.281 -0.029 0.065
0.278 -0.027 0.065
0.278 -0.024 0.065
0.278 -0.021 0.065
0.280 -0.019 0.065
0.283 -0.017 0.066
0.282 -0.014 0.066
0.286 -0.012 0.067
0.284 -0.009 0.066
0.285 -0.006 0.066
0.286 -0.004 0.067
0.288 -0.001 0.067
0.286 0.001 0.067
0.285 0.004 0.066
0.287 0.006 0.067
0.289 0.009 0.067
0.284 0.012 0.066
0.283 0.014 0.066
0.282 0.017 0.066
0.282 0.019 0.066
0.281 0.022 0.066
0.285 0.025 0.067
0.283 0.027 0.066
0.281 0.029 0.066
0.286 0.033 0.067
0.286 0.035 0.067
0.282 0.037 0.066
0.272 0.038 0.064
0.278 0.042 0.065
0.286 0.046 0.067
0.288 0.049 0.067
0.289 0.052 0.068
0.284 0.053 0.067
0.280 0.055 0.066
0.279 0.058 0.066
0.285 0.062 0.067
0.285 0.064 0.067
0.286 0.067 0.067
0.291 0.071 0.069
0.287 0.073 0.068
0.287 0.075 0.068
0.277 0.076 0.066
0.270 0.076 0.064
0.261 0.076 0.062
0.273 0.082 0.065
0.285 0.089 0.068
0.286 0.092 0.068
0.289 0.096 0.069
0.296 0.101 0.071
0.301 0.106 0.072
0.298 0.107 0.072
0.296 0.110 0.071
0.297 0.113 0.071
0.298 0.116 0.072
0.295 0.118 0.071
0.303 0.124 0.073
0.294 0.124 0.071
0.279 0.123 0.068
0.302 0.137 0.074
0.304 0.141 0.074
0.306 0.145 0.075
0.305 0.147 0.075
0.290 0.144 0.071
0.286 0.144 0.070
0.289 0.149 0.071
0.296 0.156 0.073
0.302 0.162 0.075
0.302 0.166 0.075
0.297 0.167 0.074
0.294 0.168 0.074
0.293 0.171 0.074
0.292 0.174 0.074
0.292 0.177 0.074
0.287 0.177 0.073
0.285 0.179 0.072
0.283 0.181 0.072
0.278 0.182 0.071
0.274 0.182 0.070
0.270 0.183 0.070
0.267 0.184 0.069
0.264 0.186 0.069
0.261 0.187 0.068
0.259 0.189 0.068
0.261 0.193 0.068
0.260 0.196 0.069
0.260 0.199 0.069
0.259 0.202 0.069
0.258 0.205 0.069
0.258 0.208 0.069
0.257 0.211 0.069
0.254 0.213 0.069
0.252 0.215 0.068
0.253 0.219 0.069
0.249 0.219 0.068
0.248 0.222 0.068
0.249 0.227 0.069
0.244 0.225 0.068
0.238 0.225 0.067
0.232 0.222 0.065
0.228 0.222 0.065
0.220 0.217 0.063
0.213 0.214 0.061
0.209 0.214 0.060
0.205 0.214 0.059
0.197 0.209 0.057
0.198 0.213 0.058
0.201 0.220 0.059
0.200 0.223 0.059
0.201 0.227 0.060
0.201 0.231 0.061
0.212 0.248 0.064
0.214 0.255 0.065
0.217 0.262 0.067
0.216 0.269 0.067
0.219 0.278 0.069
0.243 0.323 0.078
0.100 -0.137 0.033
0.101 -0.137 0.033
0.102 -0.137 0.033
0.102 -0.135 0.033
0.102 -0.133 0.033
0.102 -0.132 0.033
0.101 -0.129 0.032
0.102 -0.128 0.032
0.103 -0.127 0.032
0.103 -0.125 0.032
0.103 -0.124 0.032
0.103 -0.122 0.032
0.102 -0.119 0.032
0.102 -0.118 0.031
0.102 -0.116 0.031
0.103 -0.115 0.031
0.118 -0.130 0.036
0.114 -0.124 0.034
0.111 -0.118 0.033
0.267 -0.272 0.078
0.273 -0.274 0.080
0.274 -0.271 0.080
0.276 -0.268 0.080
0.278 -0.266 0.080
0.279 -0.263 0.080
0.281 -0.261 0.080
0.280 -0.256 0.080
0.279 -0.251 0.079
0.280 -0.248 0.079
0.282 -0.246 0.079
0.281 -0.241 0.078
0.280 -0.236 0.078
0.279 -0.232 0.077
0.275 -0.225 0.076
0.264 -0.212 0.073
0.216 -0.168 0.059
0.210 -0.161 0.057
0.202 -0.152 0.055
0.199 -0.147 0.054
0.201 -0.146 0.054
0.199 -0.142 0.053
0.195 -0.137 0.052
0.196 -0.135 0.052
0.197 -0.134 0.052
0.199 -0.132 0.053
0.200 -0.131 0.053
0.207 -0.133 0.054
0.205 -0.130 0.054
0.204 -0.126 0.053
0.203 -0.124 0.053
0.216 -0.129 0.056
0.223 -0.131 0.058
0.181 -0.104 0.047
0.168 -0.095 0.043
0.169 -0.093 0.043
0.168 -0.091 0.043
0.168 -0.089 0.043
0.169 -0.088 0.043
0.170 -0.087 0.043
0.171 -0.086 0.044
0.173 -0.085 0.044
0.174 -0.083 0.044
0.182 -0.085 0.046
0.188 -0.086 0.047
0.190 -0.085 0.048
0.192 -0.084 0.048
0.190 -0.081 0.048
0.187 -0.078 0.047
0.183 -0.074 0.046
0.180 -0.072 0.045
0.180 -0.070 0.045
0.183 -0.069 0.046
0.183 -0.067 0.045
0.184 -0.066 0.046
0.185 -0.064 0.046
0.189 -0.064 0.047
0.203 -0.067 0.050
0.230 -0.073 0.057
0.233 -0.072 0.057
0.238 -0.071 0.059
0.242 -0.070 0.060
0.248 -0.070 0.061
0.257 -0.070 0.063
0.320 -0.084 0.079
0.321 -0.081 0.079
0.326 -0.079 0.080
0.324 -0.076 0.079
0.321 -0.072 0.079
0.317 -0.068 0.077
0.310 -0.064 0.076
0.305 -0.060 0.074
0.311 -0.058 0.076
0.305 -0.054 0.074
0.293 -0.049 0.071
0.284 -0.045 0.069
0.281 -0.042 0.068
0.280 -0.040 0.068
0.280 -0.037 0.068
0.281 -0.035 0.068
0.280 -0.032 0.068
0.280 -0.029 0.068
0.277 -0.027 0.067
0.276 -0.024 0.067
0.278 -0.022 0.067
0.280 -0.019 0.068
0.281 -0.017 0.068
0.283 -0.014 0.069
0.284 -0.012 0.069
0.289 -0.009 0.070
0.286 -0.007 0.069
0.282 -0.004 0.068
0.285 -0.001 0.069
0.283 0.001 0.068
0.283 0.004 0.069
0.284 0.006 0.069
0.287 0.009 0.070
0.283 0.012 0.069
0.277 0.014 0.067
0.276 0.016 0.067
0.267 0.018 0.065
0.261 0.020 0.063
0.270 0.023 0.066
0.279 0.027 0.068
0.285 0.030 0.069
0.277 0.032 0.067
0.287 0.035 0.070
0.279 0.037 0.068
0.274 0.039 0.067
0.279 0.042 0.068
0.287 0.046 0.070
0.292 0.050 0.071
0.294 0.053 0.072
0.288 0.054 0.070
0.285 0.056 0.070
0.287 0.059 0.070
0.290 0.063 0.071
0.291 0.066 0.071
0.291 0.068 0.071
0.293 0.072 0.072
0.279 0.071 0.069
0.275 0.073 0.068
0.275 0.075 0.068
0.260 0.074 0.064
0.258 0.075 0.064
0.269 0.081 0.067
0.284 0.089 0.070
0.289 0.093 0.072
0.288 0.095 0.071
0.288 0.098 0.072
0.290 0.102 0.072
0.296 0.107 0.074
0.294 0.109 0.074
0.289 0.110 0.072
0.293 0.114 0.073
0.291 0.117 0.073
0.289 0.119 0.073
0.302 0.127 0.076
0.291 0.126 0.074
0.275 0.122 0.070
0.265 0.120 0.067
0.299 0.141 0.076
0.296 0.143 0.076
0.286 0.142 0.073
0.283 0.143 0.073
0.285 0.147 0.073
0.289 0.152 0.074
0.290 0.156 0.075
0.294 0.162 0.076
0.291 0.163 0.076
0.289 0.165 0.075
0.287 0.168 0.075
0.286 0.170 0.075
0.284 0.172 0.075
0.283 0.175 0.074
0.281 0.177 0.074
0.279 0.179 0.074
0.276 0.181 0.073
0.271 0.181 0.072
0.269 0.183 0.072
0.267 0.184 0.072
0.264 0.186 0.071
0.262 0.188 0.071
0.262 0.191 0.071
0.263 0.195 0.072
0.261 0.197 0.071
0.259 0.199 0.071
0.258 0.202 0.071
0.258 0.205 0.072
0.257 0.208 0.072
0.256 0.211 0.072
0.255 0.213 0.072
0.256 0.218 0.072
0.253 0.219 0.072
0.249 0.220 0.071
0.244 0.219 0.070
0.240 0.219 0.069
0.238 0.221 0.069
0.233 0.219 0.068
0.228 0.219 0.067
0.220 0.215 0.065
0.213 0.212 0.063
0.207 0.209 0.062
0.204 0.209 0.061
0.202 0.211 0.061
0.202 0.214 0.061
0.204 0.220 0.062
0.204 0.224 0.063
0.203 0.226 0.063
0.203 0.231 0.063
0.209 0.240 0.065
0.211 0.247 0.067
0.211 0.251 0.067
0.208 0.252 0.067
0.204 0.259 0.066
0.201 0.259 0.066
0.200 0.261 0.066
0.188 0.249 0.062
0.100 -0.139 0.034
0.100 -0.137 0.034
0.101 -0.137 0.034
0.102 -0.136 0.034
0.102 -0.134 0.034
0.102 -0.131 0.034
0.103 -0.131 0.034
0.103 -0.129 0.034
0.102 -0.127 0.034
0.103 -0.125 0.033
0.103 -0.124 0.033
0.103 -0.122 0.033
0.104 -0.121 0.033
0.104 -0.120 0.033
0.103 -0.117 0.033
0.103 -0.115 0.032
0.104 -0.115 0.033
0.108 -0.117 0.034
0.106 -0.114 0.033
0.110 -0.116 0.034
0.267 -0.269 0.081
0.271 -0.268 0.082
0.274 -0.266 0.082
0.275 -0.263 0.082
0.278 -0.262 0.083
0.279 -0.259 0.083
0.278 -0.255 0.082
0.277 -0.249 0.081
0.276 -0.244 0.081
0.275 -0.240 0.080
0.276 -0.237 0.080
0.276 -0.233 0.080
0.274 -0.228 0.079
0.274 -0.224 0.079
0.209 -0.160 0.059
0.207 -0.155 0.058
0.201 -0.149 0.056
0.201 -0.146 0.056
0.199 -0.142 0.055
0.198 -0.139 0.055
0.197 -0.136 0.054
0.196 -0.133 0.054
0.196 -0.131 0.054
0.201 -0.131 0.055
0.205 -0.132 0.056
0.206 -0.130 0.056
0.205 -0.127 0.056
0.205 -0.125 0.056
0.169 -0.099 0.046
0.168 -0.096 0.045
0.168 -0.095 0.045
0.168 -0.093 0.045
0.169 -0.092 0.045
0.170 -0.090 0.045
0.171 -0.089 0.046
0.208 -0.104 0.055
0.205 -0.100 0.054
0.209 -0.100 0.055
0.209 -0.098 0.055
0.205 -0.094 0.054
0.209 -0.094 0.055
0.197 -0.086 0.051
0.215 -0.092 0.056
0.215 -0.090 0.056
0.211 -0.086 0.055
0.214 -0.085 0.055
0.204 -0.079 0.053
0.197 -0.074 0.051
0.186 -0.069 0.048
0.185 -0.066 0.048
0.185 -0.065 0.048
0.186 -0.063 0.048
0.188 -0.062 0.048
0.189 -0.060 0.048
0.193 -0.060 0.050
0.241 -0.070 0.062
0.242 -0.068 0.062
0.248 -0.067 0.063
0.315 -0.083 0.080
0.316 -0.080 0.080
0.314 -0.077 0.080
0.313 -0.073 0.080
0.309 -0.069 0.078
0.303 -0.065 0.077
0.298 -0.061 0.075
0.296 -0.058 0.075
0.298 -0.056 0.075
0.293 -0.052 0.074
0.284 -0.048 0.072
0.281 -0.045 0.071
0.279 -0.042 0.070
0.279 -0.039 0.070
0.275 -0.036 0.069
0.277 -0.034 0.070
0.277 -0.032 0.070
0.275 -0.029 0.069
0.274 -0.026 0.069
0.276 -0.024 0.069
0.278 -0.022 0.070
0.280 -0.019 0.071
0.282 -0.017 0.071
0.282 -0.014 0.071
0.287 -0.012 0.072
0.284 -0.009 0.071
0.283 -0.006 0.071
0.279 -0.004 0.070
0.280 -0.001 0.070
0.280 0.001 0.070
0.280 0.004 0.070
0.282 0.006 0.071
0.285 0.009 0.072
0.283 0.012 0.071
0.277 0.014 0.070
0.272 0.016 0.069
0.271 0.019 0.068
0.267 0.021 0.067
0.270 0.023 0.068
0.287 0.028 0.072
0.288 0.030 0.073
0.263 0.030 0.066
0.272 0.034 0.069
0.278 0.037 0.070
0.278 0.039 0.070
0.286 0.043 0.072
0.290 0.046 0.073
0.289 0.049 0.073
0.288 0.052 0.073
0.289 0.054 0.073
0.289 0.057 0.073
0.290 0.060 0.074
0.288 0.062 0.073
0.291 0.066 0.074
0.293 0.069 0.075
0.270 0.066 0.069
0.263 0.067 0.067
0.261 0.069 0.067
0.247 0.068 0.063
0.244 0.069 0.062
0.256 0.075 0.066
0.266 0.080 0.068
0.279 0.087 0.072
0.287 0.092 0.074
0.285 0.095 0.074
0.284 0.097 0.073
0.285 0.100 0.074
0.287 0.104 0.074
0.285 0.106 0.074
0.286 0.109 0.074
0.286 0.112 0.075
0.283 0.114 0.074
0.281 0.116 0.074
0.284 0.120 0.075
0.293 0.127 0.077
0.290 0.128 0.076
0.277 0.126 0.073
0.265 0.123 0.070
0.265 0.126 0.070
0.281 0.139 0.075
0.284 0.144 0.076
0.283 0.146 0.075
0.283 0.150 0.076
0.286 0.154 0.077
0.286 0.158 0.077
0.287 0.161 0.077
0.285 0.163 0.077
0.283 0.165 0.077
0.280 0.167 0.076
0.277 0.168 0.076
0.276 0.171 0.076
0.276 0.174 0.076
0.275 0.177 0.076
0.272 0.178 0.075
0.269 0.180 0.075
0.263 0.178 0.073
0.266 0.184 0.074
0.264 0.186 0.074
0.262 0.188 0.074
0.261 0.190 0.074
0.261 0.194 0.074
0.259 0.196 0.074
0.258 0.198 0.074
0.256 0.201 0.074
0.256 0.204 0.074
0.255 0.207 0.074
0.254 0.210 0.074
0.255 0.214 0.074
0.252 0.215 0.074
0.251 0.218 0.074
0.249 0.220 0.074
0.245 0.220 0.073
0.239 0.219 0.072
0.236 0.219 0.071
0.232 0.219 0.070
0.222 0.214 0.068
0.225 0.219 0.069
0.220 0.219 0.068
0.219 0.221 0.068
0.207 0.213 0.065
0.201 0.210 0.063
0.203 0.216 0.064
0.205 0.221 0.065
0.208 0.228 0.066
0.205 0.229 0.066
0.206 0.233 0.066
0.207 0.239 0.067
0.207 0.243 0.068
0.206 0.245 0.068
0.194 0.235 0.064
0.186 0.229 0.062
0.188 0.236 0.063
0.195 0.248 0.066
0.197 0.254 0.067
0.193 0.252 0.066
0.172 0.228 0.059
0.100 -0.138 0.035
0.100 -0.137 0.035
0.101 -0.136 0.035
0.102 -0.136 0.036
0.102 -0.134 0.035
0.102 -0.132 0.035
0.103 -0.131 0.035
0.103 -0.130 0.035
0.102 -0.127 0.035
0.103 -0.126 0.035
0.103 -0.125 0.035
0.103 -0.123 0.035
0.104 -0.122 0.034
0.104 -0.120 0.034
0.103 -0.118 0.034
0.103 -0.116 0.034
0.104 -0.115 0.034
0.106 -0.115 0.034
0.107 -0.114 0.034
0.108 -0.114 0.035
0.111 -0.115 0.035
0.266 -0.264 0.083
0.269 -0.262 0.084
0.272 -0.261 0.084
0.274 -0.259 0.085
0.275 -0.256 0.084
0.277 -0.253 0.085
0.272 -0.246 0.083
0.272 -0.241 0.082
0.272 -0.237 0.082
0.273 -0.234 0.082
0.272 -0.230 0.082
0.275 -0.228 0.082
0.268 -0.219 0.080
0.262 -0.211 0.078
0.200 -0.151 0.058
0.201 -0.149 0.058
0.200 -0.146 0.058
0.200 -0.143 0.058
0.200 -0.141 0.058
0.202 -0.140 0.058
0.198 -0.134 0.057
0.198 -0.132 0.056
0.200 -0.131 0.057
0.206 -0.133 0.058
0.206 -0.131 0.058
0.205 -0.127 0.058
0.195 -0.119 0.055
0.171 -0.103 0.048
0.167 -0.098 0.047
0.167 -0.096 0.047
0.168 -0.095 0.047
0.168 -0.093 0.047
0.208 -0.111 0.057
0.209 -0.109 0.057
0.209 -0.107 0.057
0.207 -0.104 0.057
0.208 -0.102 0.057
0.209 -0.100 0.057
0.208 -0.098 0.057
0.208 -0.096 0.057
0.210 -0.094 0.057
0.214 -0.094 0.058
0.209 -0.090 0.057
0.216 -0.091 0.058
0.211 -0.086 0.057
0.209 -0.083 0.056
0.206 -0.080 0.055
0.208 -0.079 0.056
0.213 -0.078 0.057
0.212 -0.076 0.057
0.198 -0.069 0.053
0.189 -0.064 0.050
0.187 -0.062 0.050
0.188 -0.060 0.050
0.190 -0.059 0.050
0.191 -0.057 0.051
0.193 -0.056 0.051
0.198 -0.056 0.052
0.300 -0.073 0.079
0.299 -0.070 0.079
0.297 -0.067 0.078
0.283 -0.061 0.075
0.291 -0.060 0.077
0.294 -0.058 0.077
0.292 -0.055 0.077
0.288 -0.051 0.075
0.285 -0.048 0.075
0.277 -0.044 0.072
0.275 -0.041 0.072
0.274 -0.039 0.072
0.273 -0.036 0.071
0.272 -0.033 0.071
0.272 -0.031 0.071
0.271 -0.028 0.071
0.274 -0.026 0.072
0.277 -0.024 0.072
0.281 -0.022 0.073
0.282 -0.019 0.074
0.282 -0.017 0.074
0.283 -0.014 0.074
0.284 -0.012 0.074
0.284 -0.009 0.074
0.281 -0.006 0.073
0.278 -0.004 0.072
0.281 -0.001 0.073
0.281 0.001 0.073
0.281 0.004 0.073
0.281 0.006 0.073
0.282 0.009 0.073
0.281 0.011 0.073
0.273 0.014 0.071
0.272 0.016 0.071
0.272 0.019 0.071
0.272 0.021 0.071
0.273 0.024 0.071
0.288 0.028 0.075
0.290 0.030 0.076
0.276 0.032 0.072
0.278 0.034 0.073
0.278 0.037 0.073
0.280 0.040 0.073
0.288 0.043 0.075
0.284 0.046 0.075
0.277 0.047 0.073
0.280 0.050 0.074
0.285 0.054 0.075
0.288 0.057 0.076
0.286 0.059 0.075
0.284 0.062 0.075
0.287 0.065 0.076
0.297 0.070 0.079
0.263 0.065 0.070
0.258 0.066 0.068
0.252 0.066 0.067
0.239 0.065 0.063
0.234 0.066 0.062
0.267 0.081 0.071
0.275 0.086 0.073
0.285 0.092 0.076
0.283 0.094 0.076
0.282 0.096 0.076
0.283 0.100 0.076
0.283 0.102 0.076
0.280 0.104 0.075
0.280 0.107 0.076
0.282 0.110 0.076
0.279 0.112 0.076
0.275 0.114 0.075
0.275 0.116 0.075
0.278 0.120 0.076
0.279 0.124 0.076
0.281 0.127 0.077
0.266 0.124 0.073
0.254 0.121 0.070
0.248 0.120 0.068
0.252 0.125 0.070
0.266 0.135 0.074
0.278 0.144 0.077
0.275 0.145 0.076
0.279 0.151 0.078
0.282 0.155 0.079
0.282 0.159 0.079
0.279 0.160 0.078
0.278 0.163 0.078
0.276 0.165 0.078
0.272 0.166 0.077
0.271 0.168 0.077
0.271 0.171 0.077
0.269 0.173 0.077
0.266 0.174 0.076
0.260 0.173 0.075
0.262 0.178 0.076
0.262 0.182 0.076
0.260 0.184 0.076
0.259 0.186 0.076
0.254 0.186 0.075
0.253 0.188 0.074
0.253 0.191 0.075
0.253 0.195 0.075
0.254 0.199 0.076
0.254 0.202 0.076
0.253 0.206 0.076
0.252 0.208 0.076
0.251 0.211 0.076
0.249 0.213 0.076
0.246 0.214 0.075
0.246 0.218 0.076
0.245 0.220 0.076
0.240 0.219 0.075
0.233 0.217 0.073
0.228 0.216 0.072
0.226 0.217 0.071
0.220 0.215 0.070
0.226 0.225 0.072
0.213 0.216 0.069
0.205 0.211 0.066
0.200 0.209 0.065
0.199 0.212 0.065
0.200 0.217 0.066
0.205 0.226 0.068
0.205 0.229 0.068
0.205 0.233 0.069
0.205 0.237 0.069
0.203 0.239 0.069
0.202 0.242 0.069
0.200 0.242 0.069
0.185 0.228 0.064
0.187 0.235 0.065
0.194 0.247 0.068
0.198 0.256 0.070
0.193 0.253 0.068
0.191 0.255 0.068
0.100 -0.137 0.037
0.101 -0.137 0.037
0.102 -0.136 0.037
0.102 -0.134 0.037
0.102 -0.132 0.036
0.102 -0.131 0.036
0.103 -0.130 0.036
0.103 -0.129 0.036
0.104 -0.127 0.036
0.104 -0.125 0.036
0.103 -0.123 0.036
0.103 -0.122 0.036
0.104 -0.120 0.036
0.104 -0.118 0.035
0.104 -0.117 0.035
0.104 -0.115 0.035
0.108 -0.118 0.036
0.109 -0.117 0.036
0.104 -0.110 0.035
0.110 -0.115 0.036
0.118 -0.121 0.039
0.265 -0.259 0.086
0.269 -0.259 0.087
0.270 -0.256 0.086
0.272 -0.253 0.087
0.273 -0.250 0.086
0.272 -0.246 0.086
0.271 -0.241 0.085
0.270 -0.236 0.085
0.270 -0.233 0.084
0.271 -0.230 0.084
0.270 -0.225 0.084
0.274 -0.225 0.084
0.264 -0.213 0.081
0.250 -0.198 0.076
0.242 -0.189 0.074
0.201 -0.154 0.061
0.197 -0.148 0.059
0.199 -0.148 0.060
0.202 -0.147 0.061
0.202 -0.145 0.060
0.206 -0.145 0.061
0.204 -0.141 0.061
0.206 -0.140 0.061
0.199 -0.133 0.059
0.203 -0.133 0.060
0.207 -0.133 0.061
0.204 -0.129 0.060
0.179 -0.111 0.052
0.171 -0.105 0.050
0.171 -0.102 0.050
0.172 -0.101 0.050
0.174 -0.100 0.050
0.209 -0.116 0.060
0.209 -0.114 0.060
0.209 -0.111 0.060
0.208 -0.109 0.059
0.206 -0.106 0.059
0.206 -0.103 0.058
0.207 -0.102 0.059
0.208 -0.100 0.059
0.207 -0.097 0.058
0.207 -0.095 0.058
0.210 -0.095 0.059
0.210 -0.092 0.059
0.197 -0.085 0.055
0.208 -0.087 0.058
0.207 -0.085 0.058
0.206 -0.082 0.057
0.210 -0.082 0.059
0.212 -0.080 0.059
0.212 -0.078 0.059
0.209 -0.075 0.058
0.211 -0.074 0.058
0.216 -0.073 0.060
0.211 -0.070 0.058
0.195 -0.062 0.054
0.190 -0.059 0.052
0.191 -0.057 0.052
0.191 -0.056 0.053
0.193 -0.055 0.053
0.194 -0.053 0.053
0.195 -0.051 0.053
0.204 -0.052 0.056
0.215 -0.053 0.059
0.273 -0.059 0.074
0.280 -0.058 0.076
0.286 -0.056 0.078
0.286 -0.054 0.078
0.286 -0.051 0.078
0.282 -0.048 0.076
0.272 -0.044 0.074
0.272 -0.041 0.074
0.276 -0.039 0.075
0.278 -0.037 0.075
0.270 -0.033 0.073
0.270 -0.031 0.073
0.272 -0.029 0.074
0.276 -0.026 0.075
0.280 -0.024 0.076
0.283 -0.022 0.077
0.284 -0.019 0.077
0.282 -0.017 0.076
0.279 -0.014 0.076
0.282 -0.012 0.076
0.282 -0.009 0.076
0.279 -0.006 0.075
0.279 -0.004 0.075
0.282 -0.001 0.076
0.284 0.001 0.077
0.283 0.004 0.076
0.281 0.006 0.076
0.280 0.009 0.076
0.274 0.011 0.074
0.271 0.014 0.073
0.275 0.016 0.074
0.268 0.018 0.073
0.261 0.020 0.071
0.261 0.023 0.071
0.275 0.026 0.074
0.283 0.030 0.077
0.283 0.032 0.077
0.278 0.034 0.075
0.278 0.037 0.075
0.282 0.040 0.077
0.280 0.042 0.076
0.279 0.045 0.076
0.281 0.048 0.076
0.281 0.050 0.077
0.282 0.053 0.077
0.283 0.056 0.077
0.284 0.059 0.078
0.281 0.061 0.077
0.282 0.064 0.077
0.273 0.064 0.075
0.261 0.064 0.072
0.250 0.064 0.069
0.242 0.064 0.066
0.240 0.066 0.066
0.240 0.068 0.066
0.252 0.074 0.070
0.265 0.080 0.073
0.277 0.087 0.077
0.281 0.091 0.078
0.281 0.093 0.078
0.277 0.095 0.077
0.278 0.098 0.077
0.276 0.100 0.077
0.273 0.102 0.076
0.272 0.104 0.076
0.274 0.108 0.077
0.275 0.111 0.077
0.270 0.111 0.076
0.272 0.115 0.077
0.273 0.118 0.077
0.269 0.119 0.076
0.257 0.117 0.073
0.260 0.121 0.074
0.265 0.126 0.075
0.260 0.127 0.074
0.257 0.128 0.073
0.260 0.132 0.074
0.262 0.136 0.075
0.263 0.139 0.076
0.264 0.143 0.076
0.273 0.151 0.079
0.274 0.154 0.079
0.274 0.157 0.080
0.272 0.160 0.079
0.271 0.162 0.079
0.267 0.162 0.078
0.258 0.160 0.076
0.260 0.164 0.077
0.256 0.165 0.076
0.253 0.166 0.075
0.254 0.170 0.076
0.260 0.177 0.078
0.258 0.179 0.077
0.255 0.180 0.077
0.252 0.181 0.076
0.252 0.184 0.076
0.250 0.186 0.076
0.250 0.189 0.076
0.250 0.193 0.077
0.251 0.197 0.077
0.251 0.201 0.078
0.251 0.204 0.078
0.249 0.206 0.078
0.247 0.208 0.078
0.245 0.210 0.077
0.244 0.212 0.077
0.240 0.213 0.077
0.237 0.213 0.076
0.230 0.211 0.074
0.223 0.208 0.072
0.216 0.205 0.070
0.215 0.207 0.070
0.218 0.214 0.072
0.211 0.210 0.070
0.204 0.207 0.068
0.199 0.205 0.067
0.197 0.206 0.066
0.198 0.212 0.067
0.197 0.213 0.067
0.198 0.218 0.068
0.203 0.227 0.070
0.204 0.233 0.071
0.204 0.236 0.071
0.199 0.235 0.070
0.197 0.236 0.070
0.195 0.237 0.069
0.191 0.237 0.069
0.188 0.236 0.068
0.193 0.246 0.070
0.197 0.255 0.072
0.193 0.254 0.071
0.197 0.263 0.073
0.101 -0.138 0.038
0.101 -0.137 0.038
0.102 -0.136 0.038
0.103 -0.135 0.038
0.102 -0.132 0.038
0.102 -0.131 0.038
0.103 -0.130 0.038
0.104 -0.129 0.038
0.104 -0.128 0.038
0.104 -0.126 0.037
0.104 -0.124 0.037
0.104 -0.122 0.037
0.104 -0.121 0.037
0.105 -0.119 0.037
0.104 -0.117 0.037
0.105 -0.116 0.037
0.108 -0.118 0.038
0.110 -0.118 0.038
0.104 -0.110 0.036
0.112 -0.117 0.038
0.106 -0.109 0.036
0.265 -0.256 0.088
0.265 -0.251 0.088
0.267 -0.250 0.088
0.271 -0.249 0.089
0.271 -0.245 0.088
0.269 -0.240 0.088
0.268 -0.234 0.087
0.268 -0.231 0.086
0.268 -0.227 0.086
0.267 -0.223 0.085
0.266 -0.218 0.085
0.263 -0.213 0.084
0.257 -0.204 0.081
0.205 -0.157 0.064
0.195 -0.148 0.061
0.195 -0.145 0.061
0.200 -0.146 0.062
0.202 -0.145 0.062
0.201 -0.142 0.062
0.207 -0.144 0.064
0.208 -0.142 0.064
0.203 -0.136 0.062
0.203 -0.134 0.062
0.204 -0.132 0.062
0.183 -0.116 0.055
0.173 -0.108 0.052
0.173 -0.105 0.052
0.171 -0.103 0.051
0.176 -0.104 0.053
0.204 -0.118 0.061
0.205 -0.116 0.061
0.207 -0.115 0.061
0.208 -0.113 0.062
0.206 -0.110 0.061
0.204 -0.107 0.060
0.204 -0.105 0.060
0.204 -0.103 0.060
0.204 -0.100 0.060
0.207 -0.100 0.061
0.206 -0.097 0.060
0.205 -0.095 0.060
0.208 -0.093 0.060
0.209 -0.092 0.061
0.212 -0.091 0.062
0.199 -0.083 0.057
0.207 -0.085 0.060
0.206 -0.082 0.059
0.207 -0.081 0.060
0.210 -0.080 0.060
0.209 -0.077 0.060
0.209 -0.075 0.060
0.212 -0.074 0.061
0.217 -0.074 0.062
0.222 -0.073 0.063
0.223 -0.072 0.064
0.230 -0.071 0.065
0.193 -0.056 0.055
0.193 -0.055 0.055
0.194 -0.053 0.055
0.194 -0.051 0.055
0.195 -0.049 0.055
0.198 -0.048 0.056
0.199 -0.047 0.056
0.200 -0.045 0.056
0.201 -0.043 0.057
0.208 -0.043 0.059
0.217 -0.043 0.061
0.265 -0.045 0.075
0.273 -0.044 0.077
0.275 -0.041 0.077
0.278 -0.039 0.078
0.276 -0.037 0.078
0.273 -0.034 0.076
0.270 -0.031 0.076
0.274 -0.029 0.077
0.277 -0.027 0.077
0.279 -0.024 0.078
0.281 -0.022 0.079
0.281 -0.019 0.079
0.280 -0.017 0.078
0.279 -0.014 0.078
0.281 -0.012 0.078
0.279 -0.009 0.078
0.278 -0.006 0.078
0.278 -0.004 0.078
0.281 -0.001 0.078
0.282 0.001 0.079
0.280 0.004 0.078
0.277 0.006 0.078
0.271 0.009 0.076
0.269 0.011 0.075
0.271 0.014 0.076
0.278 0.017 0.078
0.273 0.019 0.076
0.252 0.020 0.071
0.252 0.022 0.071
0.269 0.026 0.075
0.277 0.029 0.078
0.282 0.032 0.079
0.282 0.035 0.079
0.277 0.037 0.078
0.278 0.039 0.078
0.278 0.042 0.078
0.278 0.045 0.078
0.283 0.048 0.080
0.286 0.051 0.081
0.284 0.054 0.080
0.288 0.057 0.081
0.282 0.059 0.080
0.278 0.060 0.079
0.264 0.060 0.075
0.259 0.061 0.073
0.251 0.062 0.071
0.235 0.060 0.067
0.237 0.063 0.067
0.248 0.068 0.071
0.264 0.075 0.075
0.266 0.078 0.076
0.271 0.082 0.078
0.280 0.088 0.080
0.285 0.092 0.082
0.283 0.094 0.081
0.272 0.093 0.078
0.269 0.095 0.077
0.264 0.096 0.076
0.266 0.099 0.077
0.266 0.102 0.077
0.263 0.103 0.076
0.265 0.107 0.077
0.264 0.109 0.077
0.269 0.114 0.078
0.266 0.116 0.078
0.253 0.113 0.074
0.248 0.113 0.073
0.258 0.120 0.076
0.260 0.124 0.077
0.258 0.125 0.076
0.258 0.128 0.076
0.258 0.131 0.076
0.256 0.133 0.076
0.258 0.137 0.077
0.258 0.140 0.077
0.259 0.143 0.077
0.264 0.149 0.079
0.259 0.149 0.078
0.251 0.150 0.076
0.247 0.151 0.075
0.247 0.154 0.075
0.249 0.158 0.076
0.249 0.161 0.076
0.247 0.162 0.076
0.260 0.174 0.080
0.258 0.176 0.080
0.253 0.176 0.079
0.250 0.177 0.078
0.250 0.180 0.078
0.249 0.183 0.078
0.248 0.185 0.078
0.247 0.187 0.078
0.249 0.193 0.079
0.250 0.196 0.080
0.249 0.200 0.080
0.247 0.201 0.080
0.246 0.203 0.080
0.241 0.203 0.079
0.237 0.203 0.077
0.234 0.204 0.077
0.224 0.199 0.074
0.221 0.199 0.073
0.219 0.201 0.073
0.211 0.197 0.071
0.203 0.193 0.068
0.205 0.198 0.070
0.209 0.205 0.071
0.209 0.209 0.072
0.202 0.205 0.070
0.199 0.206 0.069
0.197 0.207 0.069
0.199 0.213 0.070
0.198 0.215 0.070
0.197 0.218 0.070
0.199 0.224 0.071
0.204 0.233 0.073
0.203 0.236 0.074
0.194 0.229 0.071
0.192 0.230 0.070
0.191 0.233 0.071
0.191 0.237 0.071
0.187 0.235 0.070
0.189 0.241 0.071
0.191 0.248 0.073
0.190 0.251 0.073
0.173 0.231 0.066
0.101 -0.138 0.039
0.101 -0.137 0.039
0.102 -0.137 0.039
0.103 -0.135 0.039
0.102 -0.132 0.039
0.103 -0.132 0.039
0.103 -0.131 0.039
0.104 -0.129 0.039
0.104 -0.128 0.039
0.105 -0.127 0.039
0.104 -0.124 0.038
0.105 -0.123 0.039
0.105 -0.122 0.038
0.105 -0.120 0.038
0.105 -0.118 0.038
0.114 -0.126 0.041
0.110 -0.120 0.039
0.107 -0.115 0.038
0.102 -0.108 0.036
0.108 -0.113 0.038
0.113 -0.116 0.040
0.118 -0.119 0.041
0.122 -0.122 0.043
0.251 -0.242 0.086
0.258 -0.245 0.088
0.260 -0.243 0.089
0.256 -0.236 0.087
0.265 -0.240 0.090
0.263 -0.234 0.089
0.262 -0.230 0.088
0.263 -0.227 0.088
0.264 -0.225 0.088
0.265 -0.222 0.088
0.264 -0.217 0.087
0.259 -0.210 0.085
0.256 -0.204 0.084
0.247 -0.193 0.080
0.205 -0.158 0.067
0.199 -0.150 0.064
0.196 -0.146 0.063
0.199 -0.146 0.064
0.200 -0.144 0.064
0.200 -0.141 0.064
0.202 -0.140 0.064
0.202 -0.138 0.064
0.202 -0.135 0.064
0.199 -0.131 0.063
0.192 -0.124 0.060
0.176 -0.112 0.055
0.174 -0.108 0.054
0.174 -0.107 0.054
0.194 -0.117 0.060
0.205 -0.121 0.063
0.208 -0.121 0.064
0.210 -0.119 0.065
0.208 -0.116 0.064
0.205 -0.112 0.063
0.204 -0.109 0.062
0.204 -0.107 0.062
0.206 -0.106 0.063
0.206 -0.104 0.063
0.206 -0.101 0.062
0.205 -0.099 0.062
0.208 -0.098 0.063
0.206 -0.095 0.062
0.207 -0.093 0.062
0.208 -0.092 0.063
0.205 -0.088 0.062
0.212 -0.089 0.064
0.207 -0.085 0.062
0.210 -0.084 0.063
0.205 -0.080 0.061
0.207 -0.078 0.061
0.208 -0.077 0.062
0.209 -0.075 0.062
0.212 -0.074 0.063
0.217 -0.074 0.064
0.223 -0.074 0.066
0.226 -0.073 0.067
0.227 -0.071 0.067
0.238 -0.072 0.070
0.244 -0.071 0.072
0.244 -0.069 0.072
0.198 -0.050 0.058
0.198 -0.049 0.058
0.199 -0.047 0.058
0.200 -0.045 0.058
0.200 -0.043 0.058
0.200 -0.041 0.058
0.202 -0.040 0.059
0.206 -0.039 0.060
0.206 -0.037 0.060
0.208 -0.035 0.060
0.212 -0.034 0.061
0.212 -0.032 0.062
0.227 -0.032 0.066
0.269 -0.033 0.078
0.269 -0.031 0.078
0.270 -0.028 0.078
0.273 -0.026 0.079
0.273 -0.024 0.079
0.274 -0.021 0.079
0.275 -0.019 0.080
0.274 -0.016 0.079
0.278 -0.014 0.080
0.278 -0.011 0.080
0.275 -0.009 0.079
0.275 -0.006 0.079
0.276 -0.004 0.080
0.275 -0.001 0.079
0.274 0.001 0.079
0.275 0.004 0.079
0.274 0.006 0.079
0.271 0.009 0.078
0.271 0.011 0.078
0.280 0.014 0.081
0.282 0.017 0.082
0.277 0.019 0.080
0.261 0.020 0.075
0.265 0.023 0.077
0.267 0.026 0.077
0.268 0.028 0.078
0.283 0.032 0.082
0.281 0.035 0.081
0.278 0.037 0.081
0.275 0.039 0.080
0.275 0.042 0.080
0.277 0.045 0.081
0.278 0.047 0.081
0.279 0.050 0.081
0.287 0.054 0.084
0.284 0.056 0.083
0.280 0.058 0.082
0.263 0.057 0.077
0.248 0.056 0.073
0.245 0.058 0.072
0.237 0.058 0.070
0.224 0.057 0.066
0.233 0.062 0.068
0.260 0.071 0.076
0.271 0.077 0.080
0.276 0.081 0.081
0.274 0.083 0.081
0.279 0.087 0.083
0.288 0.093 0.085
0.284 0.095 0.084
0.259 0.089 0.077
0.257 0.091 0.077
0.251 0.091 0.075
0.244 0.091 0.073
0.258 0.099 0.077
0.256 0.101 0.077
0.252 0.102 0.076
0.258 0.107 0.078
0.260 0.110 0.078
0.252 0.110 0.076
0.246 0.110 0.075
0.250 0.114 0.076
0.253 0.118 0.077
0.251 0.120 0.076
0.255 0.124 0.078
0.254 0.127 0.078
0.254 0.129 0.078
0.253 0.132 0.078
0.252 0.134 0.078
0.252 0.137 0.078
0.251 0.139 0.078
0.248 0.140 0.077
0.248 0.143 0.077
0.238 0.140 0.074
0.245 0.147 0.077
0.244 0.149 0.077
0.244 0.152 0.077
0.246 0.156 0.078
0.245 0.159 0.078
0.246 0.162 0.078
0.256 0.172 0.082
0.255 0.174 0.082
0.245 0.171 0.079
0.248 0.176 0.080
0.248 0.179 0.080
0.247 0.182 0.080
0.246 0.184 0.080
0.245 0.187 0.080
0.247 0.191 0.081
0.246 0.194 0.081
0.247 0.198 0.082
0.244 0.199 0.081
0.237 0.197 0.080
0.232 0.196 0.078
0.228 0.196 0.077
0.221 0.193 0.075
0.215 0.191 0.073
0.210 0.190 0.072
0.208 0.192 0.072
0.204 0.191 0.071
0.200 0.190 0.070
0.195 0.189 0.068
0.200 0.197 0.070
0.203 0.204 0.072
0.201 0.205 0.072
0.197 0.205 0.071
0.198 0.208 0.071
0.198 0.212 0.072
0.199 0.216 0.073
0.198 0.220 0.073
0.198 0.223 0.073
0.203 0.232 0.075
0.202 0.235 0.076
0.194 0.230 0.073
0.192 0.230 0.073
0.192 0.234 0.073
0.191 0.237 0.074
0.191 0.241 0.074
0.190 0.243 0.074
0.189 0.245 0.074
0.187 0.246 0.074
0.200 0.268 0.079
0.101 -0.137 0.041
0.102 -0.137 0.041
0.102 -0.134 0.040
0.103 -0.134 0.041
0.103 -0.133 0.041
0.104 -0.132 0.041
0.105 -0.131 0.041
0.105 -0.129 0.041
0.105 -0.128 0.041
0.105 -0.125 0.040
0.105 -0.124 0.040
0.106 -0.123 0.040
0.105 -0.121 0.040
0.107 -0.120 0.040
0.112 -0.124 0.042
0.106 -0.116 0.039
0.106 -0.114 0.039
0.100 -0.106 0.037
0.107 -0.112 0.039
0.122 -0.126 0.044
0.114 -0.115 0.041
0.116 -0.115 0.042
0.117 -0.115 0.042
0.238 -0.230 0.085
0.250 -0.238 0.089
0.249 -0.233 0.088
0.251 -0.231 0.088
0.255 -0.231 0.089
0.258 -0.230 0.090
0.257 -0.226 0.089
0.257 -0.222 0.089
0.260 -0.221 0.089
0.263 -0.220 0.090
0.263 -0.216 0.089
0.258 -0.209 0.087
0.251 -0.200 0.085
0.239 -0.187 0.080
0.200 -0.152 0.067
0.200 -0.149 0.067
0.201 -0.147 0.067
0.200 -0.144 0.066
0.200 -0.141 0.066
0.198 -0.138 0.065
0.199 -0.136 0.065
