VERSION .7
FIELDS x y z
SIZE 4 4 4
TYPE F F F
COUNT 1 1 1
WIDTH     2535
HEIGHT 1
VIEWPOINT 0 0 0 1 0 0 0
POINTS     2535
DATA ascii
0.205 -0.221 -0.007
0.206 -0.219 -0.007
0.210 -0.219 -0.007
0.212 -0.218 -0.007
0.214 -0.217 -0.007
0.215 -0.215 -0.007
0.217 -0.213 -0.007
0.221 -0.214 -0.007
0.223 -0.213 -0.008
0.225 -0.211 -0.008
0.227 -0.210 -0.008
0.231 -0.211 -0.008
0.234 -0.210 -0.008
0.237 -0.209 -0.008
0.239 -0.207 -0.008
0.242 -0.207 -0.008
0.244 -0.205 -0.008
0.246 -0.204 -0.008
0.251 -0.205 -0.008
0.250 -0.201 -0.008
0.225 -0.178 -0.007
0.216 -0.167 -0.007
0.212 -0.162 -0.007
0.200 -0.150 -0.007
0.203 -0.150 -0.007
0.207 -0.150 -0.007
0.205 -0.146 -0.007
0.205 -0.144 -0.007
0.205 -0.142 -0.007
0.207 -0.141 -0.007
0.211 -0.140 -0.007
0.216 -0.141 -0.007
0.219 -0.141 -0.007
0.218 -0.138 -0.007
0.216 -0.134 -0.007
0.214 -0.130 -0.007
0.220 -0.132 -0.007
0.226 -0.133 -0.007
0.224 -0.129 -0.007
0.218 -0.123 -0.007
0.213 -0.118 -0.007
0.208 -0.113 -0.007
0.207 -0.110 -0.007
0.210 -0.110 -0.007
0.215 -0.110 -0.007
0.210 -0.106 -0.007
0.211 -0.104 -0.007
0.206 -0.099 -0.006
0.206 -0.097 -0.006
0.218 -0.101 -0.007
0.223 -0.101 -0.007
0.225 -0.099 -0.007
0.224 -0.097 -0.007
0.219 -0.093 -0.007
0.226 -0.093 -0.007
0.217 -0.087 -0.007
0.212 -0.083 -0.007
0.209 -0.080 -0.006
0.217 -0.081 -0.007
0.235 -0.085 -0.007
0.238 -0.084 -0.007
0.247 -0.085 -0.008
0.242 -0.081 -0.007
0.243 -0.079 -0.007
0.254 -0.080 -0.008
0.264 -0.081 -0.008
0.278 -0.082 -0.009
0.290 -0.083 -0.009
0.386 -0.107 -0.012
0.397 -0.106 -0.012
0.410 -0.106 -0.013
0.413 -0.103 -0.013
0.424 -0.102 -0.013
0.425 -0.098 -0.013
0.420 -0.093 -0.013
0.402 -0.086 -0.012
0.390 -0.079 -0.012
0.386 -0.075 -0.012
0.291 -0.051 -0.009
0.290 -0.048 -0.009
0.286 -0.045 -0.009
0.288 -0.043 -0.009
0.291 -0.041 -0.009
0.292 -0.038 -0.009
0.293 -0.036 -0.009
0.282 -0.032 -0.009
0.285 -0.030 -0.009
0.297 -0.028 -0.009
0.306 -0.026 -0.009
0.311 -0.024 -0.009
0.312 -0.021 -0.009
0.308 -0.018 -0.009
0.298 -0.015 -0.009
0.296 -0.012 -0.009
0.307 -0.010 -0.009
0.313 -0.007 -0.010
0.300 -0.004 -0.009
0.302 -0.001 -0.009
0.303 0.001 -0.009
0.307 0.004 -0.009
0.308 0.007 -0.009
0.310 0.010 -0.009
0.312 0.013 -0.009
0.313 0.015 -0.010
0.315 0.018 -0.010
0.316 0.021 -0.010
0.317 0.024 -0.010
0.318 0.027 -0.010
0.318 0.030 -0.010
0.318 0.033 -0.010
0.318 0.036 -0.010
0.320 0.039 -0.010
0.321 0.042 -0.010
0.321 0.045 -0.010
0.319 0.047 -0.010
0.320 0.050 -0.010
0.320 0.053 -0.010
0.320 0.056 -0.010
0.319 0.059 -0.010
0.318 0.062 -0.010
0.319 0.065 -0.010
0.316 0.067 -0.010
0.317 0.070 -0.010
0.316 0.073 -0.010
0.315 0.076 -0.010
0.313 0.078 -0.010
0.312 0.081 -0.010
0.321 0.086 -0.010
0.319 0.089 -0.010
0.319 0.092 -0.010
0.327 0.097 -0.010
0.335 0.103 -0.010
0.326 0.103 -0.010
0.323 0.106 -0.010
0.322 0.108 -0.010
0.320 0.111 -0.010
0.329 0.117 -0.010
0.335 0.122 -0.010
0.334 0.125 -0.010
0.324 0.125 -0.010
0.335 0.132 -0.010
0.380 0.162 -0.012
0.370 0.161 -0.012
0.355 0.158 -0.011
0.353 0.172 -0.011
0.365 0.205 -0.012
0.360 0.207 -0.011
0.327 0.192 -0.010
0.326 0.194 -0.010
0.326 0.198 -0.010
0.326 0.202 -0.010
0.322 0.203 -0.010
0.319 0.205 -0.010
0.316 0.207 -0.010
0.313 0.208 -0.010
0.311 0.211 -0.010
0.309 0.213 -0.010
0.308 0.216 -0.010
0.305 0.218 -0.010
1.314 1.096 -0.044
1.326 1.163 -0.045
1.326 1.182 -0.045
1.322 1.199 -0.045
1.312 1.210 -0.045
1.327 1.244 -0.045
1.327 1.265 -0.046
1.333 1.292 -0.046
1.336 1.316 -0.046
0.512 0.548 -0.018
0.502 0.546 -0.018
0.494 0.555 -0.018
0.499 0.570 -0.018
0.502 0.583 -0.018
0.510 0.602 -0.018
0.503 0.604 -0.018
0.491 0.599 -0.018
0.421 0.530 -0.015
0.449 0.584 -0.016
0.163 -0.224 -0.004
0.168 -0.228 -0.004
0.167 -0.224 -0.004
0.169 -0.223 -0.004
0.171 -0.223 -0.004
0.176 -0.227 -0.004
0.189 -0.239 -0.005
0.195 -0.244 -0.005
0.197 -0.243 -0.005
0.197 -0.240 -0.005
0.195 -0.234 -0.005
0.193 -0.227 -0.005
0.194 -0.226 -0.005
0.196 -0.224 -0.005
0.198 -0.223 -0.005
0.201 -0.223 -0.005
0.204 -0.223 -0.005
0.205 -0.221 -0.005
0.207 -0.220 -0.005
0.209 -0.218 -0.005
0.212 -0.218 -0.005
0.214 -0.217 -0.005
0.216 -0.215 -0.005
0.218 -0.214 -0.005
0.220 -0.213 -0.005
0.224 -0.214 -0.005
0.225 -0.212 -0.005
0.228 -0.211 -0.005
0.231 -0.210 -0.005
0.235 -0.210 -0.005
0.236 -0.208 -0.005
0.238 -0.207 -0.005
0.241 -0.206 -0.006
0.244 -0.206 -0.006
0.246 -0.204 -0.006
0.252 -0.205 -0.006
0.248 -0.198 -0.006
0.227 -0.179 -0.005
0.215 -0.167 -0.005
0.210 -0.160 -0.005
0.207 -0.155 -0.005
0.201 -0.148 -0.005
0.205 -0.149 -0.005
0.209 -0.149 -0.005
0.208 -0.146 -0.005
0.207 -0.143 -0.005
0.205 -0.139 -0.005
0.209 -0.140 -0.005
0.210 -0.138 -0.005
0.216 -0.139 -0.005
0.218 -0.138 -0.005
0.216 -0.134 -0.005
0.213 -0.130 -0.005
0.212 -0.127 -0.005
0.225 -0.132 -0.005
0.222 -0.128 -0.005
0.221 -0.125 -0.005
0.216 -0.120 -0.005
0.210 -0.115 -0.005
0.206 -0.110 -0.005
0.206 -0.108 -0.005
0.212 -0.109 -0.005
0.212 -0.107 -0.005
0.212 -0.104 -0.005
0.214 -0.103 -0.005
0.218 -0.103 -0.005
0.218 -0.101 -0.005
0.220 -0.100 -0.005
0.224 -0.099 -0.005
0.226 -0.097 -0.005
0.225 -0.095 -0.005
0.220 -0.091 -0.005
0.218 -0.088 -0.005
0.211 -0.083 -0.005
0.207 -0.079 -0.004
0.207 -0.077 -0.004
0.236 -0.086 -0.005
0.246 -0.087 -0.005
0.251 -0.086 -0.005
0.255 -0.085 -0.006
0.259 -0.084 -0.006
0.264 -0.083 -0.006
0.274 -0.084 -0.006
0.284 -0.084 -0.006
0.300 -0.086 -0.006
0.383 -0.106 -0.008
0.392 -0.105 -0.008
0.405 -0.105 -0.009
0.418 -0.104 -0.009
0.423 -0.102 -0.009
0.429 -0.099 -0.009
0.425 -0.094 -0.009
0.401 -0.085 -0.009
0.390 -0.079 -0.008
0.397 -0.077 -0.009
0.292 -0.051 -0.006
0.289 -0.048 -0.006
0.287 -0.045 -0.006
0.285 -0.042 -0.006
0.288 -0.040 -0.006
0.291 -0.038 -0.006
0.289 -0.035 -0.006
0.285 -0.032 -0.006
0.284 -0.029 -0.006
0.295 -0.028 -0.006
0.306 -0.026 -0.007
0.314 -0.024 -0.007
0.311 -0.021 -0.007
0.309 -0.018 -0.007
0.305 -0.015 -0.007
0.303 -0.012 -0.006
0.303 -0.010 -0.006
0.314 -0.007 -0.007
0.315 -0.004 -0.007
0.302 -0.001 -0.006
0.303 0.001 -0.006
0.305 0.004 -0.007
0.306 0.007 -0.007
0.306 0.010 -0.007
0.310 0.012 -0.007
0.312 0.015 -0.007
0.314 0.018 -0.007
0.316 0.021 -0.007
0.316 0.024 -0.007
0.316 0.027 -0.007
0.317 0.030 -0.007
0.317 0.033 -0.007
0.318 0.036 -0.007
0.318 0.039 -0.007
0.317 0.041 -0.007
0.317 0.044 -0.007
0.317 0.047 -0.007
0.318 0.050 -0.007
0.318 0.053 -0.007
0.318 0.056 -0.007
0.319 0.059 -0.007
0.316 0.062 -0.007
0.315 0.064 -0.007
0.315 0.067 -0.007
0.315 0.070 -0.007
0.316 0.073 -0.007
0.315 0.076 -0.007
0.312 0.078 -0.007
0.322 0.084 -0.007
0.322 0.087 -0.007
0.325 0.091 -0.007
0.323 0.093 -0.007
0.305 0.091 -0.007
0.307 0.094 -0.007
0.319 0.101 -0.007
0.320 0.105 -0.007
0.320 0.107 -0.007
0.326 0.113 -0.007
0.335 0.119 -0.007
0.337 0.123 -0.007
0.337 0.127 -0.007
0.334 0.129 -0.007
0.363 0.151 -0.008
0.374 0.163 -0.008
0.370 0.165 -0.008
0.362 0.180 -0.008
0.330 0.171 -0.007
0.336 0.185 -0.007
0.338 0.190 -0.008
0.340 0.195 -0.008
0.329 0.192 -0.007
0.325 0.194 -0.007
0.323 0.196 -0.007
0.324 0.201 -0.007
0.321 0.203 -0.007
0.319 0.205 -0.007
0.317 0.207 -0.007
0.313 0.209 -0.007
0.310 0.210 -0.007
0.310 0.214 -0.007
0.309 0.217 -0.007
0.297 0.212 -0.007
1.322 0.996 -0.030
1.295 0.993 -0.030
1.292 1.007 -0.030
1.306 1.035 -0.030
1.299 1.048 -0.030
1.304 1.070 -0.030
1.303 1.087 -0.030
1.307 1.109 -0.030
1.313 1.132 -0.031
1.325 1.162 -0.031
1.322 1.179 -0.031
1.318 1.195 -0.031
1.314 1.211 -0.031
1.315 1.233 -0.031
1.332 1.269 -0.031
1.333 1.291 -0.032
1.329 1.309 -0.032
1.326 1.327 -0.032
0.510 0.546 -0.012
0.502 0.546 -0.012
0.505 0.586 -0.012
0.510 0.602 -0.012
0.505 0.606 -0.012
0.496 0.605 -0.012
0.150 -0.206 -0.002
0.164 -0.222 -0.002
0.168 -0.225 -0.002
0.170 -0.225 -0.002
0.178 -0.233 -0.002
0.179 -0.230 -0.002
0.188 -0.238 -0.002
0.194 -0.242 -0.002
0.196 -0.242 -0.002
0.190 -0.231 -0.002
0.190 -0.228 -0.002
0.192 -0.227 -0.002
0.195 -0.226 -0.002
0.196 -0.225 -0.002
0.199 -0.224 -0.002
0.201 -0.224 -0.003
0.203 -0.223 -0.003
0.205 -0.221 -0.003
0.207 -0.220 -0.003
0.210 -0.219 -0.003
0.212 -0.218 -0.003
0.214 -0.217 -0.003
0.216 -0.216 -0.003
0.218 -0.215 -0.003
0.223 -0.216 -0.003
0.225 -0.214 -0.003
0.226 -0.212 -0.003
0.228 -0.210 -0.003
0.231 -0.210 -0.003
0.234 -0.209 -0.003
0.237 -0.209 -0.003
0.238 -0.207 -0.003
0.242 -0.206 -0.003
0.244 -0.205 -0.003
0.248 -0.205 -0.003
0.250 -0.203 -0.003
0.246 -0.197 -0.003
0.211 -0.164 -0.003
0.211 -0.161 -0.003
0.210 -0.158 -0.003
0.208 -0.154 -0.003
0.209 -0.152 -0.003
0.211 -0.151 -0.003
0.216 -0.151 -0.003
0.211 -0.146 -0.003
0.210 -0.142 -0.003
0.206 -0.137 -0.003
0.212 -0.139 -0.003
0.216 -0.139 -0.003
0.217 -0.137 -0.003
0.213 -0.132 -0.003
0.209 -0.127 -0.003
0.219 -0.131 -0.003
0.217 -0.127 -0.003
0.219 -0.127 -0.003
0.221 -0.125 -0.003
0.222 -0.123 -0.003
0.218 -0.119 -0.003
0.202 -0.108 -0.003
0.203 -0.107 -0.003
0.211 -0.109 -0.003
0.214 -0.108 -0.003
0.201 -0.099 -0.003
0.205 -0.099 -0.003
0.206 -0.097 -0.003
0.209 -0.097 -0.003
0.215 -0.097 -0.003
0.220 -0.097 -0.003
0.225 -0.097 -0.003
0.228 -0.096 -0.003
0.219 -0.090 -0.003
0.218 -0.088 -0.003
0.208 -0.082 -0.003
0.212 -0.081 -0.003
0.209 -0.078 -0.003
0.219 -0.079 -0.003
0.241 -0.085 -0.003
0.245 -0.084 -0.003
0.252 -0.084 -0.003
0.253 -0.082 -0.003
0.258 -0.081 -0.003
0.271 -0.083 -0.003
0.281 -0.083 -0.003
0.291 -0.083 -0.004
0.382 -0.106 -0.005
0.392 -0.105 -0.005
0.412 -0.107 -0.005
0.418 -0.104 -0.005
0.423 -0.102 -0.005
0.429 -0.099 -0.005
0.428 -0.095 -0.005
0.389 -0.079 -0.005
0.384 -0.075 -0.005
0.384 -0.071 -0.005
0.289 -0.051 -0.004
0.288 -0.048 -0.004
0.284 -0.045 -0.004
0.284 -0.042 -0.004
0.285 -0.040 -0.004
0.290 -0.038 -0.004
0.292 -0.036 -0.004
0.287 -0.032 -0.004
0.286 -0.030 -0.004
0.286 -0.027 -0.004
0.303 -0.026 -0.004
0.306 -0.023 -0.004
0.303 -0.021 -0.004
0.308 -0.018 -0.004
0.313 -0.016 -0.004
0.309 -0.013 -0.004
0.308 -0.010 -0.004
0.307 -0.007 -0.004
0.315 -0.004 -0.004
0.319 -0.002 -0.004
0.302 0.001 -0.004
0.304 0.004 -0.004
0.305 0.007 -0.004
0.305 0.010 -0.004
0.309 0.012 -0.004
0.309 0.015 -0.004
0.312 0.018 -0.004
0.312 0.021 -0.004
0.315 0.024 -0.004
0.315 0.027 -0.004
0.314 0.030 -0.004
0.316 0.033 -0.004
0.317 0.036 -0.004
0.316 0.038 -0.004
0.315 0.041 -0.004
0.315 0.044 -0.004
0.316 0.047 -0.004
0.316 0.050 -0.004
0.315 0.053 -0.004
0.316 0.056 -0.004
0.316 0.059 -0.004
0.314 0.061 -0.004
0.314 0.064 -0.004
0.314 0.067 -0.004
0.314 0.070 -0.004
0.314 0.073 -0.004
0.312 0.075 -0.004
0.320 0.080 -0.004
0.325 0.085 -0.004
0.329 0.089 -0.004
0.334 0.093 -0.004
0.337 0.097 -0.004
0.312 0.093 -0.004
0.307 0.094 -0.004
0.315 0.100 -0.004
0.322 0.105 -0.004
0.321 0.108 -0.004
0.314 0.109 -0.004
0.326 0.116 -0.004
0.335 0.122 -0.004
0.335 0.126 -0.004
0.343 0.132 -0.004
0.327 0.129 -0.004
0.327 0.133 -0.004
0.373 0.159 -0.005
0.381 0.166 -0.005
0.367 0.164 -0.005
0.366 0.167 -0.005
0.334 0.173 -0.004
0.334 0.177 -0.004
0.331 0.186 -0.004
0.326 0.187 -0.004
0.330 0.193 -0.004
0.325 0.194 -0.004
0.324 0.197 -0.004
0.322 0.199 -0.004
0.320 0.202 -0.004
0.318 0.204 -0.004
0.316 0.207 -0.004
0.314 0.209 -0.004
0.309 0.210 -0.004
0.309 0.213 -0.004
0.309 0.217 -0.004
0.293 0.210 -0.004
1.300 0.996 -0.017
1.294 1.009 -0.017
1.297 1.028 -0.017
1.298 1.047 -0.017
1.295 1.062 -0.017
1.300 1.084 -0.017
1.303 1.105 -0.017
1.309 1.129 -0.017
1.311 1.149 -0.017
1.318 1.175 -0.017
1.318 1.195 -0.017
1.316 1.213 -0.017
1.315 1.232 -0.017
1.315 1.253 -0.017
1.318 1.277 -0.017
1.321 1.301 -0.017
1.324 1.326 -0.017
1.328 1.351 -0.017
0.507 0.588 -0.006
0.508 0.600 -0.006
0.505 0.606 -0.006
0.492 0.600 -0.006
0.153 -0.211 -0.000
0.166 -0.225 -0.000
0.169 -0.227 -0.000
0.178 -0.236 -0.000
0.186 -0.242 -0.000
0.189 -0.243 -0.000
0.188 -0.238 -0.000
0.192 -0.240 -0.000
0.187 -0.230 -0.000
0.189 -0.229 -0.000
0.191 -0.229 -0.000
0.193 -0.227 -0.000
0.195 -0.226 -0.000
0.197 -0.225 -0.000
0.199 -0.225 -0.000
0.201 -0.223 -0.000
0.203 -0.222 -0.000
0.205 -0.221 -0.000
0.207 -0.220 -0.000
0.210 -0.219 -0.000
0.212 -0.219 -0.000
0.214 -0.217 -0.000
0.216 -0.215 -0.000
0.218 -0.214 -0.000
0.223 -0.216 -0.000
0.225 -0.215 -0.000
0.226 -0.212 -0.000
0.229 -0.211 -0.001
0.231 -0.211 -0.001
0.234 -0.210 -0.001
0.237 -0.209 -0.001
0.240 -0.209 -0.001
0.242 -0.207 -0.001
0.245 -0.206 -0.001
0.247 -0.205 -0.001
0.250 -0.204 -0.001
0.251 -0.201 -0.001
0.216 -0.168 -0.001
0.213 -0.162 -0.001
0.212 -0.159 -0.001
0.210 -0.155 -0.001
0.209 -0.152 -0.001
0.216 -0.154 -0.001
0.215 -0.151 -0.001
0.217 -0.150 -0.001
0.208 -0.141 -0.001
0.204 -0.136 -0.001
0.214 -0.140 -0.001
0.217 -0.140 -0.001
0.215 -0.136 -0.001
0.208 -0.129 -0.001
0.205 -0.125 -0.001
0.212 -0.127 -0.001
0.216 -0.127 -0.001
0.216 -0.125 -0.001
0.219 -0.124 -0.001
0.221 -0.123 -0.001
0.218 -0.119 -0.001
0.215 -0.115 -0.001
0.210 -0.110 -0.001
0.212 -0.109 -0.001
0.214 -0.107 -0.001
0.212 -0.104 -0.001
0.207 -0.100 -0.001
0.208 -0.098 -0.001
0.210 -0.097 -0.001
0.212 -0.096 -0.001
0.214 -0.095 -0.001
0.222 -0.096 -0.001
0.225 -0.095 -0.001
0.229 -0.094 -0.001
0.212 -0.085 -0.001
0.219 -0.086 -0.001
0.217 -0.083 -0.001
0.235 -0.085 -0.001
0.233 -0.082 -0.001
0.237 -0.082 -0.001
0.242 -0.081 -0.001
0.248 -0.081 -0.001
0.252 -0.079 -0.001
0.254 -0.078 -0.001
0.270 -0.080 -0.001
0.271 -0.078 -0.001
0.405 -0.109 -0.001
0.409 -0.106 -0.001
0.415 -0.104 -0.001
0.423 -0.102 -0.001
0.431 -0.100 -0.001
0.427 -0.095 -0.001
0.415 -0.088 -0.001
0.388 -0.079 -0.001
0.380 -0.074 -0.001
0.368 -0.068 -0.001
0.293 -0.052 -0.001
0.285 -0.048 -0.001
0.284 -0.045 -0.001
0.285 -0.042 -0.001
0.289 -0.040 -0.001
0.289 -0.038 -0.001
0.297 -0.036 -0.001
0.296 -0.033 -0.001
0.287 -0.030 -0.001
0.285 -0.027 -0.001
0.287 -0.025 -0.001
0.300 -0.023 -0.001
0.295 -0.020 -0.001
0.306 -0.018 -0.001
0.314 -0.016 -0.001
0.309 -0.013 -0.001
0.306 -0.010 -0.001
0.304 -0.007 -0.001
0.308 -0.004 -0.001
0.321 -0.002 -0.001
0.309 0.001 -0.001
0.303 0.004 -0.001
0.303 0.007 -0.001
0.305 0.010 -0.001
0.307 0.012 -0.001
0.310 0.015 -0.001
0.310 0.018 -0.001
0.312 0.021 -0.001
0.314 0.024 -0.001
0.313 0.027 -0.001
0.313 0.030 -0.001
0.314 0.032 -0.001
0.314 0.035 -0.001
0.314 0.038 -0.001
0.314 0.041 -0.001
0.315 0.044 -0.001
0.315 0.047 -0.001
0.315 0.050 -0.001
0.315 0.053 -0.001
0.314 0.055 -0.001
0.314 0.058 -0.001
0.314 0.061 -0.001
0.312 0.064 -0.001
0.314 0.067 -0.001
0.314 0.070 -0.001
0.313 0.072 -0.001
0.314 0.076 -0.001
0.325 0.081 -0.001
0.324 0.084 -0.001
0.329 0.089 -0.001
0.342 0.095 -0.001
0.342 0.099 -0.001
0.324 0.096 -0.001
0.315 0.097 -0.001
0.318 0.101 -0.001
0.326 0.106 -0.001
0.325 0.109 -0.001
0.315 0.109 -0.001
0.316 0.112 -0.001
0.322 0.118 -0.001
0.334 0.125 -0.001
0.331 0.127 -0.001
0.328 0.130 -0.001
0.346 0.140 -0.001
0.353 0.147 -0.001
0.358 0.156 -0.001
0.368 0.164 -0.001
0.360 0.164 -0.001
0.311 0.148 -0.001
0.343 0.170 -0.001
0.333 0.177 -0.001
0.335 0.185 -0.001
0.335 0.188 -0.001
0.336 0.193 -0.001
0.329 0.192 -0.001
0.326 0.194 -0.001
0.324 0.197 -0.001
0.323 0.200 -0.001
0.321 0.202 -0.001
0.317 0.203 -0.001
0.314 0.205 -0.001
0.312 0.208 -0.001
0.311 0.211 -0.001
0.309 0.214 -0.001
0.308 0.216 -0.001
0.293 0.209 -0.001
1.348 0.998 -0.004
1.305 1.000 -0.003
1.300 1.013 -0.003
1.294 1.026 -0.003
1.293 1.043 -0.003
1.310 1.075 -0.003
1.301 1.085 -0.003
1.300 1.103 -0.003
1.300 1.121 -0.003
1.303 1.143 -0.003
1.309 1.167 -0.003
1.315 1.192 -0.003
1.310 1.208 -0.003
1.310 1.227 -0.003
1.311 1.249 -0.003
1.317 1.276 -0.003
1.333 1.313 -0.003
1.332 1.356 -0.003
1.339 1.409 -0.002
0.491 0.534 -0.001
0.489 0.540 -0.001
0.443 0.498 -0.001
0.501 0.582 -0.001
0.502 0.592 -0.001
0.498 0.597 -0.001
0.366 0.460 -0.000
0.357 0.457 -0.000
0.356 0.463 -0.000
0.165 -0.227 0.002
0.168 -0.228 0.002
0.175 -0.235 0.002
0.182 -0.240 0.002
0.192 -0.250 0.002
0.192 -0.247 0.002
0.187 -0.238 0.002
0.185 -0.231 0.002
0.186 -0.230 0.002
0.189 -0.229 0.002
0.191 -0.229 0.002
0.193 -0.228 0.002
0.195 -0.226 0.002
0.197 -0.225 0.002
0.199 -0.224 0.002
0.201 -0.223 0.002
0.203 -0.222 0.002
0.205 -0.221 0.002
0.208 -0.220 0.002
0.210 -0.220 0.002
0.212 -0.219 0.002
0.214 -0.217 0.002
0.215 -0.215 0.002
0.218 -0.214 0.002
0.222 -0.215 0.002
0.224 -0.214 0.002
0.226 -0.212 0.002
0.229 -0.211 0.002
0.231 -0.211 0.002
0.234 -0.210 0.002
0.237 -0.209 0.002
0.240 -0.209 0.002
0.243 -0.208 0.002
0.245 -0.206 0.002
0.247 -0.205 0.002
0.250 -0.204 0.002
0.250 -0.200 0.002
0.233 -0.184 0.002
0.222 -0.172 0.002
0.212 -0.162 0.002
0.210 -0.157 0.002
0.208 -0.154 0.002
0.212 -0.154 0.002
0.216 -0.154 0.002
0.217 -0.153 0.002
0.210 -0.145 0.001
0.206 -0.140 0.001
0.212 -0.141 0.001
0.199 -0.131 0.001
0.216 -0.139 0.001
0.216 -0.137 0.001
0.205 -0.128 0.001
0.209 -0.128 0.001
0.212 -0.127 0.001
0.215 -0.127 0.001
0.215 -0.124 0.001
0.217 -0.123 0.001
0.218 -0.121 0.001
0.214 -0.117 0.001
0.211 -0.113 0.001
0.201 -0.105 0.001
0.210 -0.108 0.001
0.210 -0.105 0.001
0.210 -0.103 0.001
0.208 -0.100 0.001
0.209 -0.099 0.001
0.212 -0.098 0.001
0.210 -0.095 0.001
0.215 -0.095 0.001
0.219 -0.095 0.001
0.218 -0.092 0.001
0.216 -0.089 0.001
0.219 -0.088 0.001
0.221 -0.087 0.001
0.215 -0.082 0.001
0.203 -0.076 0.001
0.234 -0.085 0.001
0.239 -0.084 0.001
0.241 -0.083 0.001
0.253 -0.085 0.001
0.262 -0.085 0.002
0.263 -0.083 0.002
0.260 -0.080 0.002
0.264 -0.078 0.002
0.269 -0.077 0.002
0.406 -0.109 0.002
0.408 -0.106 0.002
0.414 -0.103 0.002
0.420 -0.101 0.002
0.425 -0.098 0.002
0.428 -0.095 0.002
0.409 -0.087 0.002
0.393 -0.080 0.002
0.381 -0.074 0.002
0.295 -0.052 0.002
0.290 -0.048 0.002
0.283 -0.045 0.002
0.287 -0.043 0.002
0.289 -0.040 0.002
0.291 -0.038 0.002
0.294 -0.036 0.002
0.297 -0.033 0.002
0.290 -0.030 0.002
0.287 -0.027 0.002
0.286 -0.024 0.002
0.288 -0.022 0.002
0.308 -0.021 0.002
0.309 -0.018 0.002
0.309 -0.015 0.002
0.303 -0.012 0.002
0.305 -0.010 0.002
0.302 -0.007 0.002
0.306 -0.004 0.002
0.313 -0.001 0.002
0.326 0.001 0.002
0.319 0.004 0.002
0.300 0.007 0.002
0.302 0.009 0.002
0.305 0.012 0.002
0.306 0.015 0.002
0.308 0.018 0.002
0.311 0.021 0.002
0.313 0.024 0.002
0.313 0.027 0.002
0.312 0.029 0.002
0.313 0.032 0.002
0.313 0.035 0.002
0.312 0.038 0.002
0.313 0.041 0.002
0.314 0.044 0.002
0.315 0.047 0.002
0.314 0.050 0.002
0.314 0.052 0.002
0.313 0.055 0.002
0.313 0.058 0.002
0.312 0.061 0.002
0.313 0.064 0.002
0.312 0.067 0.002
0.313 0.069 0.002
0.314 0.073 0.002
0.328 0.079 0.002
0.325 0.081 0.002
0.319 0.083 0.002
0.321 0.086 0.002
0.333 0.093 0.002
0.312 0.090 0.002
0.310 0.092 0.002
0.314 0.096 0.002
0.320 0.101 0.002
0.322 0.105 0.002
0.334 0.112 0.002
0.329 0.114 0.002
0.318 0.113 0.002
0.319 0.116 0.002
0.327 0.123 0.002
0.332 0.128 0.002
0.334 0.132 0.002
0.350 0.142 0.002
0.358 0.149 0.002
0.357 0.155 0.002
0.359 0.160 0.002
0.344 0.157 0.002
0.340 0.173 0.002
0.322 0.167 0.002
0.326 0.180 0.002
0.335 0.192 0.002
0.327 0.191 0.002
0.326 0.194 0.002
0.324 0.197 0.002
0.322 0.199 0.002
0.319 0.201 0.002
0.317 0.203 0.002
0.314 0.206 0.002
0.312 0.208 0.002
0.311 0.211 0.002
0.311 0.214 0.002
0.308 0.217 0.002
1.323 1.014 0.010
1.292 1.007 0.010
1.291 1.024 0.010
1.304 1.052 0.010
1.312 1.076 0.010
1.307 1.090 0.010
1.306 1.108 0.010
1.307 1.128 0.010
1.331 1.207 0.011
1.318 1.215 0.011
1.309 1.227 0.011
1.332 1.270 0.011
1.337 1.295 0.012
1.355 1.335 0.012
1.329 1.353 0.012
1.360 1.407 0.012
0.369 0.436 0.004
0.367 0.441 0.004
0.364 0.444 0.004
0.363 0.450 0.004
0.358 0.451 0.004
0.354 0.453 0.004
0.171 -0.235 0.004
0.178 -0.242 0.004
0.176 -0.236 0.004
0.185 -0.245 0.004
0.185 -0.241 0.004
0.184 -0.237 0.004
0.183 -0.232 0.004
0.185 -0.232 0.004
0.186 -0.230 0.004
0.188 -0.229 0.004
0.191 -0.229 0.004
0.193 -0.227 0.004
0.194 -0.225 0.004
0.196 -0.224 0.004
0.198 -0.224 0.004
0.201 -0.223 0.004
0.203 -0.222 0.004
0.205 -0.221 0.004
0.208 -0.221 0.004
0.211 -0.220 0.004
0.213 -0.219 0.004
0.213 -0.216 0.004
0.216 -0.216 0.004
0.218 -0.215 0.004
0.221 -0.214 0.004
0.224 -0.213 0.004
0.226 -0.212 0.004
0.229 -0.211 0.004
0.232 -0.211 0.004
0.234 -0.210 0.004
0.236 -0.208 0.004
0.240 -0.208 0.004
0.244 -0.208 0.004
0.246 -0.207 0.004
0.247 -0.205 0.004
0.250 -0.204 0.004
0.248 -0.199 0.004
0.242 -0.191 0.004
0.221 -0.171 0.004
0.213 -0.162 0.004
0.207 -0.155 0.004
0.208 -0.153 0.004
0.211 -0.153 0.004
0.216 -0.154 0.004
0.213 -0.150 0.004
0.209 -0.144 0.004
0.210 -0.142 0.004
0.209 -0.140 0.003
0.211 -0.138 0.004
0.205 -0.132 0.003
0.218 -0.138 0.004
0.219 -0.136 0.004
0.221 -0.135 0.004
0.227 -0.136 0.004
0.218 -0.128 0.004
0.220 -0.127 0.004
0.220 -0.125 0.004
0.220 -0.122 0.004
0.215 -0.117 0.003
0.212 -0.113 0.003
0.203 -0.107 0.003
0.201 -0.103 0.003
0.212 -0.106 0.003
0.208 -0.103 0.003
0.208 -0.100 0.003
0.206 -0.097 0.003
0.197 -0.091 0.003
0.215 -0.097 0.003
0.218 -0.096 0.003
0.221 -0.095 0.003
0.225 -0.095 0.003
0.221 -0.091 0.003
0.222 -0.089 0.003
0.210 -0.080 0.003
0.217 -0.081 0.003
0.227 -0.082 0.003
0.240 -0.085 0.004
0.245 -0.084 0.004
0.246 -0.082 0.004
0.262 -0.085 0.004
0.270 -0.085 0.004
0.269 -0.082 0.004
0.270 -0.080 0.004
0.273 -0.078 0.004
0.402 -0.108 0.006
0.409 -0.106 0.006
0.413 -0.103 0.006
0.417 -0.100 0.006
0.425 -0.098 0.006
0.424 -0.094 0.006
0.399 -0.085 0.006
0.392 -0.080 0.006
0.388 -0.075 0.006
0.283 -0.047 0.004
0.283 -0.045 0.004
0.285 -0.042 0.004
0.286 -0.040 0.004
0.288 -0.038 0.004
0.289 -0.035 0.004
0.288 -0.032 0.004
0.290 -0.030 0.004
0.290 -0.027 0.004
0.287 -0.025 0.004
0.288 -0.022 0.004
0.310 -0.021 0.005
0.314 -0.018 0.005
0.316 -0.016 0.005
0.308 -0.013 0.004
0.302 -0.010 0.004
0.305 -0.007 0.004
0.306 -0.004 0.004
0.309 -0.001 0.004
0.320 0.001 0.005
0.317 0.004 0.005
0.314 0.007 0.005
0.300 0.009 0.004
0.302 0.012 0.004
0.304 0.015 0.004
0.306 0.018 0.004
0.308 0.021 0.004
0.310 0.024 0.005
0.310 0.026 0.005
0.310 0.029 0.005
0.311 0.032 0.005
0.312 0.035 0.005
0.311 0.038 0.005
0.311 0.041 0.005
0.313 0.044 0.005
0.313 0.047 0.005
0.313 0.049 0.005
0.313 0.052 0.005
0.312 0.055 0.005
0.312 0.058 0.005
0.312 0.061 0.005
0.310 0.063 0.005
0.311 0.066 0.005
0.312 0.069 0.005
0.317 0.073 0.005
0.318 0.077 0.005
0.320 0.080 0.005
0.317 0.082 0.005
0.318 0.086 0.005
0.319 0.089 0.005
0.316 0.091 0.005
0.312 0.093 0.005
0.313 0.096 0.005
0.321 0.102 0.005
0.329 0.107 0.005
0.337 0.113 0.005
0.339 0.117 0.005
0.336 0.119 0.005
0.325 0.119 0.005
0.332 0.125 0.005
0.340 0.131 0.005
0.333 0.131 0.005
0.342 0.138 0.005
0.363 0.151 0.006
0.375 0.159 0.006
0.359 0.156 0.006
0.352 0.157 0.005
0.331 0.151 0.005
0.332 0.183 0.005
0.339 0.191 0.005
0.341 0.196 0.006
0.327 0.191 0.005
0.326 0.195 0.005
0.324 0.197 0.005
0.322 0.199 0.005
0.319 0.201 0.005
0.318 0.204 0.005
0.316 0.207 0.005
0.313 0.209 0.005
0.312 0.212 0.005
0.311 0.215 0.005
0.309 0.217 0.005
1.341 1.010 0.023
1.330 1.019 0.023
1.305 1.017 0.023
1.290 1.023 0.023
1.299 1.048 0.023
1.308 1.073 0.024
1.332 1.130 0.024
1.317 1.155 0.024
1.335 1.191 0.025
1.350 1.245 0.026
1.361 1.319 0.027
1.363 1.342 0.027
1.353 1.355 0.027
1.352 1.377 0.027
0.371 0.424 0.008
0.360 0.418 0.008
0.361 0.426 0.008
0.367 0.441 0.008
0.370 0.452 0.008
0.374 0.464 0.009
0.355 0.454 0.008
0.180 -0.248 0.006
0.176 -0.239 0.006
0.182 -0.244 0.006
0.180 -0.239 0.006
0.181 -0.236 0.006
0.182 -0.234 0.006
0.183 -0.233 0.006
0.185 -0.232 0.006
0.187 -0.231 0.006
0.189 -0.230 0.006
0.191 -0.228 0.006
0.192 -0.226 0.006
0.194 -0.225 0.006
0.196 -0.224 0.006
0.198 -0.223 0.006
0.200 -0.222 0.006
0.203 -0.222 0.006
0.205 -0.221 0.006
0.207 -0.220 0.006
0.209 -0.219 0.006
0.212 -0.219 0.007
0.215 -0.218 0.007
0.216 -0.216 0.007
0.218 -0.215 0.007
0.221 -0.214 0.007
0.224 -0.213 0.007
0.226 -0.212 0.007
0.229 -0.211 0.007
0.232 -0.211 0.007
0.235 -0.210 0.007
0.236 -0.208 0.007
0.239 -0.208 0.007
0.243 -0.207 0.007
0.246 -0.207 0.007
0.247 -0.205 0.007
0.250 -0.204 0.007
0.251 -0.201 0.007
0.242 -0.191 0.007
0.213 -0.163 0.006
0.208 -0.157 0.006
0.209 -0.154 0.006
0.213 -0.155 0.006
0.216 -0.154 0.006
0.214 -0.150 0.006
0.212 -0.146 0.006
0.210 -0.142 0.006
0.212 -0.141 0.006
0.208 -0.136 0.005
0.207 -0.133 0.005
0.213 -0.135 0.006
0.218 -0.135 0.006
0.216 -0.132 0.006
0.215 -0.129 0.006
0.218 -0.128 0.006
0.222 -0.128 0.006
0.221 -0.125 0.006
0.220 -0.122 0.006
0.222 -0.121 0.006
0.212 -0.113 0.005
0.215 -0.113 0.005
0.214 -0.110 0.005
0.215 -0.108 0.005
0.214 -0.106 0.005
0.210 -0.101 0.005
0.217 -0.102 0.005
0.216 -0.100 0.005
0.217 -0.098 0.005
0.220 -0.097 0.005
0.225 -0.097 0.006
0.225 -0.095 0.006
0.225 -0.093 0.006
0.216 -0.087 0.005
0.227 -0.089 0.006
0.216 -0.083 0.005
0.217 -0.081 0.005
0.224 -0.081 0.005
0.237 -0.084 0.006
0.243 -0.084 0.006
0.238 -0.080 0.006
0.237 -0.077 0.006
0.252 -0.080 0.006
0.269 -0.082 0.006
0.273 -0.081 0.007
0.278 -0.080 0.007
0.403 -0.108 0.010
0.406 -0.105 0.010
0.411 -0.103 0.010
0.418 -0.100 0.010
0.424 -0.098 0.010
0.431 -0.096 0.010
0.391 -0.083 0.009
0.387 -0.079 0.009
0.389 -0.076 0.009
0.380 -0.070 0.009
0.284 -0.047 0.007
0.284 -0.045 0.007
0.284 -0.042 0.007
0.285 -0.040 0.007
0.286 -0.037 0.007
0.286 -0.035 0.007
0.282 -0.032 0.007
0.290 -0.030 0.007
0.294 -0.028 0.007
0.288 -0.025 0.007
0.289 -0.022 0.007
0.298 -0.020 0.007
0.309 -0.018 0.007
0.316 -0.016 0.007
0.313 -0.010 0.007
0.311 -0.007 0.007
0.320 -0.004 0.008
0.314 -0.002 0.007
0.307 0.001 0.007
0.309 0.004 0.007
0.312 0.007 0.007
0.319 0.010 0.008
0.302 0.012 0.007
0.303 0.015 0.007
0.304 0.018 0.007
0.305 0.021 0.007
0.308 0.023 0.007
0.308 0.026 0.007
0.308 0.029 0.007
0.309 0.032 0.007
0.310 0.035 0.007
0.309 0.038 0.007
0.311 0.041 0.007
0.311 0.043 0.007
0.311 0.046 0.007
0.311 0.049 0.007
0.311 0.052 0.007
0.310 0.055 0.007
0.311 0.058 0.007
0.310 0.060 0.007
0.309 0.063 0.007
0.311 0.066 0.007
0.310 0.072 0.007
0.308 0.074 0.007
0.313 0.078 0.008
0.318 0.083 0.008
0.328 0.088 0.008
0.325 0.091 0.008
0.327 0.094 0.008
0.329 0.098 0.008
0.328 0.101 0.008
0.333 0.105 0.008
0.333 0.109 0.008
0.332 0.112 0.008
0.328 0.114 0.008
0.334 0.119 0.008
0.333 0.122 0.008
0.341 0.128 0.008
0.340 0.131 0.008
0.332 0.131 0.008
0.336 0.136 0.008
0.377 0.156 0.009
0.379 0.161 0.009
0.365 0.159 0.009
0.335 0.149 0.008
0.330 0.151 0.008
0.332 0.155 0.008
0.327 0.166 0.008
0.333 0.180 0.009
0.334 0.184 0.009
0.332 0.187 0.009
0.340 0.195 0.009
0.329 0.192 0.009
0.327 0.195 0.009
0.325 0.197 0.008
0.322 0.199 0.008
0.320 0.202 0.008
0.318 0.204 0.008
0.316 0.207 0.008
0.313 0.209 0.008
0.312 0.211 0.008
0.311 0.215 0.008
0.310 0.218 0.008
0.301 0.215 0.008
0.358 0.396 0.012
0.360 0.405 0.012
0.360 0.412 0.012
0.362 0.421 0.012
0.168 -0.231 0.008
0.176 -0.239 0.008
0.178 -0.239 0.008
0.179 -0.237 0.008
0.180 -0.235 0.008
0.182 -0.234 0.008
0.183 -0.233 0.008
0.185 -0.232 0.008
0.187 -0.231 0.008
0.189 -0.230 0.008
0.191 -0.228 0.008
0.192 -0.226 0.008
0.193 -0.225 0.008
0.196 -0.225 0.009
0.198 -0.223 0.009
0.200 -0.222 0.009
0.203 -0.222 0.009
0.205 -0.221 0.009
0.207 -0.220 0.009
0.210 -0.219 0.009
0.212 -0.218 0.009
0.214 -0.217 0.009
0.216 -0.216 0.009
0.218 -0.214 0.009
0.221 -0.214 0.009
0.224 -0.214 0.009
0.226 -0.213 0.009
0.228 -0.211 0.009
0.232 -0.211 0.009
0.234 -0.210 0.009
0.237 -0.209 0.009
0.239 -0.207 0.009
0.242 -0.207 0.009
0.245 -0.206 0.009
0.247 -0.205 0.009
0.252 -0.205 0.010
0.254 -0.204 0.010
0.250 -0.197 0.009
0.224 -0.174 0.008
0.216 -0.165 0.008
0.210 -0.158 0.008
0.209 -0.154 0.008
0.212 -0.154 0.008
0.215 -0.153 0.008
0.215 -0.151 0.008
0.213 -0.147 0.008
0.211 -0.143 0.008
0.211 -0.141 0.008
0.208 -0.136 0.007
0.209 -0.135 0.008
0.206 -0.131 0.007
0.208 -0.129 0.007
0.209 -0.127 0.007
0.210 -0.126 0.007
0.214 -0.126 0.008
0.218 -0.126 0.008
0.221 -0.125 0.008
0.219 -0.122 0.008
0.213 -0.116 0.007
0.217 -0.116 0.008
0.207 -0.108 0.007
0.206 -0.106 0.007
0.205 -0.103 0.007
0.211 -0.104 0.007
0.206 -0.099 0.007
0.208 -0.098 0.007
0.205 -0.095 0.007
0.207 -0.094 0.007
0.220 -0.097 0.008
0.225 -0.097 0.008
0.226 -0.095 0.008
0.221 -0.091 0.007
0.216 -0.087 0.007
0.222 -0.087 0.007
0.216 -0.083 0.007
0.206 -0.077 0.007
0.221 -0.080 0.007
0.233 -0.082 0.008
0.242 -0.083 0.008
0.245 -0.082 0.008
0.241 -0.078 0.008
0.246 -0.078 0.008
0.258 -0.079 0.009
0.270 -0.080 0.009
0.281 -0.081 0.009
0.398 -0.107 0.013
0.404 -0.105 0.013
0.411 -0.103 0.014
0.421 -0.101 0.014
0.428 -0.099 0.014
0.419 -0.093 0.014
0.379 -0.077 0.012
0.378 -0.073 0.012
0.366 -0.068 0.012
0.289 -0.048 0.009
0.287 -0.045 0.009
0.286 -0.043 0.009
0.286 -0.040 0.009
0.286 -0.037 0.009
0.286 -0.035 0.009
0.285 -0.032 0.009
0.293 -0.030 0.010
0.298 -0.028 0.010
0.294 -0.025 0.010
0.290 -0.022 0.009
0.291 -0.020 0.009
0.297 -0.017 0.010
0.291 -0.014 0.009
0.321 -0.013 0.010
0.329 -0.010 0.011
0.327 -0.007 0.011
0.320 -0.004 0.010
0.308 -0.001 0.010
0.301 0.001 0.010
0.299 0.004 0.010
0.311 0.007 0.010
0.312 0.010 0.010
0.318 0.013 0.010
0.313 0.015 0.010
0.304 0.018 0.010
0.302 0.020 0.010
0.303 0.023 0.010
0.304 0.026 0.010
0.306 0.029 0.010
0.307 0.032 0.010
0.306 0.034 0.010
0.308 0.037 0.010
0.309 0.040 0.010
0.309 0.043 0.010
0.308 0.046 0.010
0.308 0.049 0.010
0.308 0.051 0.010
0.308 0.054 0.010
0.309 0.057 0.010
0.312 0.061 0.010
0.314 0.064 0.010
0.316 0.067 0.010
0.312 0.069 0.010
0.309 0.072 0.010
0.308 0.074 0.010
0.316 0.079 0.010
0.319 0.083 0.011
0.328 0.088 0.011
0.335 0.093 0.011
0.328 0.095 0.011
0.327 0.097 0.011
0.339 0.104 0.011
0.340 0.108 0.011
0.342 0.112 0.011
0.334 0.112 0.011
0.321 0.111 0.011
0.319 0.113 0.011
0.338 0.124 0.011
0.341 0.128 0.012
0.346 0.133 0.012
0.334 0.132 0.011
0.340 0.138 0.012
0.348 0.155 0.012
0.344 0.157 0.012
0.354 0.172 0.012
0.341 0.174 0.012
0.338 0.176 0.012
0.340 0.180 0.012
0.344 0.186 0.012
0.337 0.186 0.012
0.341 0.192 0.012
0.324 0.186 0.012
0.327 0.191 0.012
0.326 0.195 0.012
0.325 0.197 0.012
0.322 0.199 0.012
0.319 0.201 0.012
0.317 0.204 0.012
0.315 0.206 0.011
0.312 0.208 0.011
0.311 0.211 0.011
0.311 0.215 0.011
0.310 0.218 0.011
0.320 0.229 0.012
0.327 0.238 0.012
0.333 0.247 0.012
0.342 0.258 0.013
0.390 0.353 0.016
0.436 0.451 0.018
0.360 0.399 0.016
0.361 0.406 0.016
0.369 0.422 0.016
0.495 0.585 0.022
0.493 0.592 0.022
0.170 -0.234 0.010
0.175 -0.238 0.010
0.178 -0.238 0.011
0.179 -0.237 0.011
0.180 -0.235 0.011
0.182 -0.234 0.011
0.183 -0.233 0.011
0.185 -0.231 0.011
0.187 -0.231 0.011
0.189 -0.230 0.011
0.190 -0.228 0.011
0.192 -0.227 0.011
0.194 -0.226 0.011
0.197 -0.226 0.011
0.198 -0.224 0.011
0.200 -0.223 0.011
0.202 -0.222 0.011
0.205 -0.221 0.011
0.207 -0.220 0.011
0.209 -0.219 0.011
0.212 -0.218 0.011
0.214 -0.217 0.011
0.215 -0.215 0.011
0.218 -0.214 0.011
0.221 -0.214 0.011
0.224 -0.214 0.011
0.226 -0.212 0.011
0.229 -0.212 0.011
0.232 -0.211 0.012
0.234 -0.210 0.012
0.237 -0.209 0.012
0.240 -0.208 0.012
0.242 -0.207 0.012
0.244 -0.206 0.012
0.248 -0.205 0.012
0.251 -0.205 0.012
0.258 -0.207 0.012
0.254 -0.201 0.012
0.215 -0.165 0.010
0.211 -0.158 0.010
0.207 -0.153 0.010
0.211 -0.153 0.010
0.216 -0.154 0.010
0.216 -0.152 0.010
0.215 -0.148 0.010
0.214 -0.145 0.010
0.213 -0.142 0.010
0.216 -0.141 0.010
0.216 -0.139 0.010
0.213 -0.135 0.010
0.214 -0.133 0.010
0.208 -0.127 0.009
0.208 -0.125 0.009
0.211 -0.124 0.009
0.214 -0.124 0.010
0.218 -0.124 0.010
0.221 -0.123 0.010
0.217 -0.118 0.010
0.214 -0.114 0.009
0.213 -0.112 0.009
0.203 -0.104 0.009
0.205 -0.103 0.009
0.209 -0.103 0.009
0.211 -0.102 0.009
0.205 -0.097 0.009
0.205 -0.095 0.009
0.206 -0.093 0.009
0.220 -0.097 0.010
0.224 -0.097 0.010
0.226 -0.095 0.010
0.225 -0.093 0.010
0.227 -0.091 0.010
0.215 -0.084 0.009
0.220 -0.084 0.009
0.206 -0.077 0.009
0.213 -0.077 0.009
0.233 -0.083 0.010
0.236 -0.081 0.010
0.243 -0.081 0.010
0.247 -0.080 0.010
0.250 -0.079 0.011
0.255 -0.078 0.011
0.266 -0.079 0.011
0.394 -0.106 0.017
0.402 -0.104 0.017
0.413 -0.103 0.017
0.420 -0.101 0.018
0.424 -0.098 0.018
0.421 -0.093 0.018
0.382 -0.078 0.016
0.372 -0.072 0.016
0.288 -0.048 0.012
0.287 -0.045 0.012
0.287 -0.043 0.012
0.286 -0.040 0.012
0.286 -0.037 0.012
0.285 -0.035 0.012
0.285 -0.032 0.012
0.287 -0.030 0.012
0.300 -0.028 0.012
0.299 -0.026 0.012
0.294 -0.023 0.012
0.292 -0.020 0.012
0.286 -0.017 0.012
0.287 -0.014 0.012
0.297 -0.012 0.012
0.330 -0.010 0.014
0.334 -0.008 0.014
0.319 -0.004 0.013
0.305 -0.001 0.013
0.301 0.001 0.012
0.306 0.004 0.013
0.307 0.007 0.013
0.310 0.010 0.013
0.312 0.013 0.013
0.318 0.016 0.013
0.316 0.018 0.013
0.312 0.021 0.013
0.305 0.023 0.013
0.304 0.026 0.013
0.304 0.029 0.013
0.305 0.031 0.013
0.305 0.034 0.013
0.306 0.037 0.013
0.308 0.040 0.013
0.308 0.043 0.013
0.307 0.046 0.013
0.306 0.048 0.013
0.305 0.051 0.013
0.312 0.055 0.013
0.329 0.061 0.014
0.323 0.063 0.014
0.320 0.065 0.013
0.317 0.067 0.013
0.314 0.070 0.013
0.309 0.072 0.013
0.321 0.077 0.014
0.314 0.079 0.013
0.308 0.080 0.013
0.317 0.085 0.013
0.323 0.090 0.014
0.323 0.093 0.014
0.308 0.092 0.013
0.322 0.099 0.014
0.345 0.109 0.015
0.343 0.112 0.015
0.326 0.110 0.014
0.329 0.117 0.014
0.330 0.121 0.014
0.337 0.127 0.015
0.329 0.127 0.014
0.323 0.127 0.014
0.334 0.135 0.014
0.421 0.175 0.018
0.418 0.178 0.018
0.416 0.181 0.018
0.408 0.182 0.018
0.386 0.176 0.017
0.381 0.178 0.017
0.378 0.180 0.017
0.376 0.183 0.017
0.374 0.186 0.017
0.366 0.186 0.016
0.359 0.186 0.016
0.348 0.185 0.016
0.343 0.186 0.015
0.336 0.189 0.015
0.340 0.195 0.015
0.326 0.191 0.015
0.325 0.194 0.015
0.324 0.197 0.015
0.322 0.199 0.015
0.319 0.201 0.015
0.317 0.204 0.015
0.315 0.206 0.015
0.312 0.208 0.014
0.311 0.211 0.014
0.310 0.214 0.015
0.310 0.218 0.015
0.322 0.230 0.015
0.332 0.242 0.016
0.343 0.254 0.016
0.340 0.257 0.016
0.322 0.247 0.015
0.324 0.253 0.016
0.439 0.360 0.021
0.443 0.370 0.022
0.435 0.369 0.021
0.426 0.374 0.021
0.431 0.398 0.022
0.449 0.421 0.023
0.452 0.431 0.023
0.453 0.439 0.023
0.450 0.444 0.024
0.449 0.450 0.024
0.447 0.456 0.024
0.446 0.462 0.024
0.499 0.590 0.028
0.493 0.593 0.028
0.398 0.502 0.023
0.384 0.492 0.023
0.184 -0.253 0.013
0.176 -0.239 0.013
0.177 -0.237 0.013
0.179 -0.237 0.013
0.180 -0.236 0.013
0.182 -0.234 0.013
0.183 -0.232 0.013
0.184 -0.231 0.013
0.187 -0.231 0.013
0.189 -0.230 0.013
0.191 -0.229 0.013
0.193 -0.228 0.013
0.195 -0.227 0.013
0.197 -0.225 0.013
0.198 -0.224 0.013
0.200 -0.222 0.013
0.202 -0.222 0.013
0.204 -0.220 0.013
0.207 -0.220 0.013
0.208 -0.218 0.013
0.211 -0.217 0.013
0.213 -0.217 0.013
0.216 -0.216 0.013
0.217 -0.214 0.013
0.220 -0.214 0.014
0.223 -0.213 0.014
0.226 -0.212 0.014
0.229 -0.212 0.014
0.232 -0.211 0.014
0.234 -0.210 0.014
0.237 -0.209 0.014
0.239 -0.208 0.014
0.242 -0.207 0.014
0.244 -0.206 0.014
0.247 -0.204 0.014
0.250 -0.203 0.015
0.253 -0.203 0.015
0.242 -0.191 0.014
0.229 -0.178 0.013
0.220 -0.168 0.013
0.209 -0.157 0.012
0.205 -0.151 0.012
0.210 -0.153 0.012
0.213 -0.152 0.012
0.210 -0.148 0.012
0.215 -0.149 0.012
0.214 -0.145 0.012
0.215 -0.143 0.012
0.217 -0.142 0.012
0.215 -0.138 0.012
0.213 -0.135 0.012
0.212 -0.132 0.012
0.217 -0.132 0.012
0.214 -0.128 0.012
0.204 -0.120 0.011
0.207 -0.119 0.011
0.218 -0.124 0.012
0.218 -0.121 0.012
0.211 -0.115 0.011
0.213 -0.114 0.011
0.212 -0.111 0.011
0.209 -0.107 0.011
0.208 -0.105 0.011
0.211 -0.104 0.011
0.212 -0.102 0.011
0.211 -0.100 0.011
0.214 -0.099 0.011
0.217 -0.098 0.011
0.218 -0.097 0.012
0.220 -0.095 0.012
0.224 -0.095 0.012
0.225 -0.093 0.012
0.222 -0.089 0.012
0.223 -0.087 0.012
0.213 -0.081 0.011
0.208 -0.078 0.011
0.231 -0.084 0.012
0.224 -0.079 0.012
0.233 -0.080 0.012
0.238 -0.080 0.012
0.243 -0.079 0.013
0.252 -0.079 0.013
0.257 -0.079 0.013
0.261 -0.077 0.013
0.409 -0.110 0.021
0.413 -0.107 0.021
0.416 -0.104 0.021
0.421 -0.101 0.022
0.419 -0.097 0.021
0.408 -0.091 0.021
0.405 -0.086 0.021
0.400 -0.082 0.020
0.284 -0.048 0.014
0.284 -0.045 0.014
0.287 -0.043 0.015
0.288 -0.040 0.015
0.285 -0.037 0.014
0.284 -0.035 0.014
0.285 -0.032 0.014
0.288 -0.030 0.015
0.295 -0.028 0.015
0.299 -0.026 0.015
0.296 -0.023 0.015
0.291 -0.020 0.015
0.290 -0.017 0.015
0.287 -0.014 0.015
0.294 -0.012 0.015
0.309 -0.010 0.016
0.324 -0.007 0.016
0.325 -0.004 0.016
0.316 -0.002 0.016
0.310 0.001 0.016
0.321 0.004 0.016
0.316 0.007 0.016
0.309 0.010 0.016
0.313 0.013 0.016
0.311 0.015 0.016
0.310 0.018 0.016
0.306 0.021 0.015
0.307 0.023 0.016
0.306 0.026 0.015
0.318 0.030 0.016
0.324 0.033 0.016
0.321 0.036 0.016
0.314 0.038 0.016
0.318 0.041 0.016
0.320 0.045 0.016
0.322 0.048 0.016
0.324 0.051 0.016
0.316 0.053 0.016
0.322 0.057 0.016
0.324 0.060 0.016
0.327 0.064 0.017
0.324 0.066 0.017
0.319 0.068 0.016
0.308 0.069 0.016
0.323 0.075 0.017
0.319 0.077 0.016
0.309 0.077 0.016
0.309 0.080 0.016
0.314 0.085 0.016
0.315 0.088 0.016
0.309 0.089 0.016
0.313 0.093 0.016
0.317 0.098 0.016
0.338 0.107 0.018
0.327 0.107 0.017
0.310 0.104 0.016
0.304 0.105 0.016
0.311 0.111 0.016
0.328 0.120 0.017
0.329 0.123 0.017
0.314 0.121 0.016
0.316 0.125 0.017
0.414 0.168 0.022
0.420 0.175 0.022
0.424 0.181 0.022
0.417 0.182 0.022
0.409 0.182 0.022
0.393 0.179 0.021
0.383 0.179 0.020
0.379 0.181 0.020
0.376 0.183 0.020
0.372 0.185 0.020
0.368 0.187 0.020
0.364 0.189 0.020
0.352 0.187 0.019
0.344 0.186 0.019
0.337 0.186 0.018
0.338 0.190 0.018
0.330 0.189 0.018
0.325 0.190 0.018
0.324 0.193 0.018
0.323 0.196 0.018
0.321 0.199 0.018
0.319 0.201 0.018
0.316 0.203 0.018
0.315 0.206 0.018
0.311 0.208 0.018
0.309 0.210 0.017
0.309 0.213 0.018
0.309 0.217 0.018
0.316 0.226 0.018
0.322 0.234 0.018
0.318 0.244 0.019
0.316 0.246 0.018
0.434 0.350 0.026
0.445 0.365 0.026
0.443 0.370 0.026
0.439 0.373 0.026
0.444 0.417 0.028
0.451 0.430 0.028
0.452 0.438 0.028
0.452 0.446 0.029
0.449 0.450 0.029
0.447 0.456 0.029
0.446 0.463 0.029
0.411 0.462 0.027
0.170 -0.235 0.014
0.177 -0.240 0.015
0.177 -0.238 0.015
0.178 -0.236 0.015
0.181 -0.236 0.015
0.182 -0.235 0.015
0.183 -0.233 0.015
0.188 -0.235 0.015
0.187 -0.231 0.015
0.189 -0.231 0.015
0.191 -0.229 0.015
0.193 -0.228 0.015
0.195 -0.227 0.015
0.196 -0.225 0.015
0.197 -0.223 0.015
0.199 -0.222 0.015
0.202 -0.221 0.015
0.204 -0.220 0.015
0.206 -0.219 0.015
0.208 -0.218 0.016
0.210 -0.217 0.016
0.214 -0.217 0.016
0.216 -0.216 0.016
0.218 -0.215 0.016
0.220 -0.213 0.016
0.222 -0.212 0.016
0.225 -0.212 0.016
0.228 -0.211 0.016
0.231 -0.210 0.016
0.234 -0.210 0.016
0.237 -0.209 0.017
0.239 -0.208 0.017
0.242 -0.207 0.017
0.244 -0.205 0.017
0.246 -0.204 0.017
0.249 -0.203 0.017
0.252 -0.202 0.017
0.243 -0.192 0.017
0.226 -0.176 0.015
0.217 -0.166 0.015
0.210 -0.158 0.014
0.212 -0.157 0.014
0.212 -0.154 0.014
0.208 -0.149 0.014
0.208 -0.146 0.014
0.209 -0.144 0.014
0.210 -0.143 0.014
0.208 -0.139 0.014
0.206 -0.135 0.013
0.211 -0.136 0.014
0.212 -0.135 0.014
0.196 -0.122 0.013
0.207 -0.126 0.013
0.207 -0.124 0.013
0.208 -0.122 0.013
0.202 -0.117 0.013
0.211 -0.120 0.013
0.211 -0.117 0.013
0.210 -0.115 0.013
0.210 -0.112 0.013
0.211 -0.111 0.013
0.209 -0.107 0.013
0.202 -0.102 0.013
0.209 -0.103 0.013
0.203 -0.098 0.013
0.204 -0.096 0.013
0.201 -0.093 0.013
0.203 -0.092 0.013
0.208 -0.092 0.013
0.216 -0.093 0.013
0.221 -0.093 0.014
0.223 -0.092 0.014
0.219 -0.088 0.014
0.218 -0.085 0.013
0.208 -0.080 0.013
0.212 -0.079 0.013
0.217 -0.079 0.013
0.230 -0.082 0.014
0.232 -0.080 0.014
0.240 -0.080 0.015
0.245 -0.080 0.015
0.242 -0.076 0.015
0.260 -0.080 0.016
0.272 -0.081 0.016
0.275 -0.079 0.017
0.410 -0.110 0.025
0.411 -0.107 0.025
0.422 -0.105 0.025
0.427 -0.103 0.026
0.424 -0.098 0.025
0.401 -0.089 0.024
0.396 -0.084 0.024
0.396 -0.081 0.024
0.381 -0.074 0.023
0.283 -0.047 0.017
0.285 -0.045 0.017
0.289 -0.043 0.017
0.289 -0.040 0.017
0.285 -0.037 0.017
0.285 -0.035 0.017
0.287 -0.032 0.017
0.289 -0.030 0.017
0.294 -0.028 0.017
0.297 -0.025 0.018
0.297 -0.023 0.018
0.294 -0.020 0.017
0.294 -0.017 0.017
0.294 -0.015 0.017
0.295 -0.012 0.018
0.299 -0.009 0.018
0.309 -0.007 0.018
0.329 -0.005 0.020
0.326 -0.002 0.019
0.325 0.001 0.019
0.317 0.004 0.019
0.324 0.007 0.019
0.312 0.010 0.019
0.312 0.013 0.019
0.312 0.015 0.019
0.299 0.017 0.018
0.301 0.020 0.018
0.305 0.023 0.018
0.306 0.026 0.018
0.307 0.029 0.018
0.318 0.033 0.019
0.322 0.036 0.019
0.322 0.039 0.019
0.319 0.042 0.019
0.322 0.045 0.019
0.324 0.048 0.019
0.322 0.051 0.019
0.318 0.053 0.019
0.314 0.055 0.019
0.318 0.059 0.019
0.320 0.062 0.019
0.319 0.065 0.019
0.311 0.066 0.019
0.313 0.070 0.019
0.321 0.075 0.019
0.330 0.080 0.020
0.312 0.078 0.019
0.323 0.084 0.020
0.329 0.089 0.020
0.317 0.088 0.019
0.309 0.089 0.019
0.313 0.093 0.019
0.325 0.100 0.020
0.325 0.103 0.020
0.320 0.104 0.020
0.314 0.106 0.019
0.315 0.109 0.019
0.313 0.111 0.019
0.320 0.117 0.020
0.320 0.120 0.020
0.314 0.121 0.019
0.321 0.127 0.020
0.427 0.177 0.027
0.424 0.180 0.026
0.414 0.181 0.026
0.404 0.180 0.025
0.395 0.180 0.025
0.385 0.180 0.024
0.377 0.180 0.024
0.372 0.181 0.023
0.368 0.183 0.023
0.365 0.186 0.023
0.352 0.183 0.022
0.347 0.184 0.022
0.341 0.184 0.022
0.336 0.186 0.022
0.333 0.187 0.021
0.327 0.188 0.021
0.323 0.189 0.021
0.320 0.191 0.021
0.321 0.195 0.021
0.319 0.198 0.021
0.316 0.200 0.021
0.316 0.203 0.021
0.310 0.203 0.020
0.305 0.203 0.020
0.305 0.207 0.020
0.304 0.210 0.020
0.304 0.214 0.020
0.300 0.215 0.020
0.296 0.216 0.020
0.295 0.218 0.020
0.294 0.222 0.020
0.294 0.226 0.020
0.293 0.229 0.020
0.290 0.231 0.020
0.279 0.245 0.020
0.275 0.246 0.020
0.276 0.251 0.020
0.450 0.437 0.033
0.450 0.444 0.033
0.448 0.450 0.033
0.424 0.469 0.033
0.326 0.424 0.027
0.174 -0.241 0.017
0.176 -0.239 0.017
0.177 -0.238 0.017
0.179 -0.237 0.017
0.181 -0.236 0.017
0.182 -0.235 0.017
0.185 -0.235 0.017
0.185 -0.232 0.017
0.187 -0.231 0.017
0.189 -0.231 0.017
0.191 -0.230 0.017
0.193 -0.228 0.017
0.194 -0.226 0.017
0.196 -0.225 0.017
0.198 -0.223 0.017
0.199 -0.222 0.017
0.201 -0.221 0.018
0.204 -0.220 0.018
0.207 -0.220 0.018
0.209 -0.218 0.018
0.211 -0.218 0.018
0.214 -0.217 0.018
0.216 -0.216 0.018
0.218 -0.215 0.018
0.220 -0.214 0.018
0.222 -0.212 0.018
0.225 -0.212 0.019
0.228 -0.211 0.019
0.231 -0.210 0.019
0.234 -0.210 0.019
0.237 -0.209 0.019
0.239 -0.208 0.019
0.241 -0.206 0.019
0.244 -0.205 0.019
0.246 -0.204 0.019
0.250 -0.204 0.020
0.252 -0.202 0.020
0.247 -0.195 0.019
0.213 -0.162 0.016
0.211 -0.159 0.016
0.215 -0.159 0.017
0.217 -0.158 0.017
0.211 -0.151 0.016
0.208 -0.147 0.016
0.209 -0.144 0.016
0.207 -0.141 0.016
0.205 -0.137 0.015
0.207 -0.136 0.016
0.211 -0.136 0.016
0.211 -0.134 0.016
0.209 -0.130 0.016
0.204 -0.125 0.015
0.208 -0.125 0.015
0.207 -0.122 0.015
0.208 -0.120 0.015
0.210 -0.119 0.015
0.214 -0.119 0.016
0.210 -0.115 0.015
0.209 -0.112 0.015
0.213 -0.112 0.015
0.209 -0.107 0.015
0.204 -0.103 0.015
0.203 -0.100 0.015
0.208 -0.101 0.015
0.201 -0.095 0.014
0.204 -0.094 0.015
0.203 -0.092 0.015
0.206 -0.091 0.015
0.214 -0.093 0.015
0.220 -0.093 0.016
0.222 -0.091 0.016
0.220 -0.089 0.016
0.213 -0.084 0.015
0.221 -0.085 0.016
0.210 -0.078 0.015
0.220 -0.080 0.015
0.226 -0.080 0.016
0.232 -0.080 0.016
0.246 -0.082 0.017
0.245 -0.080 0.017
0.244 -0.077 0.017
0.260 -0.079 0.018
0.269 -0.080 0.019
0.275 -0.079 0.019
0.403 -0.108 0.028
0.412 -0.107 0.029
0.417 -0.104 0.029
0.431 -0.104 0.030
0.431 -0.100 0.030
0.384 -0.085 0.027
0.385 -0.079 0.027
0.385 -0.075 0.027
0.288 -0.048 0.020
0.288 -0.046 0.020
0.290 -0.043 0.020
0.288 -0.040 0.020
0.286 -0.037 0.020
0.285 -0.035 0.020
0.287 -0.032 0.020
0.286 -0.030 0.020
0.291 -0.028 0.020
0.296 -0.025 0.020
0.295 -0.023 0.020
0.295 -0.020 0.020
0.297 -0.017 0.020
0.299 -0.015 0.020
0.301 -0.012 0.021
0.300 -0.010 0.021
0.308 -0.007 0.021
0.323 -0.004 0.022
0.326 -0.002 0.022
0.318 0.001 0.022
0.313 0.007 0.021
0.310 0.010 0.021
0.314 0.013 0.022
0.309 0.015 0.021
0.305 0.018 0.021
0.303 0.020 0.021
0.304 0.023 0.021
0.306 0.026 0.021
0.300 0.028 0.021
0.306 0.032 0.021
0.316 0.036 0.022
0.320 0.039 0.022
0.322 0.042 0.022
0.318 0.044 0.022
0.315 0.047 0.022
0.319 0.050 0.022
0.315 0.053 0.022
0.318 0.056 0.022
0.322 0.060 0.022
0.322 0.063 0.022
0.319 0.065 0.022
0.316 0.067 0.022
0.324 0.072 0.022
0.340 0.079 0.024
0.334 0.081 0.023
0.323 0.081 0.022
0.333 0.087 0.023
0.337 0.091 0.024
0.329 0.092 0.023
0.321 0.093 0.022
0.324 0.096 0.023
0.323 0.099 0.023
0.335 0.106 0.024
0.324 0.106 0.023
0.325 0.109 0.023
0.325 0.113 0.023
0.325 0.116 0.023
0.323 0.118 0.023
0.323 0.121 0.023
0.322 0.124 0.023
0.324 0.128 0.023
0.433 0.180 0.031
0.426 0.182 0.031
0.414 0.181 0.030
0.403 0.180 0.029
0.396 0.181 0.029
0.388 0.181 0.028
0.377 0.180 0.027
0.370 0.181 0.027
0.366 0.183 0.027
0.361 0.184 0.026
0.350 0.182 0.026
0.345 0.183 0.025
0.340 0.184 0.025
0.333 0.184 0.025
0.329 0.185 0.024
0.323 0.186 0.024
0.320 0.187 0.024
0.312 0.186 0.023
0.305 0.186 0.023
0.307 0.190 0.023
0.308 0.194 0.023
0.306 0.197 0.023
0.301 0.197 0.023
0.300 0.200 0.023
0.302 0.205 0.023
0.303 0.210 0.023
0.302 0.212 0.023
0.298 0.214 0.023
0.296 0.216 0.023
0.294 0.218 0.023
0.293 0.221 0.023
0.292 0.224 0.023
0.290 0.226 0.023
0.287 0.228 0.023
0.272 0.227 0.022
0.268 0.228 0.022
0.268 0.232 0.022
0.271 0.238 0.022
0.271 0.242 0.022
0.270 0.245 0.022
0.275 0.254 0.023
0.429 0.452 0.037
0.425 0.455 0.037
0.338 0.387 0.031
0.330 0.384 0.030
0.321 0.405 0.030
0.307 0.394 0.029
0.308 0.402 0.030
0.178 -0.245 0.019
0.177 -0.240 0.019
0.177 -0.238 0.019
0.178 -0.237 0.019
0.181 -0.236 0.019
0.182 -0.235 0.019
0.184 -0.234 0.019
0.186 -0.233 0.019
0.187 -0.232 0.019
0.189 -0.231 0.019
0.191 -0.229 0.019
0.192 -0.227 0.019
0.194 -0.226 0.019
0.197 -0.226 0.020
0.198 -0.224 0.020
0.199 -0.222 0.020
0.201 -0.221 0.020
0.204 -0.220 0.020
0.207 -0.220 0.020
0.209 -0.219 0.020
0.212 -0.218 0.020
0.214 -0.217 0.020
0.216 -0.217 0.021
0.218 -0.215 0.021
0.220 -0.213 0.021
0.223 -0.213 0.021
0.226 -0.212 0.021
0.228 -0.211 0.021
0.231 -0.210 0.021
0.233 -0.209 0.021
0.237 -0.209 0.022
0.239 -0.208 0.022
0.241 -0.206 0.022
0.243 -0.205 0.022
0.247 -0.205 0.022
0.251 -0.205 0.022
0.253 -0.203 0.022
0.212 -0.165 0.019
0.212 -0.162 0.019
0.210 -0.158 0.018
0.214 -0.158 0.019
0.217 -0.158 0.019
0.215 -0.154 0.019
0.211 -0.148 0.018
0.209 -0.145 0.018
0.208 -0.141 0.018
0.207 -0.139 0.018
0.208 -0.137 0.018
0.208 -0.134 0.018
0.209 -0.133 0.018
0.209 -0.130 0.018
0.206 -0.126 0.017
0.209 -0.126 0.018
0.208 -0.123 0.017
0.208 -0.121 0.017
0.212 -0.121 0.018
0.214 -0.119 0.018
0.210 -0.114 0.017
0.206 -0.110 0.017
0.210 -0.110 0.017
0.212 -0.109 0.017
0.210 -0.106 0.017
0.212 -0.105 0.017
0.215 -0.104 0.018
0.205 -0.097 0.017
0.209 -0.097 0.017
0.212 -0.096 0.017
0.213 -0.094 0.017
0.218 -0.094 0.018
0.220 -0.093 0.018
0.220 -0.091 0.018
0.217 -0.088 0.017
0.212 -0.083 0.017
0.210 -0.080 0.017
0.209 -0.078 0.017
0.214 -0.078 0.017
0.225 -0.079 0.018
0.238 -0.082 0.019
0.237 -0.079 0.019
0.246 -0.080 0.019
0.248 -0.078 0.020
0.254 -0.078 0.020
0.266 -0.079 0.021
0.276 -0.079 0.022
0.403 -0.108 0.032
0.410 -0.106 0.032
0.419 -0.105 0.033
0.425 -0.102 0.033
0.432 -0.100 0.034
0.345 -0.077 0.027
0.380 -0.078 0.030
0.385 -0.075 0.030
0.376 -0.070 0.029
0.288 -0.048 0.022
0.289 -0.046 0.022
0.290 -0.043 0.023
0.287 -0.040 0.022
0.284 -0.037 0.022
0.285 -0.035 0.022
0.283 -0.032 0.022
0.289 -0.030 0.022
0.287 -0.027 0.022
0.293 -0.025 0.023
0.296 -0.023 0.023
0.296 -0.020 0.023
0.299 -0.018 0.023
0.302 -0.015 0.023
0.305 -0.012 0.024
0.300 -0.010 0.023
0.300 -0.007 0.023
0.305 -0.004 0.024
0.312 -0.001 0.024
0.317 0.001 0.025
0.318 0.004 0.025
0.312 0.007 0.024
0.315 0.010 0.024
0.312 0.013 0.024
0.308 0.015 0.024
0.313 0.018 0.024
0.309 0.021 0.024
0.304 0.023 0.024
0.303 0.026 0.024
0.302 0.029 0.023
0.303 0.031 0.024
0.304 0.034 0.024
0.311 0.038 0.024
0.316 0.041 0.025
0.312 0.044 0.024
0.310 0.046 0.024
0.315 0.050 0.025
0.319 0.053 0.025
0.325 0.057 0.025
0.326 0.061 0.025
0.321 0.063 0.025
0.318 0.065 0.025
0.326 0.070 0.026
0.328 0.073 0.026
0.335 0.078 0.026
0.328 0.079 0.026
0.318 0.080 0.025
0.324 0.084 0.026
0.325 0.088 0.026
0.327 0.091 0.026
0.340 0.098 0.027
0.332 0.099 0.026
0.342 0.105 0.027
0.331 0.105 0.026
0.325 0.106 0.026
0.323 0.109 0.026
0.323 0.112 0.026
0.326 0.116 0.026
0.326 0.119 0.026
0.330 0.124 0.026
0.326 0.126 0.026
0.432 0.180 0.035
0.429 0.183 0.035
0.414 0.181 0.034
0.403 0.180 0.033
0.399 0.182 0.033
0.390 0.182 0.032
0.379 0.181 0.031
0.373 0.182 0.031
0.365 0.182 0.030
0.360 0.183 0.030
0.350 0.182 0.029
0.344 0.182 0.028
0.339 0.184 0.028
0.329 0.182 0.027
0.325 0.183 0.027
0.323 0.186 0.027
0.317 0.186 0.027
0.313 0.187 0.026
0.304 0.185 0.026
0.300 0.186 0.025
0.297 0.188 0.025
0.292 0.188 0.025
0.289 0.190 0.025
0.287 0.191 0.025
0.284 0.193 0.024
0.282 0.195 0.024
0.272 0.195 0.024
0.269 0.196 0.024
0.268 0.199 0.024
0.267 0.202 0.024
0.265 0.203 0.023
