VERSION .7
FIELDS x y z
SIZE 4 4 4
TYPE F F F
COUNT 1 1 1
WIDTH     2464
HEIGHT 1
VIEWPOINT 0 0 0 1 0 0 0
POINTS     2464
DATA ascii
0.391 0.412 -0.048
0.386 0.415 -0.048
0.392 0.427 -0.049
0.396 0.454 -0.051
0.393 0.512 -0.052
0.262 -0.361 -0.031
0.254 -0.345 -0.030
0.250 -0.336 -0.030
0.247 -0.328 -0.029
0.191 -0.239 -0.022
0.183 -0.225 -0.021
0.183 -0.223 -0.021
0.184 -0.220 -0.021
0.187 -0.221 -0.021
0.181 -0.211 -0.021
0.183 -0.210 -0.021
0.187 -0.212 -0.021
0.195 -0.217 -0.022
0.222 -0.243 -0.025
0.283 -0.296 -0.031
0.296 -0.306 -0.033
0.301 -0.306 -0.033
0.299 -0.299 -0.033
0.295 -0.290 -0.032
0.292 -0.283 -0.032
0.297 -0.284 -0.032
0.302 -0.284 -0.032
0.300 -0.278 -0.032
0.300 -0.273 -0.032
0.292 -0.262 -0.031
0.293 -0.259 -0.031
0.297 -0.258 -0.031
0.300 -0.257 -0.032
0.302 -0.254 -0.032
0.295 -0.245 -0.031
0.295 -0.241 -0.031
0.286 -0.230 -0.030
0.229 -0.181 -0.024
0.225 -0.175 -0.023
0.217 -0.166 -0.022
0.211 -0.159 -0.022
0.209 -0.155 -0.021
0.201 -0.146 -0.021
0.208 -0.149 -0.021
0.214 -0.150 -0.022
0.215 -0.148 -0.022
0.211 -0.143 -0.021
0.213 -0.143 -0.021
0.215 -0.141 -0.022
0.217 -0.140 -0.022
0.202 -0.128 -0.020
0.216 -0.134 -0.022
0.218 -0.133 -0.022
0.208 -0.125 -0.021
0.216 -0.127 -0.021
0.215 -0.124 -0.021
0.210 -0.119 -0.021
0.210 -0.117 -0.021
0.200 -0.109 -0.020
0.215 -0.115 -0.021
0.218 -0.115 -0.021
0.201 -0.103 -0.020
0.214 -0.108 -0.021
0.214 -0.106 -0.021
0.219 -0.106 -0.021
0.219 -0.103 -0.021
0.225 -0.104 -0.022
0.227 -0.103 -0.022
0.228 -0.101 -0.022
0.227 -0.098 -0.022
0.228 -0.096 -0.022
0.228 -0.094 -0.022
0.225 -0.091 -0.022
0.223 -0.088 -0.021
0.215 -0.082 -0.021
0.210 -0.078 -0.020
0.240 -0.087 -0.023
0.253 -0.090 -0.024
0.248 -0.085 -0.024
0.248 -0.083 -0.024
0.247 -0.080 -0.023
0.251 -0.079 -0.024
0.256 -0.078 -0.024
0.269 -0.080 -0.025
0.278 -0.080 -0.026
0.389 -0.108 -0.037
0.392 -0.105 -0.037
0.408 -0.106 -0.038
0.413 -0.103 -0.039
0.415 -0.100 -0.039
0.425 -0.098 -0.040
0.423 -0.094 -0.040
0.408 -0.087 -0.038
0.402 -0.082 -0.038
0.282 -0.050 -0.026
0.284 -0.047 -0.027
0.287 -0.045 -0.027
0.288 -0.043 -0.027
0.287 -0.040 -0.027
0.282 -0.037 -0.026
0.284 -0.035 -0.027
0.289 -0.033 -0.027
0.297 -0.031 -0.028
0.299 -0.028 -0.028
0.301 -0.026 -0.028
0.308 -0.024 -0.029
0.301 -0.020 -0.028
0.300 -0.018 -0.028
0.305 -0.015 -0.028
0.303 -0.012 -0.028
0.301 -0.010 -0.028
0.303 -0.007 -0.028
0.306 -0.004 -0.029
0.308 -0.001 -0.029
0.310 0.001 -0.029
0.315 0.004 -0.029
0.316 0.007 -0.029
0.316 0.010 -0.029
0.319 0.013 -0.030
0.317 0.016 -0.030
0.317 0.018 -0.030
0.316 0.021 -0.030
0.316 0.024 -0.030
0.316 0.027 -0.030
0.315 0.030 -0.029
0.315 0.033 -0.029
0.315 0.035 -0.029
0.315 0.038 -0.029
0.317 0.041 -0.030
0.319 0.045 -0.030
0.321 0.048 -0.030
0.323 0.051 -0.030
0.324 0.054 -0.030
0.324 0.057 -0.030
0.323 0.060 -0.030
0.323 0.063 -0.030
0.322 0.066 -0.030
0.321 0.068 -0.030
0.320 0.071 -0.030
0.319 0.074 -0.030
0.318 0.077 -0.030
0.318 0.080 -0.030
0.317 0.082 -0.030
0.314 0.085 -0.030
0.313 0.087 -0.030
0.334 0.096 -0.032
0.325 0.097 -0.031
0.318 0.098 -0.030
0.330 0.105 -0.031
0.331 0.108 -0.032
0.324 0.109 -0.031
0.329 0.117 -0.032
0.312 0.114 -0.030
0.307 0.116 -0.030
0.310 0.120 -0.030
0.312 0.123 -0.030
1.270 0.528 -0.123
1.255 0.586 -0.122
1.254 0.599 -0.122
1.252 0.611 -0.122
1.246 0.621 -0.122
1.010 0.558 -0.100
1.010 0.569 -0.100
1.292 0.771 -0.129
1.288 0.784 -0.129
1.287 0.798 -0.129
1.293 0.817 -0.130
1.304 0.855 -0.132
1.301 0.868 -0.132
1.300 0.883 -0.132
1.311 0.923 -0.134
1.329 0.969 -0.137
0.326 0.297 -0.035
0.375 0.347 -0.041
0.378 0.355 -0.041
0.378 0.361 -0.041
0.373 0.362 -0.041
0.374 0.369 -0.041
0.374 0.375 -0.042
0.372 0.380 -0.042
0.372 0.386 -0.042
0.380 0.401 -0.043
0.395 0.423 -0.045
0.399 0.435 -0.046
0.407 0.451 -0.047
0.415 0.531 -0.050
0.367 0.478 -0.044
0.251 -0.345 -0.027
0.256 -0.347 -0.027
0.249 -0.334 -0.027
0.190 -0.241 -0.020
0.183 -0.229 -0.019
0.178 -0.220 -0.019
0.174 -0.212 -0.018
0.179 -0.215 -0.019
0.180 -0.213 -0.019
0.181 -0.211 -0.019
0.188 -0.215 -0.019
0.195 -0.220 -0.020
0.204 -0.227 -0.021
0.281 -0.298 -0.028
0.287 -0.301 -0.029
0.292 -0.301 -0.029
0.296 -0.301 -0.029
0.294 -0.294 -0.029
0.292 -0.287 -0.029
0.296 -0.287 -0.029
0.299 -0.286 -0.029
0.298 -0.280 -0.029
0.300 -0.278 -0.029
0.302 -0.275 -0.029
0.297 -0.267 -0.029
0.294 -0.259 -0.028
0.293 -0.255 -0.028
0.299 -0.255 -0.028
0.300 -0.253 -0.028
0.297 -0.246 -0.028
0.290 -0.236 -0.027
0.288 -0.231 -0.027
0.228 -0.180 -0.021
0.222 -0.172 -0.021
0.216 -0.165 -0.020
0.209 -0.157 -0.019
0.205 -0.152 -0.019
0.210 -0.153 -0.019
0.208 -0.149 -0.019
0.212 -0.149 -0.019
0.217 -0.150 -0.020
0.217 -0.148 -0.020
0.217 -0.145 -0.020
0.217 -0.143 -0.020
0.215 -0.139 -0.019
0.204 -0.129 -0.018
0.214 -0.133 -0.019
0.219 -0.134 -0.020
0.220 -0.132 -0.020
0.220 -0.130 -0.020
0.216 -0.125 -0.019
0.211 -0.119 -0.019
0.199 -0.111 -0.018
0.213 -0.116 -0.019
0.215 -0.115 -0.019
0.210 -0.110 -0.019
0.207 -0.106 -0.018
0.201 -0.101 -0.018
0.211 -0.104 -0.019
0.213 -0.103 -0.019
0.216 -0.102 -0.019
0.219 -0.101 -0.019
0.227 -0.103 -0.020
0.227 -0.101 -0.020
0.230 -0.100 -0.020
0.226 -0.096 -0.020
0.227 -0.094 -0.020
0.225 -0.091 -0.019
0.219 -0.086 -0.019
0.224 -0.086 -0.019
0.213 -0.080 -0.018
0.225 -0.082 -0.019
0.237 -0.084 -0.020
0.246 -0.085 -0.021
0.250 -0.084 -0.021
0.254 -0.082 -0.022
0.252 -0.079 -0.022
0.256 -0.078 -0.022
0.263 -0.078 -0.022
0.389 -0.108 -0.033
0.398 -0.107 -0.034
0.409 -0.106 -0.035
0.411 -0.103 -0.035
0.414 -0.100 -0.035
0.431 -0.100 -0.037
0.431 -0.096 -0.037
0.387 -0.079 -0.033
0.372 -0.072 -0.032
0.285 -0.050 -0.024
0.285 -0.048 -0.024
0.288 -0.046 -0.024
0.291 -0.043 -0.025
0.287 -0.040 -0.024
0.282 -0.037 -0.024
0.283 -0.034 -0.024
0.291 -0.033 -0.025
0.298 -0.031 -0.025
0.305 -0.029 -0.026
0.306 -0.026 -0.026
0.305 -0.023 -0.026
0.302 -0.020 -0.025
0.301 -0.018 -0.025
0.309 -0.015 -0.026
0.315 -0.013 -0.027
0.302 -0.010 -0.025
0.303 -0.007 -0.026
0.305 -0.004 -0.026
0.307 -0.001 -0.026
0.310 0.001 -0.026
0.312 0.004 -0.026
0.316 0.007 -0.027
0.316 0.010 -0.027
0.322 0.013 -0.027
0.316 0.016 -0.027
0.317 0.018 -0.027
0.317 0.021 -0.027
0.316 0.024 -0.027
0.317 0.027 -0.027
0.317 0.030 -0.027
0.317 0.033 -0.027
0.316 0.036 -0.027
0.317 0.038 -0.027
0.318 0.042 -0.027
0.320 0.045 -0.027
0.322 0.048 -0.027
0.323 0.051 -0.027
0.324 0.054 -0.027
0.328 0.058 -0.028
0.322 0.060 -0.027
0.322 0.063 -0.027
0.322 0.066 -0.027
0.322 0.069 -0.027
0.320 0.071 -0.027
0.318 0.074 -0.027
0.318 0.077 -0.027
0.318 0.080 -0.027
0.316 0.082 -0.027
0.315 0.085 -0.027
0.314 0.088 -0.027
0.326 0.094 -0.028
0.323 0.096 -0.028
0.317 0.098 -0.027
0.320 0.102 -0.028
0.324 0.106 -0.028
0.314 0.106 -0.027
0.309 0.107 -0.027
0.321 0.114 -0.028
0.329 0.120 -0.028
0.321 0.121 -0.028
0.318 0.123 -0.028
1.235 0.668 -0.110
1.004 0.566 -0.090
1.288 0.783 -0.116
1.290 0.800 -0.117
1.293 0.817 -0.118
1.298 0.835 -0.118
1.294 0.863 -0.119
1.295 0.879 -0.119
1.301 0.899 -0.120
1.294 0.910 -0.120
1.302 0.932 -0.121
1.303 0.950 -0.121
1.317 0.977 -0.123
0.417 0.462 -0.043
0.512 0.596 -0.054
0.510 0.603 -0.054
0.505 0.607 -0.054
0.494 0.604 -0.053
0.422 0.549 -0.046
0.264 -0.364 -0.025
0.182 -0.231 -0.017
0.179 -0.225 -0.017
0.174 -0.215 -0.016
0.177 -0.215 -0.016
0.178 -0.214 -0.016
0.182 -0.214 -0.017
0.188 -0.219 -0.017
0.199 -0.228 -0.018
0.278 -0.300 -0.025
0.285 -0.302 -0.025
0.288 -0.301 -0.026
0.291 -0.300 -0.026
0.291 -0.296 -0.026
0.294 -0.293 -0.026
0.295 -0.290 -0.026
0.300 -0.291 -0.026
0.300 -0.286 -0.026
0.293 -0.275 -0.025
0.297 -0.275 -0.026
0.302 -0.275 -0.026
0.299 -0.268 -0.026
0.291 -0.256 -0.025
0.293 -0.254 -0.025
0.298 -0.255 -0.025
0.301 -0.254 -0.025
0.296 -0.245 -0.025
0.289 -0.236 -0.024
0.203 -0.155 -0.017
0.213 -0.160 -0.018
0.211 -0.156 -0.017
0.206 -0.150 -0.017
0.204 -0.146 -0.017
0.214 -0.150 -0.017
0.211 -0.145 -0.017
0.220 -0.149 -0.018
0.221 -0.147 -0.018
0.220 -0.144 -0.018
0.214 -0.138 -0.017
0.205 -0.130 -0.017
0.206 -0.128 -0.017
0.208 -0.127 -0.017
0.221 -0.132 -0.018
0.218 -0.128 -0.017
0.219 -0.126 -0.017
0.214 -0.121 -0.017
0.204 -0.114 -0.016
0.212 -0.116 -0.017
0.213 -0.114 -0.017
0.212 -0.111 -0.017
0.212 -0.109 -0.017
0.212 -0.107 -0.017
0.211 -0.104 -0.017
0.214 -0.103 -0.017
0.220 -0.104 -0.017
0.223 -0.103 -0.017
0.223 -0.101 -0.017
0.229 -0.101 -0.018
0.228 -0.098 -0.018
0.230 -0.097 -0.018
0.225 -0.093 -0.017
0.220 -0.088 -0.017
0.215 -0.085 -0.017
0.204 -0.078 -0.016
0.216 -0.081 -0.017
0.247 -0.090 -0.019
0.236 -0.083 -0.018
0.246 -0.085 -0.019
0.252 -0.084 -0.019
0.251 -0.081 -0.019
0.252 -0.079 -0.019
0.256 -0.078 -0.020
0.389 -0.108 -0.030
0.399 -0.107 -0.030
0.405 -0.105 -0.031
0.412 -0.103 -0.031
0.422 -0.101 -0.032
0.432 -0.100 -0.033
0.429 -0.095 -0.033
0.383 -0.078 -0.029
0.369 -0.072 -0.028
0.357 -0.066 -0.027
0.285 -0.050 -0.022
0.284 -0.048 -0.021
0.286 -0.045 -0.022
0.294 -0.044 -0.022
0.294 -0.041 -0.022
0.283 -0.037 -0.021
0.283 -0.035 -0.021
0.286 -0.032 -0.022
0.303 -0.031 -0.023
0.317 -0.030 -0.024
0.319 -0.027 -0.024
0.309 -0.024 -0.023
0.300 -0.020 -0.023
0.300 -0.018 -0.023
0.313 -0.016 -0.024
0.317 -0.013 -0.024
0.302 -0.010 -0.023
0.303 -0.007 -0.023
0.305 -0.004 -0.023
0.307 -0.001 -0.023
0.309 0.001 -0.023
0.313 0.004 -0.024
0.315 0.007 -0.024
0.317 0.010 -0.024
0.318 0.013 -0.024
0.322 0.016 -0.024
0.317 0.018 -0.024
0.318 0.021 -0.024
0.317 0.024 -0.024
0.317 0.027 -0.024
0.318 0.030 -0.024
0.318 0.033 -0.024
0.318 0.036 -0.024
0.318 0.039 -0.024
0.321 0.042 -0.024
0.322 0.045 -0.024
0.323 0.048 -0.024
0.324 0.051 -0.025
0.325 0.054 -0.025
0.324 0.057 -0.025
0.322 0.060 -0.024
0.322 0.063 -0.024
0.322 0.066 -0.024
0.321 0.068 -0.024
0.319 0.071 -0.024
0.319 0.074 -0.024
0.318 0.077 -0.024
0.318 0.080 -0.024
0.317 0.082 -0.024
0.315 0.085 -0.024
0.321 0.089 -0.025
0.322 0.093 -0.025
0.318 0.095 -0.024
0.314 0.097 -0.024
0.321 0.102 -0.025
0.320 0.105 -0.025
0.322 0.108 -0.025
0.324 0.112 -0.025
0.337 0.120 -0.026
0.334 0.122 -0.026
0.323 0.124 -0.025
1.227 0.510 -0.096
1.238 0.527 -0.097
1.249 0.544 -0.098
0.981 0.553 -0.078
0.988 0.567 -0.079
1.296 0.864 -0.106
1.294 0.878 -0.106
1.291 0.892 -0.106
1.297 0.912 -0.107
1.301 0.932 -0.108
1.308 0.953 -0.108
1.297 0.961 -0.108
0.507 0.580 -0.047
0.511 0.594 -0.048
0.511 0.604 -0.048
0.502 0.603 -0.047
0.495 0.604 -0.047
0.373 0.485 -0.036
0.255 -0.351 -0.021
0.199 -0.266 -0.017
0.203 -0.269 -0.017
0.185 -0.242 -0.015
0.183 -0.236 -0.015
0.177 -0.225 -0.015
0.175 -0.219 -0.014
0.175 -0.215 -0.014
0.174 -0.211 -0.014
0.179 -0.215 -0.014
0.207 -0.240 -0.017
0.268 -0.294 -0.021
0.280 -0.302 -0.022
0.287 -0.305 -0.022
0.288 -0.301 -0.022
0.288 -0.297 -0.022
0.288 -0.293 -0.022
0.292 -0.291 -0.022
0.296 -0.291 -0.023
0.297 -0.288 -0.023
0.289 -0.276 -0.022
0.289 -0.272 -0.022
0.296 -0.274 -0.022
0.297 -0.270 -0.022
0.290 -0.260 -0.022
0.290 -0.256 -0.022
0.293 -0.254 -0.022
0.298 -0.254 -0.022
0.297 -0.250 -0.022
0.290 -0.240 -0.021
0.288 -0.235 -0.021
0.282 -0.226 -0.021
0.224 -0.177 -0.016
0.218 -0.169 -0.016
0.210 -0.160 -0.015
0.213 -0.160 -0.015
0.216 -0.160 -0.016
0.214 -0.155 -0.015
0.211 -0.151 -0.015
0.203 -0.143 -0.015
0.212 -0.147 -0.015
0.217 -0.147 -0.015
0.220 -0.147 -0.016
0.220 -0.145 -0.016
0.219 -0.141 -0.016
0.219 -0.138 -0.015
0.207 -0.129 -0.015
0.218 -0.133 -0.015
0.211 -0.127 -0.015
0.215 -0.126 -0.015
0.220 -0.127 -0.015
0.214 -0.121 -0.015
0.205 -0.114 -0.014
0.200 -0.109 -0.014
0.209 -0.112 -0.014
0.210 -0.110 -0.015
0.203 -0.104 -0.014
0.210 -0.106 -0.015
0.206 -0.102 -0.014
0.209 -0.101 -0.014
0.221 -0.105 -0.015
0.221 -0.102 -0.015
0.222 -0.100 -0.015
0.226 -0.100 -0.015
0.229 -0.099 -0.016
0.228 -0.096 -0.016
0.227 -0.094 -0.015
0.222 -0.089 -0.015
0.210 -0.083 -0.014
0.209 -0.080 -0.014
0.217 -0.081 -0.015
0.235 -0.085 -0.016
0.244 -0.086 -0.016
0.242 -0.083 -0.016
0.246 -0.082 -0.017
0.247 -0.080 -0.017
0.247 -0.078 -0.017
0.259 -0.079 -0.017
0.387 -0.108 -0.026
0.396 -0.106 -0.027
0.402 -0.104 -0.027
0.410 -0.103 -0.027
0.424 -0.102 -0.028
0.431 -0.100 -0.029
0.429 -0.095 -0.029
0.383 -0.078 -0.026
0.377 -0.073 -0.025
0.285 -0.050 -0.019
0.284 -0.047 -0.019
0.286 -0.045 -0.019
0.291 -0.043 -0.019
0.294 -0.041 -0.020
0.287 -0.037 -0.019
0.282 -0.034 -0.019
0.285 -0.032 -0.019
0.296 -0.031 -0.020
0.321 -0.030 -0.021
0.323 -0.028 -0.021
0.311 -0.024 -0.021
0.302 -0.020 -0.020
0.297 -0.017 -0.020
0.300 -0.015 -0.020
0.309 -0.013 -0.020
0.300 -0.010 -0.020
0.303 -0.007 -0.020
0.304 -0.004 -0.020
0.306 -0.001 -0.020
0.308 0.001 -0.020
0.311 0.004 -0.021
0.314 0.007 -0.021
0.317 0.010 -0.021
0.317 0.013 -0.021
0.320 0.016 -0.021
0.320 0.019 -0.021
0.316 0.021 -0.021
0.319 0.024 -0.021
0.319 0.027 -0.021
0.319 0.030 -0.021
0.320 0.033 -0.021
0.320 0.036 -0.021
0.320 0.039 -0.021
0.321 0.042 -0.021
0.323 0.045 -0.022
0.325 0.048 -0.022
0.320 0.050 -0.021
0.324 0.054 -0.022
0.323 0.057 -0.022
0.322 0.060 -0.022
0.322 0.063 -0.022
0.322 0.066 -0.022
0.320 0.068 -0.021
0.319 0.071 -0.021
0.318 0.074 -0.021
0.318 0.077 -0.021
0.317 0.080 -0.021
0.316 0.082 -0.021
0.314 0.085 -0.021
0.316 0.088 -0.021
0.319 0.092 -0.022
0.318 0.095 -0.021
0.316 0.097 -0.021
0.318 0.101 -0.021
0.319 0.104 -0.022
0.315 0.106 -0.021
0.328 0.114 -0.022
0.342 0.122 -0.023
0.339 0.124 -0.023
0.327 0.123 -0.022
0.329 0.127 -0.022
0.342 0.135 -0.023
0.977 0.550 -0.069
1.281 0.808 -0.091
0.500 0.572 -0.041
0.507 0.589 -0.041
0.512 0.605 -0.042
0.506 0.608 -0.042
0.482 0.589 -0.040
0.467 0.579 -0.039
0.395 0.513 -0.033
0.242 -0.333 -0.017
0.195 -0.265 -0.014
0.195 -0.261 -0.014
0.181 -0.239 -0.013
0.185 -0.241 -0.013
0.183 -0.235 -0.013
0.177 -0.224 -0.012
0.175 -0.219 -0.012
0.175 -0.216 -0.012
0.179 -0.218 -0.013
0.188 -0.225 -0.013
0.207 -0.244 -0.014
0.215 -0.250 -0.015
0.233 -0.267 -0.016
0.242 -0.273 -0.017
0.264 -0.293 -0.018
0.275 -0.301 -0.019
0.281 -0.303 -0.019
0.285 -0.302 -0.019
0.286 -0.299 -0.019
0.285 -0.294 -0.019
0.283 -0.287 -0.019
0.286 -0.286 -0.019
0.289 -0.284 -0.019
0.288 -0.279 -0.019
0.286 -0.273 -0.019
0.290 -0.272 -0.019
0.291 -0.269 -0.019
0.291 -0.265 -0.019
0.288 -0.258 -0.019
0.293 -0.258 -0.019
0.288 -0.250 -0.019
0.292 -0.249 -0.019
0.291 -0.245 -0.019
0.284 -0.235 -0.018
0.282 -0.229 -0.018
0.287 -0.230 -0.018
0.226 -0.178 -0.014
0.214 -0.166 -0.013
0.212 -0.162 -0.013
0.204 -0.153 -0.013
0.213 -0.157 -0.013
0.215 -0.156 -0.013
0.210 -0.150 -0.013
0.198 -0.139 -0.012
0.210 -0.145 -0.013
0.213 -0.144 -0.013
0.215 -0.144 -0.013
0.221 -0.145 -0.014
0.222 -0.143 -0.014
0.219 -0.139 -0.013
0.214 -0.133 -0.013
0.229 -0.140 -0.014
0.229 -0.137 -0.014
0.229 -0.135 -0.014
0.224 -0.129 -0.013
0.213 -0.121 -0.013
0.214 -0.119 -0.013
0.210 -0.114 -0.013
0.209 -0.112 -0.013
0.210 -0.110 -0.013
0.211 -0.108 -0.013
0.203 -0.102 -0.012
0.207 -0.102 -0.012
0.208 -0.100 -0.012
0.221 -0.104 -0.013
0.220 -0.102 -0.013
0.221 -0.100 -0.013
0.225 -0.099 -0.013
0.228 -0.098 -0.013
0.230 -0.097 -0.014
0.230 -0.095 -0.014
0.226 -0.091 -0.013
0.213 -0.084 -0.013
0.214 -0.082 -0.013
0.223 -0.083 -0.013
0.237 -0.086 -0.014
0.239 -0.085 -0.014
0.240 -0.082 -0.014
0.244 -0.082 -0.014
0.249 -0.081 -0.014
0.251 -0.079 -0.015
0.261 -0.080 -0.015
0.278 -0.083 -0.016
0.279 -0.080 -0.016
0.389 -0.108 -0.023
0.397 -0.106 -0.023
0.403 -0.104 -0.023
0.408 -0.102 -0.024
0.426 -0.102 -0.025
0.430 -0.099 -0.025
0.429 -0.095 -0.025
0.400 -0.085 -0.023
0.394 -0.080 -0.023
0.284 -0.047 -0.016
0.287 -0.045 -0.016
0.290 -0.043 -0.017
0.292 -0.041 -0.017
0.291 -0.038 -0.017
0.278 -0.034 -0.016
0.294 -0.033 -0.017
0.301 -0.031 -0.017
0.316 -0.030 -0.018
0.320 -0.027 -0.018
0.313 -0.024 -0.018
0.307 -0.021 -0.018
0.302 -0.018 -0.017
0.303 -0.015 -0.017
0.305 -0.012 -0.017
0.310 -0.010 -0.018
0.300 -0.007 -0.017
0.302 -0.004 -0.017
0.304 -0.001 -0.017
0.309 0.001 -0.018
0.310 0.004 -0.018
0.313 0.007 -0.018
0.316 0.010 -0.018
0.317 0.013 -0.018
0.315 0.015 -0.018
0.316 0.018 -0.018
0.326 0.022 -0.019
0.317 0.024 -0.018
0.319 0.027 -0.018
0.319 0.030 -0.018
0.320 0.033 -0.018
0.320 0.036 -0.018
0.320 0.039 -0.018
0.320 0.042 -0.018
0.320 0.045 -0.018
0.323 0.048 -0.019
0.325 0.051 -0.019
0.322 0.054 -0.019
0.321 0.057 -0.019
0.321 0.060 -0.019
0.321 0.062 -0.019
0.320 0.065 -0.019
0.320 0.068 -0.018
0.318 0.071 -0.018
0.317 0.074 -0.018
0.317 0.076 -0.018
0.317 0.079 -0.018
0.315 0.082 -0.018
0.314 0.085 -0.018
0.321 0.090 -0.019
0.318 0.092 -0.019
0.321 0.096 -0.019
0.318 0.098 -0.019
0.316 0.100 -0.018
0.308 0.100 -0.018
0.313 0.105 -0.018
0.322 0.111 -0.019
0.328 0.117 -0.019
0.321 0.117 -0.019
0.322 0.121 -0.019
0.326 0.126 -0.019
0.398 0.440 -0.028
0.508 0.591 -0.036
0.511 0.604 -0.036
0.506 0.608 -0.036
0.491 0.600 -0.035
0.375 0.487 -0.027
0.187 -0.258 -0.011
0.184 -0.251 -0.011
0.174 -0.233 -0.010
0.174 -0.229 -0.010
0.178 -0.233 -0.011
0.178 -0.229 -0.011
0.174 -0.221 -0.010
0.177 -0.221 -0.010
0.185 -0.228 -0.011
0.192 -0.234 -0.011
0.203 -0.243 -0.012
0.211 -0.249 -0.012
0.239 -0.274 -0.014
0.249 -0.281 -0.014
0.270 -0.300 -0.015
0.277 -0.303 -0.016
0.277 -0.299 -0.016
0.277 -0.294 -0.016
0.276 -0.289 -0.016
0.275 -0.283 -0.015
0.276 -0.280 -0.015
0.278 -0.274 -0.015
0.282 -0.273 -0.016
0.282 -0.269 -0.015
0.283 -0.266 -0.016
0.287 -0.265 -0.016
0.280 -0.251 -0.015
0.275 -0.243 -0.015
0.280 -0.243 -0.015
0.285 -0.244 -0.015
0.284 -0.239 -0.015
0.277 -0.229 -0.015
0.273 -0.222 -0.015
0.262 -0.210 -0.014
0.226 -0.178 -0.012
0.222 -0.172 -0.012
0.204 -0.156 -0.011
0.206 -0.154 -0.011
0.208 -0.154 -0.011
0.213 -0.154 -0.011
0.212 -0.151 -0.011
0.205 -0.144 -0.011
0.199 -0.137 -0.010
0.206 -0.140 -0.011
0.210 -0.140 -0.011
0.215 -0.141 -0.011
0.218 -0.140 -0.011
0.218 -0.138 -0.011
0.219 -0.136 -0.011
0.219 -0.134 -0.011
0.220 -0.132 -0.011
0.218 -0.128 -0.011
0.218 -0.126 -0.011
0.218 -0.123 -0.011
0.213 -0.118 -0.011
0.209 -0.114 -0.011
0.209 -0.112 -0.011
0.209 -0.109 -0.011
0.210 -0.108 -0.011
0.211 -0.106 -0.011
0.212 -0.104 -0.011
0.213 -0.103 -0.011
0.219 -0.103 -0.011
0.222 -0.103 -0.011
0.222 -0.100 -0.011
0.224 -0.099 -0.011
0.228 -0.098 -0.011
0.230 -0.097 -0.011
0.228 -0.094 -0.011
0.225 -0.090 -0.011
0.218 -0.086 -0.011
0.210 -0.080 -0.010
0.208 -0.078 -0.010
0.233 -0.085 -0.011
0.240 -0.085 -0.012
0.241 -0.083 -0.012
0.247 -0.083 -0.012
0.250 -0.081 -0.012
0.255 -0.080 -0.012
0.266 -0.081 -0.013
0.272 -0.081 -0.013
0.274 -0.079 -0.013
0.384 -0.106 -0.019
0.399 -0.107 -0.019
0.403 -0.104 -0.020
0.410 -0.102 -0.020
0.416 -0.100 -0.020
0.424 -0.098 -0.021
0.428 -0.095 -0.021
0.382 -0.078 -0.019
0.376 -0.073 -0.018
0.287 -0.048 -0.014
0.287 -0.045 -0.014
0.291 -0.043 -0.014
0.293 -0.041 -0.014
0.292 -0.038 -0.014
0.282 -0.034 -0.014
0.283 -0.032 -0.014
0.297 -0.031 -0.014
0.312 -0.029 -0.015
0.320 -0.027 -0.015
0.317 -0.024 -0.015
0.308 -0.021 -0.015
0.302 -0.018 -0.015
0.300 -0.015 -0.015
0.308 -0.013 -0.015
0.318 -0.010 -0.015
0.299 -0.007 -0.014
0.301 -0.004 -0.015
0.303 -0.001 -0.015
0.307 0.001 -0.015
0.309 0.004 -0.015
0.314 0.007 -0.015
0.314 0.010 -0.015
0.314 0.013 -0.015
0.315 0.015 -0.015
0.315 0.018 -0.015
0.316 0.021 -0.015
0.323 0.025 -0.016
0.320 0.027 -0.015
0.319 0.030 -0.015
0.319 0.033 -0.015
0.320 0.036 -0.016
0.321 0.039 -0.016
0.320 0.042 -0.016
0.329 0.046 -0.016
0.325 0.048 -0.016
0.321 0.051 -0.016
0.323 0.054 -0.016
0.321 0.057 -0.016
0.320 0.059 -0.016
0.320 0.062 -0.016
0.320 0.065 -0.016
0.319 0.068 -0.016
0.318 0.071 -0.015
0.317 0.073 -0.015
0.316 0.076 -0.015
0.315 0.079 -0.015
0.315 0.082 -0.015
0.316 0.085 -0.015
0.328 0.091 -0.016
0.315 0.091 -0.015
0.322 0.096 -0.016
0.325 0.100 -0.016
0.318 0.101 -0.016
0.312 0.102 -0.015
0.311 0.105 -0.015
0.317 0.109 -0.016
0.314 0.112 -0.016
0.311 0.114 -0.015
0.314 0.118 -0.016
0.325 0.125 -0.016
0.337 0.133 -0.017
0.322 0.199 -0.017
0.323 0.204 -0.017
0.326 0.209 -0.017
0.322 0.210 -0.017
0.323 0.215 -0.017
0.331 0.225 -0.017
0.324 0.224 -0.017
0.321 0.226 -0.017
0.425 0.462 -0.025
0.430 0.475 -0.025
0.506 0.588 -0.030
0.511 0.603 -0.030
0.506 0.608 -0.030
0.493 0.602 -0.029
0.439 0.553 -0.026
0.424 0.542 -0.026
0.442 0.574 -0.027
0.185 -0.254 -0.009
0.177 -0.240 -0.008
0.169 -0.227 -0.008
0.172 -0.227 -0.008
0.172 -0.225 -0.008
0.175 -0.225 -0.008
0.176 -0.224 -0.008
0.180 -0.225 -0.008
0.194 -0.239 -0.009
0.204 -0.247 -0.010
0.208 -0.249 -0.010
0.213 -0.251 -0.010
0.218 -0.253 -0.010
0.267 -0.235 -0.012
0.268 -0.232 -0.012
0.278 -0.238 -0.012
0.281 -0.236 -0.012
0.267 -0.221 -0.012
0.261 -0.212 -0.011
0.257 -0.206 -0.011
0.231 -0.183 -0.010
0.220 -0.171 -0.009
0.207 -0.158 -0.009
0.206 -0.155 -0.009
0.209 -0.154 -0.009
0.210 -0.153 -0.009
0.214 -0.153 -0.009
0.215 -0.151 -0.009
0.207 -0.143 -0.009
0.207 -0.141 -0.009
0.210 -0.140 -0.009
0.212 -0.139 -0.009
0.214 -0.138 -0.009
0.216 -0.137 -0.009
0.218 -0.135 -0.009
0.218 -0.133 -0.009
0.217 -0.130 -0.009
0.216 -0.127 -0.009
0.218 -0.126 -0.009
0.218 -0.124 -0.009
0.215 -0.120 -0.009
0.204 -0.111 -0.008
0.203 -0.109 -0.008
0.205 -0.107 -0.008
0.207 -0.106 -0.008
0.208 -0.105 -0.008
0.202 -0.099 -0.008
0.208 -0.100 -0.008
0.212 -0.100 -0.009
0.220 -0.101 -0.009
0.223 -0.101 -0.009
0.224 -0.099 -0.009
0.228 -0.098 -0.009
0.227 -0.096 -0.009
0.225 -0.093 -0.009
0.221 -0.089 -0.009
0.215 -0.084 -0.009
0.211 -0.081 -0.008
0.208 -0.077 -0.008
0.232 -0.084 -0.009
0.234 -0.083 -0.009
0.242 -0.083 -0.010
0.246 -0.082 -0.010
0.248 -0.081 -0.010
0.253 -0.080 -0.010
0.264 -0.081 -0.011
0.271 -0.080 -0.011
0.277 -0.079 -0.011
0.385 -0.107 -0.015
0.399 -0.107 -0.016
0.402 -0.104 -0.016
0.406 -0.101 -0.016
0.416 -0.100 -0.016
0.421 -0.097 -0.017
0.422 -0.094 -0.017
0.398 -0.085 -0.016
0.384 -0.078 -0.015
0.367 -0.071 -0.014
0.360 -0.067 -0.014
0.284 -0.050 -0.011
0.285 -0.048 -0.011
0.288 -0.045 -0.011
0.291 -0.043 -0.011
0.291 -0.041 -0.011
0.289 -0.038 -0.011
0.284 -0.035 -0.011
0.280 -0.032 -0.011
0.290 -0.030 -0.011
0.302 -0.029 -0.012
0.325 -0.028 -0.013
0.324 -0.025 -0.013
0.305 -0.021 -0.012
0.295 -0.017 -0.012
0.293 -0.015 -0.012
0.297 -0.012 -0.012
0.320 -0.010 -0.013
0.314 -0.007 -0.012
0.300 -0.004 -0.012
0.303 -0.001 -0.012
0.305 0.001 -0.012
0.308 0.004 -0.012
0.310 0.007 -0.012
0.313 0.010 -0.012
0.314 0.013 -0.012
0.315 0.015 -0.012
0.316 0.018 -0.012
0.316 0.021 -0.012
0.317 0.024 -0.012
0.318 0.027 -0.013
0.320 0.030 -0.013
0.322 0.033 -0.013
0.322 0.036 -0.013
0.321 0.039 -0.013
0.321 0.042 -0.013
0.319 0.045 -0.013
0.319 0.047 -0.013
0.321 0.051 -0.013
0.321 0.054 -0.013
0.321 0.057 -0.013
0.320 0.059 -0.013
0.320 0.062 -0.013
0.320 0.065 -0.013
0.318 0.068 -0.013
0.317 0.070 -0.013
0.316 0.073 -0.013
0.315 0.076 -0.013
0.313 0.078 -0.012
0.312 0.081 -0.012
0.313 0.084 -0.012
0.309 0.086 -0.012
0.322 0.093 -0.013
0.318 0.095 -0.013
0.328 0.101 -0.013
0.327 0.104 -0.013
0.318 0.104 -0.013
0.315 0.106 -0.013
0.315 0.109 -0.013
0.317 0.113 -0.013
0.312 0.114 -0.013
0.316 0.119 -0.013
0.325 0.125 -0.013
0.334 0.132 -0.014
0.327 0.133 -0.013
0.332 0.141 -0.013
0.343 0.149 -0.014
0.352 0.161 -0.014
0.325 0.152 -0.013
0.333 0.159 -0.014
0.319 0.159 -0.013
0.311 0.165 -0.013
0.343 0.193 -0.014
0.339 0.195 -0.014
0.343 0.200 -0.014
0.335 0.200 -0.014
0.327 0.198 -0.014
0.324 0.200 -0.014
0.321 0.203 -0.013
0.319 0.205 -0.013
0.319 0.208 -0.013
0.316 0.211 -0.013
0.310 0.211 -0.013
0.309 0.213 -0.013
0.308 0.216 -0.013
0.296 0.212 -0.013
0.284 0.207 -0.012
1.381 1.429 -0.063
0.431 0.468 -0.020
0.423 0.468 -0.020
0.509 0.592 -0.024
0.515 0.608 -0.024
0.507 0.609 -0.024
0.454 0.590 -0.022
0.176 -0.243 -0.006
0.169 -0.229 -0.006
0.170 -0.228 -0.006
0.168 -0.222 -0.006
0.170 -0.222 -0.006
0.176 -0.226 -0.006
0.181 -0.229 -0.006
0.188 -0.235 -0.007
0.195 -0.240 -0.007
0.203 -0.247 -0.007
0.199 -0.239 -0.007
0.195 -0.229 -0.007
0.194 -0.225 -0.007
0.195 -0.223 -0.007
0.198 -0.223 -0.007
0.200 -0.223 -0.007
0.203 -0.222 -0.007
0.206 -0.221 -0.007
0.207 -0.220 -0.007
0.209 -0.219 -0.007
0.212 -0.218 -0.007
0.214 -0.217 -0.007
0.216 -0.215 -0.007
0.218 -0.214 -0.007
0.221 -0.214 -0.007
0.223 -0.212 -0.008
0.225 -0.211 -0.008
0.229 -0.211 -0.008
0.232 -0.211 -0.008
0.235 -0.210 -0.008
0.238 -0.210 -0.008
0.239 -0.207 -0.008
0.242 -0.206 -0.008
0.245 -0.206 -0.008
0.247 -0.204 -0.008
0.250 -0.203 -0.008
0.253 -0.203 -0.008
0.215 -0.167 -0.007
0.210 -0.160 -0.007
0.206 -0.155 -0.007
0.207 -0.153 -0.007
0.211 -0.153 -0.007
0.213 -0.152 -0.007
0.215 -0.151 -0.007
0.212 -0.146 -0.007
0.209 -0.142 -0.007
0.214 -0.143 -0.007
0.213 -0.140 -0.007
0.211 -0.136 -0.007
0.213 -0.134 -0.007
0.216 -0.134 -0.007
0.217 -0.133 -0.007
0.216 -0.130 -0.007
0.216 -0.127 -0.007
0.217 -0.125 -0.007
0.217 -0.123 -0.007
0.215 -0.120 -0.007
0.213 -0.116 -0.007
0.205 -0.109 -0.006
0.207 -0.108 -0.007
0.210 -0.108 -0.007
0.207 -0.104 -0.006
0.210 -0.104 -0.007
0.209 -0.101 -0.007
0.210 -0.099 -0.007
0.219 -0.101 -0.007
0.224 -0.101 -0.007
0.226 -0.100 -0.007
0.226 -0.098 -0.007
0.225 -0.095 -0.007
0.223 -0.092 -0.007
0.216 -0.087 -0.007
0.212 -0.083 -0.007
0.214 -0.082 -0.007
0.218 -0.081 -0.007
0.234 -0.085 -0.007
0.227 -0.080 -0.007
0.237 -0.082 -0.007
0.243 -0.081 -0.007
0.252 -0.082 -0.008
0.255 -0.080 -0.008
0.257 -0.078 -0.008
0.271 -0.080 -0.008
0.387 -0.107 -0.012
0.396 -0.106 -0.012
0.403 -0.104 -0.012
0.411 -0.103 -0.013
0.417 -0.100 -0.013
0.426 -0.098 -0.013
0.422 -0.094 -0.013
0.400 -0.085 -0.012
0.388 -0.079 -0.012
0.381 -0.074 -0.012
0.369 -0.068 -0.011
0.289 -0.051 -0.009
0.287 -0.048 -0.009
0.290 -0.046 -0.009
0.290 -0.043 -0.009
0.289 -0.040 -0.009
0.288 -0.038 -0.009
0.288 -0.035 -0.009
0.280 -0.032 -0.009
0.286 -0.030 -0.009
0.294 -0.028 -0.009
0.317 -0.027 -0.010
0.319 -0.024 -0.010
0.306 -0.021 -0.009
0.294 -0.017 -0.009
0.291 -0.014 -0.009
0.292 -0.012 -0.009
0.302 -0.010 -0.009
0.315 -0.007 -0.010
0.300 -0.004 -0.009
0.302 -0.001 -0.009
0.304 0.001 -0.009
0.306 0.004 -0.009
0.308 0.007 -0.009
0.311 0.010 -0.009
0.313 0.013 -0.010
0.314 0.015 -0.010
0.315 0.018 -0.010
0.316 0.021 -0.010
0.316 0.024 -0.010
0.317 0.027 -0.010
0.318 0.030 -0.010
0.319 0.033 -0.010
0.320 0.036 -0.010
0.320 0.039 -0.010
0.320 0.042 -0.010
0.319 0.045 -0.010
0.319 0.047 -0.010
0.319 0.050 -0.010
0.320 0.053 -0.010
0.319 0.056 -0.010
0.319 0.059 -0.010
0.319 0.062 -0.010
0.318 0.065 -0.010
0.316 0.067 -0.010
0.316 0.070 -0.010
0.315 0.073 -0.010
0.314 0.076 -0.010
0.312 0.078 -0.010
0.312 0.081 -0.010
0.316 0.085 -0.010
0.313 0.087 -0.010
0.307 0.089 -0.009
0.323 0.096 -0.010
0.317 0.097 -0.010
0.319 0.101 -0.010
0.321 0.105 -0.010
0.314 0.106 -0.010
0.323 0.112 -0.010
0.323 0.115 -0.010
0.319 0.116 -0.010
0.316 0.119 -0.010
0.333 0.128 -0.010
0.341 0.135 -0.011
0.334 0.135 -0.010
0.340 0.141 -0.011
0.337 0.154 -0.011
0.326 0.155 -0.010
0.330 0.161 -0.010
0.328 0.167 -0.010
0.323 0.168 -0.010
0.307 0.163 -0.010
0.354 0.195 -0.011
0.347 0.195 -0.011
0.344 0.198 -0.011
0.329 0.193 -0.011
0.327 0.195 -0.010
0.324 0.197 -0.010
0.323 0.200 -0.010
0.321 0.202 -0.010
0.319 0.205 -0.010
0.316 0.207 -0.010
0.315 0.210 -0.010
0.310 0.210 -0.010
0.309 0.213 -0.010
0.308 0.216 -0.010
0.295 0.211 -0.010
1.325 1.105 -0.044
1.316 1.135 -0.044
1.347 1.394 -0.047
0.500 0.571 -0.018
0.505 0.586 -0.018
0.509 0.601 -0.018
0.506 0.607 -0.018
0.429 0.540 -0.016
0.423 0.550 -0.015
0.162 -0.223 -0.004
0.167 -0.227 -0.004
0.166 -0.223 -0.004
0.167 -0.220 -0.004
0.169 -0.221 -0.004
0.177 -0.227 -0.004
0.184 -0.233 -0.004
0.191 -0.239 -0.005
0.197 -0.242 -0.005
0.193 -0.235 -0.005
0.193 -0.230 -0.005
0.193 -0.228 -0.005
0.194 -0.226 -0.005
0.196 -0.224 -0.005
0.198 -0.223 -0.005
0.201 -0.223 -0.005
0.203 -0.223 -0.005
0.206 -0.222 -0.005
0.208 -0.220 -0.005
0.209 -0.219 -0.005
0.212 -0.218 -0.005
0.214 -0.217 -0.005
0.216 -0.216 -0.005
0.219 -0.215 -0.005
0.221 -0.214 -0.005
0.224 -0.213 -0.005
0.225 -0.211 -0.005
0.228 -0.210 -0.005
0.231 -0.210 -0.005
0.235 -0.210 -0.005
0.237 -0.208 -0.005
0.239 -0.207 -0.005
0.241 -0.206 -0.006
0.245 -0.206 -0.006
0.247 -0.205 -0.006
0.251 -0.204 -0.006
0.251 -0.201 -0.006
0.242 -0.191 -0.005
0.216 -0.167 -0.005
0.211 -0.161 -0.005
0.206 -0.154 -0.005
0.206 -0.152 -0.005
0.211 -0.153 -0.005
0.215 -0.153 -0.005
0.214 -0.150 -0.005
0.212 -0.146 -0.005
0.207 -0.140 -0.005
0.208 -0.139 -0.005
0.206 -0.135 -0.005
0.212 -0.136 -0.005
0.210 -0.133 -0.005
0.216 -0.134 -0.005
0.217 -0.133 -0.005
0.218 -0.131 -0.005
0.217 -0.128 -0.005
0.219 -0.126 -0.005
0.217 -0.123 -0.005
0.216 -0.120 -0.005
0.208 -0.113 -0.005
0.206 -0.110 -0.005
0.207 -0.108 -0.005
0.211 -0.108 -0.005
0.210 -0.106 -0.005
0.212 -0.104 -0.005
0.211 -0.102 -0.005
0.213 -0.101 -0.005
0.219 -0.101 -0.005
0.223 -0.101 -0.005
0.225 -0.100 -0.005
0.225 -0.097 -0.005
0.223 -0.094 -0.005
0.222 -0.091 -0.005
0.219 -0.088 -0.005
0.215 -0.084 -0.005
0.210 -0.080 -0.005
0.208 -0.077 -0.005
0.227 -0.082 -0.005
0.239 -0.084 -0.005
0.239 -0.082 -0.005
0.244 -0.082 -0.005
0.255 -0.083 -0.006
0.261 -0.082 -0.006
0.265 -0.081 -0.006
0.278 -0.082 -0.006
0.397 -0.106 -0.009
0.406 -0.105 -0.009
0.414 -0.103 -0.009
0.422 -0.101 -0.009
0.428 -0.099 -0.009
0.429 -0.095 -0.009
0.409 -0.087 -0.009
0.395 -0.080 -0.008
0.388 -0.075 -0.008
0.288 -0.051 -0.006
0.289 -0.048 -0.006
0.290 -0.046 -0.006
0.291 -0.043 -0.006
0.287 -0.040 -0.006
0.292 -0.038 -0.006
0.291 -0.035 -0.006
0.287 -0.032 -0.006
0.284 -0.029 -0.006
0.290 -0.027 -0.006
0.302 -0.026 -0.006
0.313 -0.024 -0.007
0.307 -0.021 -0.007
0.298 -0.017 -0.006
0.294 -0.015 -0.006
0.298 -0.012 -0.006
0.298 -0.009 -0.006
0.301 -0.007 -0.006
0.309 -0.004 -0.007
0.301 -0.001 -0.006
0.303 0.001 -0.006
0.304 0.004 -0.007
0.306 0.007 -0.007
0.307 0.010 -0.007
0.311 0.012 -0.007
0.312 0.015 -0.007
0.314 0.018 -0.007
0.315 0.021 -0.007
0.315 0.024 -0.007
0.316 0.027 -0.007
0.317 0.030 -0.007
0.318 0.033 -0.007
0.318 0.036 -0.007
0.318 0.039 -0.007
0.319 0.042 -0.007
0.318 0.044 -0.007
0.318 0.047 -0.007
0.317 0.050 -0.007
0.317 0.053 -0.007
0.318 0.056 -0.007
0.318 0.059 -0.007
0.317 0.062 -0.007
0.315 0.064 -0.007
0.315 0.067 -0.007
0.314 0.070 -0.007
0.314 0.073 -0.007
0.314 0.076 -0.007
0.313 0.078 -0.007
0.329 0.085 -0.007
0.322 0.087 -0.007
0.320 0.089 -0.007
0.327 0.094 -0.007
0.316 0.094 -0.007
0.311 0.096 -0.007
0.306 0.097 -0.007
0.315 0.103 -0.007
0.317 0.107 -0.007
0.324 0.112 -0.007
0.330 0.117 -0.007
0.326 0.119 -0.007
0.323 0.121 -0.007
0.341 0.131 -0.007
0.351 0.138 -0.008
0.348 0.141 -0.008
0.353 0.147 -0.008
0.340 0.148 -0.007
0.327 0.156 -0.007
0.335 0.163 -0.007
0.338 0.168 -0.007
0.360 0.187 -0.008
0.348 0.184 -0.008
0.361 0.199 -0.008
0.348 0.196 -0.008
0.340 0.195 -0.008
0.327 0.191 -0.007
0.325 0.194 -0.007
0.324 0.197 -0.007
0.322 0.199 -0.007
0.320 0.202 -0.007
0.318 0.204 -0.007
0.316 0.206 -0.007
0.312 0.208 -0.007
0.310 0.210 -0.007
0.309 0.213 -0.007
0.306 0.215 -0.007
0.290 0.208 -0.007
1.352 1.054 -0.031
1.347 1.068 -0.031
1.306 1.053 -0.030
1.332 1.092 -0.031
1.309 1.092 -0.030
1.309 1.110 -0.030
1.312 1.131 -0.031
1.313 1.151 -0.031
1.324 1.181 -0.031
1.319 1.257 -0.031
1.322 1.280 -0.031
0.502 0.545 -0.012
0.471 0.520 -0.011
0.474 0.532 -0.011
0.476 0.544 -0.012
0.507 0.598 -0.012
0.499 0.598 -0.012
0.165 -0.228 -0.002
0.164 -0.223 -0.002
0.166 -0.223 -0.002
0.169 -0.223 -0.002
0.173 -0.225 -0.002
0.177 -0.227 -0.002
0.186 -0.236 -0.002
0.193 -0.241 -0.002
0.194 -0.239 -0.002
0.190 -0.231 -0.002
0.191 -0.229 -0.002
0.193 -0.227 -0.002
0.194 -0.226 -0.002
0.196 -0.225 -0.002
0.199 -0.224 -0.002
0.201 -0.223 -0.003
0.203 -0.223 -0.003
0.205 -0.221 -0.003
0.207 -0.220 -0.003
0.209 -0.219 -0.003
0.211 -0.217 -0.003
0.214 -0.217 -0.003
0.216 -0.216 -0.003
0.219 -0.215 -0.003
0.222 -0.215 -0.003
0.224 -0.213 -0.003
0.226 -0.212 -0.003
0.228 -0.211 -0.003
0.231 -0.210 -0.003
0.234 -0.210 -0.003
0.237 -0.209 -0.003
0.238 -0.207 -0.003
0.242 -0.207 -0.003
0.245 -0.206 -0.003
0.248 -0.205 -0.003
0.251 -0.205 -0.003
0.251 -0.201 -0.003
0.243 -0.192 -0.003
0.224 -0.174 -0.003
0.212 -0.162 -0.003
0.208 -0.156 -0.003
0.209 -0.154 -0.003
0.213 -0.155 -0.003
0.216 -0.155 -0.003
0.214 -0.150 -0.003
0.210 -0.145 -0.003
0.209 -0.142 -0.003
0.205 -0.136 -0.003
0.207 -0.136 -0.003
0.207 -0.133 -0.003
0.213 -0.135 -0.003
0.215 -0.134 -0.003
0.223 -0.136 -0.003
0.221 -0.132 -0.003
0.218 -0.128 -0.003
0.220 -0.127 -0.003
0.221 -0.125 -0.003
0.219 -0.122 -0.003
0.218 -0.119 -0.003
0.207 -0.110 -0.003
0.202 -0.106 -0.003
0.209 -0.107 -0.003
0.215 -0.108 -0.003
0.201 -0.099 -0.003
0.206 -0.099 -0.003
0.208 -0.098 -0.003
0.208 -0.096 -0.003
0.222 -0.100 -0.003
0.225 -0.100 -0.003
0.224 -0.097 -0.003
0.222 -0.094 -0.003
0.220 -0.091 -0.003
0.224 -0.090 -0.003
0.217 -0.085 -0.003
0.216 -0.082 -0.003
0.210 -0.078 -0.003
0.217 -0.079 -0.003
0.232 -0.082 -0.003
0.234 -0.081 -0.003
0.237 -0.079 -0.003
0.245 -0.079 -0.003
0.259 -0.082 -0.003
0.268 -0.082 -0.003
0.280 -0.083 -0.003
0.398 -0.107 -0.005
0.407 -0.105 -0.005
0.415 -0.104 -0.005
0.421 -0.101 -0.005
0.425 -0.098 -0.005
0.421 -0.093 -0.005
0.412 -0.088 -0.005
0.397 -0.081 -0.005
0.293 -0.052 -0.004
0.285 -0.048 -0.004
0.281 -0.044 -0.003
0.286 -0.043 -0.004
0.291 -0.041 -0.004
0.292 -0.038 -0.004
0.295 -0.036 -0.004
0.289 -0.033 -0.004
0.286 -0.030 -0.004
0.287 -0.027 -0.004
0.293 -0.025 -0.004
0.300 -0.023 -0.004
0.317 -0.021 -0.004
0.303 -0.018 -0.004
0.304 -0.015 -0.004
0.307 -0.013 -0.004
0.303 -0.010 -0.004
0.300 -0.007 -0.004
0.303 -0.004 -0.004
0.315 -0.002 -0.004
0.301 0.001 -0.004
0.304 0.004 -0.004
0.305 0.007 -0.004
0.307 0.010 -0.004
0.309 0.012 -0.004
0.311 0.015 -0.004
0.312 0.018 -0.004
0.313 0.021 -0.004
0.313 0.024 -0.004
0.315 0.027 -0.004
0.316 0.030 -0.004
0.317 0.033 -0.004
0.316 0.036 -0.004
0.316 0.038 -0.004
0.317 0.041 -0.004
0.317 0.044 -0.004
0.317 0.047 -0.004
0.316 0.050 -0.004
0.316 0.053 -0.004
0.316 0.056 -0.004
0.317 0.059 -0.004
0.316 0.061 -0.004
0.315 0.064 -0.004
0.314 0.067 -0.004
0.313 0.070 -0.004
0.313 0.073 -0.004
0.314 0.076 -0.004
0.316 0.079 -0.004
0.330 0.086 -0.004
0.326 0.088 -0.004
0.333 0.093 -0.004
0.337 0.097 -0.004
0.321 0.096 -0.004
0.310 0.095 -0.004
0.310 0.098 -0.004
0.317 0.104 -0.004
0.314 0.106 -0.004
0.310 0.107 -0.004
0.327 0.116 -0.004
0.331 0.121 -0.004
0.322 0.121 -0.004
0.331 0.127 -0.004
0.344 0.136 -0.004
0.339 0.138 -0.004
0.341 0.142 -0.004
0.354 0.151 -0.004
0.361 0.157 -0.005
0.337 0.154 -0.004
0.326 0.155 -0.004
0.324 0.158 -0.004
0.327 0.163 -0.004
0.357 0.182 -0.005
0.363 0.188 -0.005
0.353 0.187 -0.004
0.338 0.183 -0.004
0.332 0.187 -0.004
0.327 0.188 -0.004
0.325 0.190 -0.004
0.327 0.195 -0.004
0.326 0.198 -0.004
0.322 0.199 -0.004
0.320 0.202 -0.004
0.318 0.204 -0.004
0.316 0.207 -0.004
0.315 0.210 -0.004
0.307 0.208 -0.004
0.309 0.213 -0.004
0.307 0.216 -0.004
0.288 0.206 -0.004
1.350 1.034 -0.017
1.327 1.034 -0.017
1.320 1.046 -0.017
1.334 1.076 -0.017
1.326 1.087 -0.017
1.307 1.090 -0.017
1.301 1.103 -0.017
1.312 1.131 -0.017
1.309 1.148 -0.017
0.474 0.524 -0.006
0.464 0.522 -0.006
0.471 0.539 -0.006
0.501 0.582 -0.006
0.501 0.591 -0.006
0.502 0.603 -0.006
0.347 0.444 -0.004
0.335 0.435 -0.004
0.165 -0.226 -0.000
0.166 -0.225 -0.000
0.170 -0.227 -0.000
0.173 -0.229 -0.000
0.175 -0.228 -0.000
0.184 -0.236 -0.000
0.188 -0.238 -0.000
0.190 -0.237 -0.000
0.187 -0.230 -0.000
0.189 -0.229 -0.000
0.191 -0.229 -0.000
0.193 -0.227 -0.000
0.195 -0.226 -0.000
0.197 -0.226 -0.000
0.199 -0.225 -0.000
0.201 -0.223 -0.000
0.203 -0.222 -0.000
0.205 -0.221 -0.000
0.207 -0.220 -0.000
0.209 -0.219 -0.000
0.211 -0.217 -0.000
0.214 -0.217 -0.000
0.217 -0.217 -0.000
0.219 -0.216 -0.000
0.222 -0.215 -0.000
0.224 -0.214 -0.000
0.226 -0.213 -0.000
0.229 -0.211 -0.001
0.231 -0.210 -0.001
0.234 -0.210 -0.001
0.237 -0.209 -0.001
0.240 -0.209 -0.001
0.243 -0.208 -0.001
0.245 -0.206 -0.001
0.247 -0.204 -0.001
0.251 -0.204 -0.001
0.250 -0.200 -0.001
0.238 -0.188 -0.001
0.222 -0.172 -0.001
0.214 -0.164 -0.001
0.211 -0.158 -0.001
0.211 -0.156 -0.001
0.213 -0.155 -0.001
0.215 -0.153 -0.001
0.213 -0.149 -0.001
0.211 -0.146 -0.001
0.208 -0.141 -0.001
0.203 -0.135 -0.001
0.209 -0.137 -0.001
0.211 -0.136 -0.001
0.209 -0.132 -0.001
0.219 -0.136 -0.001
0.222 -0.136 -0.001
0.220 -0.132 -0.001
0.218 -0.128 -0.001
0.221 -0.128 -0.001
0.223 -0.126 -0.001
0.221 -0.123 -0.001
0.219 -0.119 -0.001
0.216 -0.116 -0.001
0.208 -0.109 -0.001
0.210 -0.108 -0.001
0.213 -0.107 -0.001
0.217 -0.107 -0.001
0.207 -0.100 -0.001
0.209 -0.098 -0.001
0.215 -0.099 -0.001
0.226 -0.102 -0.001
0.222 -0.098 -0.001
0.223 -0.096 -0.001
0.224 -0.095 -0.001
0.228 -0.094 -0.001
0.219 -0.088 -0.001
0.221 -0.087 -0.001
0.220 -0.084 -0.001
0.216 -0.081 -0.001
0.218 -0.079 -0.001
0.225 -0.080 -0.001
0.231 -0.079 -0.001
0.234 -0.078 -0.001
0.241 -0.078 -0.001
0.248 -0.078 -0.001
0.258 -0.079 -0.001
0.272 -0.081 -0.001
0.285 -0.082 -0.001
0.395 -0.106 -0.001
0.404 -0.105 -0.001
0.415 -0.104 -0.001
0.420 -0.101 -0.001
0.422 -0.098 -0.001
0.422 -0.094 -0.001
0.382 -0.078 -0.001
0.381 -0.074 -0.001
0.365 -0.068 -0.001
0.295 -0.052 -0.001
0.280 -0.047 -0.001
0.280 -0.044 -0.001
0.282 -0.042 -0.001
0.287 -0.040 -0.001
0.292 -0.038 -0.001
0.297 -0.036 -0.001
0.293 -0.033 -0.001
0.287 -0.030 -0.001
0.287 -0.027 -0.001
0.290 -0.025 -0.001
0.297 -0.023 -0.001
0.308 -0.021 -0.001
0.314 -0.018 -0.001
0.308 -0.015 -0.001
0.313 -0.013 -0.001
0.311 -0.010 -0.001
0.302 -0.007 -0.001
0.310 -0.004 -0.001
0.320 -0.002 -0.001
0.310 0.001 -0.001
0.301 0.004 -0.001
0.304 0.007 -0.001
0.304 0.009 -0.001
0.308 0.012 -0.001
0.310 0.015 -0.001
0.310 0.018 -0.001
0.311 0.021 -0.001
0.311 0.024 -0.001
0.311 0.026 -0.001
0.314 0.030 -0.001
0.315 0.033 -0.001
0.315 0.035 -0.001
0.315 0.038 -0.001
0.315 0.041 -0.001
0.315 0.044 -0.001
0.316 0.047 -0.001
0.316 0.050 -0.001
0.315 0.053 -0.001
0.315 0.055 -0.001
0.315 0.058 -0.001
0.315 0.061 -0.001
0.314 0.064 -0.001
0.313 0.067 -0.001
0.312 0.069 -0.001
0.312 0.072 -0.001
0.314 0.076 -0.001
0.317 0.079 -0.001
0.315 0.082 -0.001
0.330 0.089 -0.001
0.334 0.093 -0.001
0.329 0.095 -0.001
0.321 0.096 -0.001
0.313 0.096 -0.001
0.314 0.099 -0.001
0.326 0.106 -0.001
0.320 0.108 -0.001
0.319 0.110 -0.001
0.327 0.116 -0.001
0.329 0.120 -0.001
0.319 0.120 -0.001
0.324 0.125 -0.001
0.329 0.130 -0.001
0.335 0.136 -0.001
0.343 0.142 -0.001
0.357 0.152 -0.001
0.362 0.158 -0.001
0.356 0.158 -0.001
0.332 0.151 -0.001
0.330 0.154 -0.001
0.319 0.156 -0.001
0.311 0.155 -0.001
0.352 0.183 -0.001
0.341 0.184 -0.001
0.323 0.186 -0.001
0.333 0.195 -0.001
0.326 0.195 -0.001
0.324 0.197 -0.001
0.322 0.199 -0.001
0.320 0.202 -0.001
0.319 0.205 -0.001
0.317 0.207 -0.001
0.314 0.209 -0.001
0.312 0.211 -0.001
0.309 0.213 -0.001
0.308 0.216 -0.001
1.335 1.040 -0.004
1.336 1.059 -0.003
1.333 1.074 -0.003
1.328 1.089 -0.003
1.326 1.106 -0.003
1.304 1.106 -0.003
1.315 1.134 -0.003
1.310 1.149 -0.003
1.301 1.160 -0.003
1.339 1.255 -0.003
1.327 1.265 -0.003
1.322 1.281 -0.003
1.361 1.432 -0.002
0.502 0.546 -0.001
0.493 0.545 -0.001
0.501 0.592 -0.001
0.359 0.445 -0.000
0.348 0.438 -0.000
0.343 0.439 -0.000
0.338 0.439 -0.000
0.167 -0.229 0.002
0.171 -0.232 0.002
0.175 -0.234 0.002
0.178 -0.236 0.002
0.183 -0.239 0.002
0.190 -0.244 0.002
0.188 -0.238 0.002
0.185 -0.231 0.002
0.186 -0.229 0.002
0.188 -0.229 0.002
0.191 -0.229 0.002
0.193 -0.228 0.002
0.195 -0.227 0.002
0.197 -0.226 0.002
0.199 -0.225 0.002
0.201 -0.223 0.002
0.202 -0.222 0.002
0.205 -0.221 0.002
0.207 -0.220 0.002
0.210 -0.219 0.002
0.212 -0.218 0.002
0.215 -0.218 0.002
0.217 -0.217 0.002
0.219 -0.215 0.002
0.221 -0.214 0.002
0.224 -0.214 0.002
0.226 -0.213 0.002
0.229 -0.211 0.002
0.231 -0.210 0.002
0.234 -0.210 0.002
0.238 -0.210 0.002
0.242 -0.210 0.002
0.244 -0.208 0.002
0.245 -0.206 0.002
0.247 -0.204 0.002
0.250 -0.203 0.002
0.250 -0.201 0.002
0.228 -0.180 0.002
0.219 -0.170 0.002
0.218 -0.166 0.002
0.217 -0.163 0.002
0.217 -0.161 0.002
0.216 -0.157 0.002
0.216 -0.154 0.002
0.214 -0.150 0.002
0.212 -0.146 0.001
0.211 -0.143 0.001
0.210 -0.140 0.001
0.198 -0.129 0.001
0.208 -0.134 0.001
0.214 -0.135 0.001
0.210 -0.131 0.001
0.214 -0.130 0.001
0.215 -0.129 0.001
0.217 -0.128 0.001
0.219 -0.127 0.001
0.218 -0.123 0.001
0.218 -0.121 0.001
0.220 -0.120 0.001
0.216 -0.116 0.001
0.204 -0.107 0.001
0.211 -0.108 0.001
0.205 -0.103 0.001
0.205 -0.101 0.001
0.207 -0.100 0.001
0.209 -0.099 0.001
0.219 -0.101 0.001
0.216 -0.098 0.001
0.221 -0.097 0.001
0.224 -0.097 0.001
0.226 -0.095 0.001
0.231 -0.095 0.001
0.221 -0.089 0.001
0.224 -0.088 0.001
0.218 -0.083 0.001
0.204 -0.076 0.001
0.225 -0.082 0.001
0.238 -0.084 0.001
0.242 -0.083 0.001
0.246 -0.082 0.001
0.248 -0.080 0.001
0.250 -0.079 0.001
0.256 -0.078 0.001
0.262 -0.078 0.002
0.275 -0.079 0.002
0.374 -0.104 0.002
0.390 -0.105 0.002
0.402 -0.104 0.002
0.411 -0.103 0.002
0.423 -0.102 0.002
0.426 -0.098 0.002
0.421 -0.093 0.002
0.388 -0.079 0.002
0.383 -0.074 0.002
0.368 -0.068 0.002
0.294 -0.052 0.002
0.288 -0.048 0.002
0.280 -0.044 0.002
0.282 -0.042 0.002
0.286 -0.040 0.002
0.292 -0.038 0.002
0.298 -0.036 0.002
0.298 -0.034 0.002
0.289 -0.030 0.002
0.286 -0.027 0.002
0.289 -0.025 0.002
0.295 -0.023 0.002
0.306 -0.021 0.002
0.311 -0.018 0.002
0.311 -0.015 0.002
0.303 -0.012 0.002
0.312 -0.010 0.002
0.313 -0.007 0.002
0.306 -0.004 0.002
0.314 -0.002 0.002
0.322 0.001 0.002
0.311 0.004 0.002
0.301 0.007 0.002
0.304 0.009 0.002
0.307 0.012 0.002
0.308 0.015 0.002
0.308 0.018 0.002
0.309 0.021 0.002
0.310 0.024 0.002
0.310 0.026 0.002
0.310 0.029 0.002
0.312 0.032 0.002
0.313 0.035 0.002
0.313 0.038 0.002
0.313 0.041 0.002
0.314 0.044 0.002
0.314 0.047 0.002
0.314 0.050 0.002
0.314 0.052 0.002
0.313 0.055 0.002
0.313 0.058 0.002
0.313 0.061 0.002
0.314 0.064 0.002
0.313 0.067 0.002
0.312 0.069 0.002
0.311 0.072 0.002
0.319 0.077 0.002
0.317 0.079 0.002
0.314 0.082 0.002
0.316 0.085 0.002
0.324 0.090 0.002
0.318 0.092 0.002
0.308 0.092 0.002
0.308 0.095 0.002
0.315 0.100 0.002
0.323 0.105 0.002
0.339 0.114 0.002
0.342 0.118 0.002
0.330 0.117 0.002
0.320 0.117 0.002
0.310 0.116 0.002
0.318 0.122 0.002
0.335 0.132 0.002
0.344 0.139 0.002
0.348 0.144 0.002
0.363 0.155 0.002
0.363 0.158 0.002
0.354 0.158 0.002
0.335 0.160 0.002
0.329 0.160 0.002
0.317 0.158 0.002
0.325 0.165 0.002
0.342 0.181 0.002
0.319 0.183 0.002
0.329 0.192 0.002
0.325 0.193 0.002
0.324 0.197 0.002
0.322 0.199 0.002
0.320 0.202 0.002
0.318 0.204 0.002
0.316 0.207 0.002
0.313 0.209 0.002
0.311 0.211 0.002
0.309 0.213 0.002
0.307 0.216 0.002
0.293 0.210 0.002
1.359 1.041 0.010
1.336 1.059 0.010
1.333 1.075 0.010
1.329 1.090 0.010
1.313 1.114 0.010
1.315 1.135 0.011
1.323 1.160 0.011
0.366 0.439 0.004
0.359 0.438 0.004
0.352 0.436 0.004
0.351 0.442 0.004
0.345 0.442 0.004
0.344 0.447 0.004
0.177 -0.244 0.004
0.174 -0.236 0.004
0.180 -0.241 0.004
0.182 -0.240 0.004
0.185 -0.241 0.004
0.185 -0.238 0.004
0.184 -0.233 0.004
0.185 -0.232 0.004
0.186 -0.230 0.004
0.188 -0.229 0.004
0.191 -0.229 0.004
0.193 -0.227 0.004
0.195 -0.226 0.004
0.197 -0.225 0.004
0.199 -0.224 0.004
0.201 -0.223 0.004
0.203 -0.222 0.004
0.205 -0.221 0.004
0.208 -0.221 0.004
0.210 -0.219 0.004
0.212 -0.219 0.004
0.214 -0.217 0.004
0.217 -0.216 0.004
0.218 -0.215 0.004
0.221 -0.214 0.004
0.224 -0.213 0.004
0.226 -0.212 0.004
0.229 -0.211 0.004
0.231 -0.211 0.004
0.235 -0.210 0.004
0.237 -0.209 0.004
0.241 -0.209 0.004
0.244 -0.208 0.004
0.245 -0.206 0.004
0.246 -0.204 0.004
0.249 -0.203 0.004
0.256 -0.205 0.005
0.225 -0.177 0.004
0.221 -0.172 0.004
0.218 -0.167 0.004
0.222 -0.167 0.004
0.222 -0.164 0.004
0.215 -0.156 0.004
0.213 -0.152 0.004
0.214 -0.150 0.004
0.210 -0.145 0.004
0.210 -0.143 0.004
0.213 -0.142 0.004
0.211 -0.138 0.004
0.201 -0.129 0.003
0.207 -0.131 0.003
0.214 -0.133 0.003
0.213 -0.130 0.003
0.214 -0.128 0.003
0.213 -0.125 0.003
0.214 -0.123 0.003
0.214 -0.121 0.003
0.216 -0.120 0.003
0.221 -0.120 0.004
0.222 -0.118 0.004
0.209 -0.109 0.003
0.200 -0.103 0.003
0.213 -0.107 0.003
0.201 -0.099 0.003
0.202 -0.097 0.003
0.201 -0.095 0.003
0.201 -0.093 0.003
0.213 -0.096 0.003
0.221 -0.097 0.003
0.226 -0.097 0.003
0.228 -0.096 0.003
0.219 -0.090 0.003
0.231 -0.093 0.004
0.215 -0.084 0.003
0.222 -0.085 0.003
0.211 -0.079 0.003
0.225 -0.082 0.003
0.229 -0.081 0.003
0.237 -0.081 0.004
0.248 -0.083 0.004
0.250 -0.081 0.004
0.252 -0.079 0.004
0.257 -0.079 0.004
0.264 -0.078 0.004
0.262 -0.075 0.004
0.376 -0.104 0.006
0.394 -0.106 0.006
0.401 -0.104 0.006
0.410 -0.102 0.006
0.419 -0.101 0.006
0.427 -0.099 0.006
0.420 -0.093 0.006
0.395 -0.084 0.006
0.382 -0.078 0.006
0.386 -0.075 0.006
0.375 -0.070 0.006
0.297 -0.052 0.004
0.288 -0.048 0.004
0.283 -0.045 0.004
0.284 -0.042 0.004
0.287 -0.040 0.004
0.290 -0.038 0.004
0.294 -0.036 0.004
0.297 -0.034 0.004
0.295 -0.031 0.004
0.288 -0.027 0.004
0.288 -0.025 0.004
0.290 -0.022 0.004
0.301 -0.020 0.004
0.311 -0.018 0.005
0.309 -0.015 0.004
0.307 -0.012 0.004
0.301 -0.010 0.004
0.310 -0.007 0.005
0.309 -0.004 0.004
0.305 -0.001 0.004
0.305 0.001 0.004
0.314 0.004 0.005
0.312 0.007 0.005
0.302 0.009 0.004
0.303 0.012 0.004
0.306 0.015 0.004
0.306 0.018 0.004
0.308 0.021 0.004
0.308 0.023 0.004
0.309 0.026 0.004
0.309 0.029 0.005
0.310 0.032 0.005
0.311 0.035 0.005
0.312 0.038 0.005
0.311 0.041 0.005
0.312 0.044 0.005
0.312 0.046 0.005
0.312 0.049 0.005
0.312 0.052 0.005
0.312 0.055 0.005
0.312 0.058 0.005
0.311 0.061 0.005
0.312 0.064 0.005
0.313 0.067 0.005
0.315 0.070 0.005
0.325 0.075 0.005
0.322 0.078 0.005
0.319 0.080 0.005
0.319 0.083 0.005
0.317 0.085 0.005
0.312 0.087 0.005
0.303 0.087 0.005
0.299 0.089 0.004
0.308 0.095 0.005
0.314 0.100 0.005
0.328 0.107 0.005
0.341 0.114 0.005
0.347 0.120 0.005
0.333 0.118 0.005
0.317 0.116 0.005
0.312 0.117 0.005
0.320 0.123 0.005
0.331 0.131 0.005
0.341 0.138 0.005
0.350 0.145 0.005
0.361 0.153 0.006
0.362 0.158 0.006
0.354 0.158 0.006
0.335 0.153 0.005
0.341 0.163 0.005
0.333 0.162 0.005
0.328 0.163 0.005
0.337 0.171 0.005
0.335 0.174 0.005
0.327 0.177 0.005
0.326 0.180 0.005
0.317 0.182 0.005
0.327 0.191 0.005
0.325 0.194 0.005
0.322 0.196 0.005
0.321 0.199 0.005
0.319 0.201 0.005
0.317 0.204 0.005
0.315 0.206 0.005
0.313 0.208 0.005
0.310 0.210 0.005
0.309 0.213 0.005
0.307 0.216 0.005
0.296 0.212 0.005
1.381 1.041 0.024
1.330 1.054 0.024
1.332 1.074 0.024
1.323 1.141 0.024
1.324 1.161 0.025
1.323 1.180 0.025
1.341 1.237 0.025
1.340 1.298 0.026
0.364 0.416 0.008
0.357 0.414 0.008
0.361 0.433 0.008
0.360 0.439 0.008
0.351 0.435 0.008
0.340 0.428 0.008
0.333 0.426 0.008
0.338 0.439 0.008
0.173 -0.238 0.006
0.179 -0.243 0.006
0.179 -0.240 0.006
0.184 -0.243 0.006
0.181 -0.236 0.006
0.182 -0.234 0.006
0.185 -0.234 0.006
0.186 -0.232 0.006
0.187 -0.231 0.006
0.189 -0.230 0.006
0.191 -0.229 0.006
0.192 -0.227 0.006
0.194 -0.225 0.006
0.196 -0.225 0.006
0.198 -0.224 0.006
0.200 -0.222 0.006
0.203 -0.222 0.006
0.205 -0.222 0.006
0.207 -0.220 0.006
0.210 -0.219 0.006
0.212 -0.219 0.007
0.215 -0.218 0.007
0.216 -0.216 0.007
0.218 -0.214 0.007
0.220 -0.213 0.007
0.224 -0.213 0.007
0.226 -0.212 0.007
0.229 -0.211 0.007
0.232 -0.211 0.007
0.235 -0.210 0.007
0.237 -0.209 0.007
0.239 -0.208 0.007
0.242 -0.207 0.007
0.245 -0.206 0.007
0.247 -0.204 0.007
0.249 -0.203 0.007
0.254 -0.203 0.007
0.233 -0.184 0.006
0.222 -0.173 0.006
0.222 -0.169 0.006
0.225 -0.169 0.006
0.225 -0.166 0.006
0.217 -0.158 0.006
0.212 -0.152 0.006
0.205 -0.144 0.005
0.207 -0.143 0.006
0.207 -0.141 0.005
0.207 -0.138 0.005
0.207 -0.136 0.005
0.208 -0.134 0.005
0.208 -0.131 0.005
0.211 -0.131 0.005
0.213 -0.130 0.006
0.213 -0.128 0.006
0.210 -0.124 0.005
0.214 -0.124 0.005
0.216 -0.122 0.006
0.218 -0.121 0.006
0.220 -0.120 0.006
0.222 -0.119 0.006
0.224 -0.117 0.006
0.212 -0.109 0.005
0.211 -0.106 0.005
0.211 -0.104 0.005
0.210 -0.101 0.005
0.214 -0.101 0.005
0.210 -0.097 0.005
0.210 -0.095 0.005
0.220 -0.097 0.005
0.226 -0.097 0.006
0.225 -0.095 0.006
0.225 -0.093 0.006
0.213 -0.086 0.005
0.214 -0.084 0.005
0.212 -0.081 0.005
0.222 -0.083 0.005
0.225 -0.082 0.005
0.233 -0.082 0.006
0.233 -0.080 0.006
0.238 -0.079 0.006
0.244 -0.079 0.006
0.247 -0.078 0.006
0.263 -0.080 0.006
0.267 -0.079 0.006
0.268 -0.077 0.006
0.396 -0.106 0.009
0.401 -0.104 0.010
0.410 -0.102 0.010
0.418 -0.100 0.010
0.422 -0.098 0.010
0.418 -0.093 0.010
0.395 -0.084 0.009
0.382 -0.078 0.009
0.381 -0.074 0.009
0.375 -0.069 0.009
0.285 -0.048 0.007
0.285 -0.045 0.007
0.286 -0.043 0.007
0.287 -0.040 0.007
0.289 -0.038 0.007
0.290 -0.035 0.007
0.287 -0.032 0.007
0.289 -0.030 0.007
0.288 -0.027 0.007
0.288 -0.025 0.007
0.289 -0.022 0.007
0.297 -0.020 0.007
