VERSION .7
FIELDS x y z
SIZE 4 4 4
TYPE F F F
COUNT 1 1 1
WIDTH     2587
HEIGHT 1
VIEWPOINT 0 0 0 1 0 0 0
POINTS     2587
DATA ascii
0.235 0.063 0.095
0.226 0.063 0.091
0.218 0.063 0.088
0.215 0.064 0.087
0.213 0.066 0.086
0.201 0.064 0.081
0.203 0.067 0.082
0.207 0.070 0.084
0.204 0.071 0.083
0.202 0.073 0.082
0.201 0.074 0.082
0.199 0.076 0.082
0.197 0.077 0.081
0.197 0.079 0.081
0.196 0.081 0.081
0.197 0.083 0.081
0.198 0.086 0.082
0.195 0.086 0.081
0.192 0.087 0.080
0.194 0.090 0.081
0.192 0.091 0.080
0.189 0.092 0.079
0.189 0.094 0.079
0.188 0.095 0.079
0.188 0.098 0.079
0.189 0.100 0.080
0.191 0.103 0.081
0.194 0.107 0.082
0.195 0.110 0.083
0.195 0.112 0.083
0.197 0.116 0.084
0.196 0.117 0.084
0.192 0.117 0.083
0.184 0.114 0.079
0.183 0.116 0.079
0.189 0.123 0.082
0.197 0.130 0.086
0.197 0.133 0.086
0.197 0.135 0.086
0.197 0.138 0.087
0.218 0.155 0.096
0.215 0.156 0.096
0.202 0.149 0.090
0.196 0.148 0.088
0.194 0.148 0.087
0.194 0.151 0.088
0.193 0.153 0.088
0.191 0.154 0.087
0.182 0.150 0.083
0.179 0.150 0.083
0.180 0.153 0.083
0.180 0.156 0.083
0.178 0.157 0.083
0.178 0.160 0.084
0.180 0.164 0.085
0.179 0.166 0.085
0.177 0.167 0.084
0.176 0.169 0.084
0.176 0.172 0.085
0.176 0.175 0.085
0.175 0.177 0.085
0.174 0.179 0.086
0.175 0.183 0.086
0.174 0.186 0.087
0.173 0.187 0.086
0.172 0.189 0.086
0.170 0.190 0.086
0.169 0.192 0.086
0.168 0.194 0.086
0.168 0.197 0.086
0.168 0.200 0.087
0.168 0.203 0.087
0.166 0.204 0.087
0.162 0.203 0.086
0.161 0.204 0.085
0.159 0.205 0.085
0.159 0.208 0.085
0.098 -0.128 0.052
0.102 -0.132 0.054
0.101 -0.129 0.054
0.101 -0.127 0.053
0.102 -0.127 0.054
0.103 -0.125 0.054
0.103 -0.124 0.054
0.111 -0.132 0.058
0.125 -0.146 0.064
0.128 -0.147 0.065
0.125 -0.142 0.064
0.123 -0.137 0.062
0.121 -0.133 0.061
0.120 -0.131 0.060
0.118 -0.126 0.059
0.112 -0.118 0.055
0.109 -0.114 0.054
0.103 -0.106 0.051
0.104 -0.105 0.051
0.106 -0.104 0.051
0.108 -0.106 0.053
0.112 -0.107 0.054
0.114 -0.108 0.055
0.193 -0.174 0.092
0.195 -0.173 0.092
0.197 -0.171 0.092
0.198 -0.169 0.092
0.199 -0.167 0.092
0.199 -0.165 0.092
0.199 -0.162 0.092
0.201 -0.161 0.092
0.203 -0.159 0.093
0.203 -0.157 0.093
0.202 -0.154 0.092
0.202 -0.151 0.091
0.198 -0.146 0.089
0.197 -0.143 0.089
0.199 -0.141 0.089
0.200 -0.139 0.089
0.199 -0.136 0.089
0.199 -0.134 0.088
0.200 -0.132 0.089
0.201 -0.130 0.089
0.199 -0.127 0.088
0.200 -0.125 0.088
0.200 -0.123 0.088
0.199 -0.120 0.087
0.200 -0.118 0.087
0.198 -0.115 0.086
0.200 -0.114 0.087
0.202 -0.112 0.087
0.202 -0.110 0.087
0.201 -0.107 0.086
0.200 -0.105 0.086
0.200 -0.103 0.086
0.202 -0.101 0.086
0.206 -0.101 0.088
0.208 -0.100 0.088
0.207 -0.097 0.088
0.209 -0.096 0.089
0.208 -0.093 0.088
0.212 -0.093 0.089
0.212 -0.091 0.089
0.211 -0.088 0.089
0.211 -0.086 0.089
0.211 -0.084 0.088
0.209 -0.081 0.087
0.207 -0.078 0.087
0.207 -0.076 0.086
0.205 -0.073 0.085
0.209 -0.072 0.087
0.210 -0.070 0.087
0.209 -0.068 0.087
0.215 -0.068 0.089
0.215 -0.066 0.089
0.214 -0.064 0.088
0.215 -0.062 0.089
0.217 -0.060 0.089
0.219 -0.059 0.090
0.223 -0.058 0.092
0.224 -0.056 0.092
0.224 -0.053 0.092
0.224 -0.051 0.092
0.223 -0.049 0.091
0.221 -0.047 0.091
0.221 -0.044 0.090
0.221 -0.042 0.090
0.219 -0.040 0.090
0.219 -0.038 0.089
0.219 -0.036 0.089
0.219 -0.034 0.089
0.218 -0.031 0.089
0.219 -0.030 0.089
0.221 -0.028 0.090
0.222 -0.026 0.090
0.239 -0.026 0.097
0.242 -0.024 0.098
0.242 -0.021 0.098
0.240 -0.019 0.098
0.222 -0.015 0.090
0.222 -0.013 0.090
0.205 -0.010 0.083
0.194 -0.008 0.079
0.192 -0.006 0.078
0.195 -0.004 0.079
0.195 -0.003 0.079
0.193 -0.001 0.078
0.198 0.001 0.080
0.204 0.003 0.083
0.199 0.005 0.081
0.197 0.006 0.080
0.194 0.008 0.079
0.204 0.010 0.083
0.196 0.014 0.080
0.189 0.022 0.077
0.190 0.024 0.077
0.185 0.025 0.075
0.198 0.031 0.081
0.188 0.031 0.077
0.187 0.032 0.077
0.187 0.034 0.077
0.183 0.035 0.075
0.181 0.037 0.074
0.201 0.043 0.083
0.214 0.047 0.088
0.220 0.051 0.091
0.226 0.054 0.093
0.232 0.058 0.096
0.229 0.060 0.095
0.221 0.060 0.091
0.211 0.059 0.087
0.207 0.060 0.086
0.206 0.062 0.085
0.203 0.063 0.084
0.201 0.064 0.083
0.202 0.067 0.084
0.202 0.068 0.084
0.200 0.070 0.084
0.199 0.072 0.083
0.199 0.074 0.083
0.197 0.075 0.083
0.199 0.078 0.084
0.197 0.079 0.083
0.196 0.081 0.083
0.195 0.082 0.083
0.199 0.086 0.084
0.194 0.086 0.083
0.196 0.089 0.083
0.199 0.093 0.085
0.195 0.093 0.083
0.192 0.094 0.082
0.192 0.095 0.082
0.192 0.097 0.083
0.191 0.099 0.082
0.191 0.102 0.083
0.191 0.104 0.083
0.193 0.107 0.084
0.189 0.107 0.083
0.182 0.105 0.080
0.173 0.102 0.076
0.167 0.100 0.074
0.168 0.103 0.074
0.177 0.110 0.078
0.177 0.113 0.079
0.180 0.117 0.080
0.194 0.129 0.087
0.193 0.130 0.087
0.191 0.131 0.086
0.189 0.132 0.086
0.210 0.150 0.095
0.209 0.152 0.095
0.198 0.146 0.091
0.188 0.142 0.087
0.183 0.141 0.085
0.185 0.144 0.086
0.195 0.155 0.091
0.196 0.158 0.091
0.185 0.152 0.087
0.178 0.150 0.084
0.177 0.151 0.084
0.176 0.152 0.084
0.175 0.155 0.084
0.176 0.158 0.085
0.176 0.161 0.085
0.174 0.162 0.085
0.174 0.164 0.085
0.173 0.167 0.085
0.174 0.170 0.086
0.173 0.172 0.086
0.172 0.174 0.086
0.171 0.177 0.086
0.171 0.180 0.087
0.170 0.181 0.087
0.171 0.186 0.088
0.168 0.186 0.087
0.167 0.187 0.086
0.166 0.189 0.087
0.166 0.193 0.087
0.167 0.196 0.088
0.166 0.199 0.088
0.164 0.200 0.088
0.160 0.198 0.086
0.158 0.199 0.085
0.158 0.202 0.086
0.158 0.204 0.086
0.158 0.206 0.086
0.102 -0.134 0.056
0.101 -0.130 0.055
0.103 -0.131 0.056
0.102 -0.128 0.055
0.101 -0.125 0.054
0.104 -0.127 0.056
0.120 -0.144 0.064
0.124 -0.148 0.066
0.128 -0.150 0.067
0.129 -0.149 0.068
0.127 -0.144 0.066
0.124 -0.139 0.064
0.123 -0.135 0.063
0.123 -0.134 0.063
0.124 -0.132 0.063
0.118 -0.125 0.060
0.112 -0.116 0.057
0.111 -0.113 0.056
0.104 -0.105 0.052
0.106 -0.105 0.053
0.108 -0.106 0.054
0.111 -0.106 0.055
0.114 -0.108 0.056
0.117 -0.109 0.057
0.194 -0.172 0.094
0.196 -0.171 0.094
0.197 -0.169 0.095
0.198 -0.167 0.094
0.198 -0.164 0.094
0.198 -0.162 0.094
0.198 -0.159 0.093
0.199 -0.157 0.093
0.199 -0.155 0.093
0.198 -0.151 0.092
0.197 -0.148 0.092
0.196 -0.144 0.091
0.197 -0.142 0.091
0.197 -0.140 0.091
0.197 -0.138 0.090
0.197 -0.135 0.090
0.198 -0.133 0.090
0.198 -0.131 0.090
0.198 -0.129 0.090
0.199 -0.127 0.090
0.199 -0.125 0.090
0.199 -0.122 0.089
0.199 -0.120 0.089
0.198 -0.117 0.088
0.199 -0.115 0.088
0.200 -0.113 0.089
0.200 -0.112 0.089
0.200 -0.109 0.088
0.200 -0.107 0.088
0.200 -0.105 0.088
0.200 -0.103 0.088
0.201 -0.101 0.088
0.202 -0.099 0.088
0.203 -0.098 0.088
0.203 -0.096 0.088
0.203 -0.093 0.088
0.202 -0.091 0.088
0.202 -0.089 0.087
0.201 -0.086 0.087
0.201 -0.084 0.086
0.200 -0.082 0.086
0.202 -0.080 0.086
0.203 -0.078 0.087
0.204 -0.077 0.087
0.204 -0.075 0.087
0.204 -0.073 0.087
0.206 -0.072 0.088
0.207 -0.070 0.088
0.208 -0.068 0.088
0.213 -0.067 0.090
0.213 -0.065 0.090
0.212 -0.063 0.090
0.212 -0.061 0.090
0.213 -0.059 0.090
0.216 -0.058 0.091
0.217 -0.056 0.092
0.218 -0.054 0.092
0.217 -0.052 0.091
0.218 -0.050 0.092
0.217 -0.048 0.091
0.217 -0.046 0.091
0.216 -0.044 0.091
0.215 -0.041 0.090
0.215 -0.039 0.090
0.216 -0.037 0.090
0.215 -0.035 0.090
0.214 -0.033 0.089
0.215 -0.031 0.090
0.216 -0.029 0.090
0.221 -0.028 0.092
0.238 -0.028 0.099
0.238 -0.025 0.099
0.238 -0.023 0.099
0.235 -0.021 0.098
0.202 -0.016 0.084
0.213 -0.015 0.089
0.202 -0.012 0.084
0.197 -0.010 0.082
0.186 -0.008 0.077
0.181 -0.006 0.075
0.182 -0.004 0.076
0.179 -0.002 0.074
0.172 -0.001 0.072
0.184 0.001 0.076
0.190 0.003 0.079
0.185 0.004 0.077
0.179 0.006 0.074
0.191 0.008 0.079
0.185 0.010 0.077
0.180 0.011 0.075
0.180 0.013 0.075
0.181 0.014 0.075
0.177 0.016 0.074
0.182 0.021 0.076
0.174 0.022 0.073
0.174 0.024 0.073
0.165 0.024 0.069
0.183 0.032 0.077
0.182 0.033 0.076
0.173 0.033 0.073
0.175 0.035 0.074
0.203 0.043 0.086
0.214 0.047 0.090
0.220 0.051 0.093
0.222 0.054 0.094
0.223 0.056 0.094
0.214 0.056 0.090
0.204 0.055 0.086
0.201 0.056 0.085
0.201 0.058 0.085
0.199 0.060 0.084
0.198 0.061 0.084
0.198 0.064 0.085
0.199 0.066 0.085
0.199 0.068 0.085
0.199 0.070 0.085
0.199 0.072 0.085
0.197 0.073 0.085
0.197 0.075 0.085
0.198 0.078 0.085
0.195 0.078 0.084
0.194 0.080 0.084
0.193 0.082 0.084
0.191 0.083 0.083
0.193 0.086 0.084
0.192 0.088 0.084
0.192 0.089 0.084
0.192 0.092 0.084
0.192 0.094 0.084
0.193 0.096 0.085
0.192 0.098 0.085
0.191 0.099 0.084
0.187 0.100 0.083
0.184 0.100 0.082
0.173 0.096 0.077
0.169 0.096 0.076
0.162 0.094 0.073
0.163 0.096 0.073
0.164 0.099 0.074
0.164 0.101 0.074
0.176 0.110 0.080
0.185 0.118 0.084
0.190 0.123 0.087
0.191 0.127 0.088
0.190 0.128 0.087
0.188 0.129 0.087
0.186 0.131 0.087
0.210 0.150 0.098
0.204 0.149 0.096
0.196 0.145 0.092
0.185 0.140 0.087
0.178 0.137 0.084
0.176 0.138 0.084
0.197 0.157 0.094
0.197 0.160 0.094
0.192 0.159 0.093
0.181 0.152 0.087
0.176 0.151 0.086
0.174 0.151 0.085
0.172 0.152 0.084
0.173 0.156 0.086
0.173 0.159 0.086
0.172 0.160 0.086
0.170 0.162 0.086
0.171 0.165 0.086
0.171 0.168 0.087
0.171 0.171 0.087
0.169 0.172 0.087
0.169 0.175 0.087
0.169 0.178 0.088
0.167 0.179 0.087
0.166 0.180 0.087
0.164 0.182 0.087
0.164 0.184 0.087
0.162 0.186 0.087
0.163 0.190 0.088
0.164 0.194 0.089
0.164 0.197 0.089
0.161 0.196 0.088
0.158 0.195 0.087
0.157 0.197 0.087
0.157 0.200 0.087
0.157 0.203 0.088
0.157 0.206 0.088
0.099 -0.128 0.055
0.100 -0.128 0.055
0.103 -0.130 0.057
0.113 -0.141 0.062
0.120 -0.147 0.066
0.122 -0.148 0.067
0.126 -0.150 0.068
0.127 -0.150 0.069
0.128 -0.148 0.069
0.126 -0.144 0.068
0.125 -0.141 0.067
0.124 -0.138 0.066
0.125 -0.137 0.066
0.123 -0.132 0.064
0.122 -0.129 0.063
0.121 -0.126 0.063
0.113 -0.116 0.058
0.104 -0.105 0.054
0.105 -0.104 0.054
0.109 -0.106 0.055
0.110 -0.106 0.056
0.113 -0.107 0.057
0.117 -0.109 0.059
0.127 -0.117 0.064
0.190 -0.169 0.094
0.193 -0.169 0.095
0.195 -0.168 0.096
0.196 -0.166 0.096
0.196 -0.163 0.096
0.196 -0.160 0.095
0.194 -0.156 0.094
0.195 -0.154 0.094
0.196 -0.152 0.094
0.196 -0.150 0.094
0.194 -0.146 0.092
0.195 -0.144 0.092
0.195 -0.141 0.092
0.194 -0.138 0.091
0.194 -0.136 0.091
0.195 -0.134 0.091
0.195 -0.132 0.091
0.196 -0.130 0.091
0.196 -0.128 0.091
0.198 -0.126 0.091
0.198 -0.124 0.091
0.197 -0.121 0.090
0.197 -0.119 0.090
0.197 -0.117 0.090
0.197 -0.115 0.090
0.198 -0.113 0.090
0.199 -0.111 0.090
0.197 -0.108 0.089
0.200 -0.107 0.090
0.200 -0.105 0.090
0.200 -0.103 0.090
0.200 -0.101 0.090
0.200 -0.099 0.090
0.200 -0.097 0.089
0.201 -0.095 0.089
0.200 -0.092 0.089
0.201 -0.090 0.089
0.201 -0.088 0.089
0.201 -0.086 0.089
0.201 -0.084 0.088
0.201 -0.082 0.089
0.201 -0.080 0.088
0.202 -0.078 0.089
0.203 -0.077 0.089
0.203 -0.074 0.089
0.203 -0.073 0.089
0.204 -0.071 0.089
0.205 -0.069 0.089
0.205 -0.067 0.089
0.206 -0.065 0.089
0.208 -0.064 0.090
0.209 -0.062 0.091
0.209 -0.060 0.090
0.210 -0.059 0.091
0.212 -0.057 0.092
0.213 -0.055 0.092
0.213 -0.053 0.092
0.214 -0.051 0.092
0.213 -0.049 0.092
0.212 -0.047 0.091
0.213 -0.045 0.091
0.213 -0.043 0.091
0.211 -0.040 0.090
0.208 -0.038 0.089
0.209 -0.036 0.089
0.210 -0.034 0.090
0.210 -0.032 0.090
0.209 -0.030 0.089
0.214 -0.029 0.092
0.237 -0.030 0.101
0.240 -0.028 0.103
0.235 -0.025 0.100
0.230 -0.023 0.098
0.197 -0.017 0.084
0.190 -0.015 0.081
0.184 -0.013 0.079
0.192 -0.012 0.082
0.182 -0.009 0.078
0.177 -0.007 0.075
0.176 -0.006 0.075
0.180 -0.004 0.076
0.170 -0.002 0.072
0.162 -0.001 0.069
0.167 0.001 0.071
0.172 0.002 0.073
0.168 0.004 0.072
0.168 0.006 0.071
0.169 0.007 0.072
0.174 0.009 0.074
0.171 0.010 0.073
0.167 0.012 0.071
0.165 0.013 0.070
0.165 0.015 0.071
0.166 0.016 0.071
0.171 0.019 0.073
0.164 0.019 0.070
0.164 0.021 0.070
0.161 0.022 0.069
0.155 0.023 0.066
0.134 0.021 0.058
0.147 0.024 0.063
0.149 0.026 0.064
0.174 0.032 0.075
0.167 0.032 0.072
0.190 0.039 0.082
0.203 0.043 0.087
0.210 0.047 0.091
0.215 0.050 0.093
0.214 0.052 0.093
0.213 0.054 0.092
0.208 0.054 0.090
0.201 0.054 0.087
0.196 0.055 0.085
0.196 0.057 0.085
0.195 0.059 0.085
0.195 0.061 0.085
0.195 0.063 0.085
0.195 0.065 0.085
0.196 0.067 0.086
0.195 0.069 0.086
0.195 0.071 0.086
0.195 0.072 0.086
0.193 0.074 0.085
0.192 0.075 0.085
0.192 0.077 0.085
0.192 0.079 0.085
0.190 0.081 0.085
0.190 0.083 0.085
0.189 0.084 0.084
0.189 0.086 0.085
0.187 0.087 0.084
0.187 0.089 0.084
0.193 0.094 0.087
0.194 0.097 0.088
0.192 0.098 0.087
0.186 0.097 0.084
0.181 0.096 0.082
0.167 0.091 0.076
0.163 0.091 0.074
0.162 0.092 0.074
0.160 0.093 0.074
0.166 0.098 0.076
0.171 0.103 0.079
0.180 0.111 0.084
0.185 0.116 0.086
0.187 0.120 0.087
0.188 0.123 0.088
0.188 0.125 0.088
0.187 0.126 0.088
0.185 0.128 0.088
0.184 0.129 0.087
0.201 0.144 0.096
0.199 0.146 0.095
0.194 0.144 0.093
0.186 0.141 0.090
0.176 0.136 0.085
0.170 0.134 0.083
0.167 0.133 0.082
0.187 0.152 0.092
0.185 0.154 0.092
0.186 0.156 0.092
0.180 0.155 0.090
0.171 0.149 0.086
0.169 0.150 0.085
0.170 0.154 0.086
0.170 0.157 0.087
0.169 0.159 0.087
0.168 0.160 0.086
0.168 0.163 0.087
0.168 0.166 0.088
0.167 0.168 0.087
0.167 0.170 0.088
0.167 0.173 0.088
0.166 0.175 0.088
0.166 0.178 0.089
0.164 0.179 0.088
0.163 0.181 0.088
0.161 0.182 0.088
0.160 0.184 0.088
0.160 0.187 0.088
0.162 0.192 0.090
0.162 0.195 0.090
0.160 0.195 0.090
0.156 0.194 0.088
0.156 0.196 0.088
0.156 0.199 0.089
0.155 0.201 0.089
0.116 -0.150 0.066
0.120 -0.154 0.068
0.122 -0.154 0.069
0.122 -0.152 0.069
0.124 -0.152 0.070
0.126 -0.153 0.070
0.126 -0.151 0.070
0.126 -0.149 0.070
0.127 -0.147 0.070
0.127 -0.145 0.070
0.127 -0.143 0.069
0.126 -0.140 0.068
0.125 -0.136 0.067
0.124 -0.134 0.067
0.121 -0.129 0.065
0.117 -0.122 0.062
0.115 -0.118 0.061
0.110 -0.112 0.058
0.107 -0.106 0.056
0.108 -0.106 0.056
0.110 -0.107 0.057
0.112 -0.107 0.058
0.116 -0.109 0.060
0.122 -0.113 0.063
0.187 -0.167 0.095
0.188 -0.165 0.095
0.189 -0.163 0.095
0.192 -0.162 0.096
0.192 -0.160 0.096
0.192 -0.158 0.096
0.193 -0.155 0.095
0.192 -0.152 0.095
0.193 -0.150 0.095
0.191 -0.146 0.094
0.191 -0.144 0.093
0.192 -0.142 0.093
0.193 -0.140 0.093
0.193 -0.138 0.093
0.192 -0.134 0.092
0.191 -0.131 0.091
0.192 -0.130 0.092
0.192 -0.128 0.092
0.193 -0.126 0.092
0.195 -0.125 0.092
0.195 -0.123 0.092
0.193 -0.119 0.091
0.193 -0.117 0.091
0.194 -0.115 0.091
0.195 -0.113 0.091
0.195 -0.111 0.091
0.194 -0.108 0.090
0.195 -0.107 0.091
0.198 -0.106 0.091
0.198 -0.104 0.091
0.197 -0.102 0.091
0.198 -0.100 0.091
0.199 -0.098 0.091
0.198 -0.095 0.090
0.196 -0.093 0.090
0.196 -0.091 0.089
0.198 -0.089 0.090
0.199 -0.088 0.090
0.200 -0.086 0.090
0.199 -0.084 0.090
0.199 -0.081 0.090
0.200 -0.080 0.090
0.201 -0.078 0.090
0.202 -0.076 0.090
0.200 -0.074 0.090
0.200 -0.072 0.089
0.201 -0.070 0.090
0.202 -0.068 0.090
0.202 -0.066 0.090
0.202 -0.064 0.090
0.202 -0.062 0.090
0.203 -0.061 0.090
0.205 -0.059 0.091
0.206 -0.057 0.091
0.204 -0.055 0.090
0.206 -0.053 0.091
0.210 -0.053 0.093
0.211 -0.051 0.093
0.205 -0.047 0.090
0.208 -0.046 0.091
0.211 -0.045 0.093
0.212 -0.043 0.093
0.209 -0.040 0.092
0.206 -0.038 0.090
0.207 -0.036 0.091
0.207 -0.034 0.091
0.207 -0.032 0.091
0.208 -0.030 0.091
0.220 -0.030 0.096
0.239 -0.030 0.105
0.236 -0.028 0.103
0.232 -0.025 0.101
0.184 -0.016 0.080
0.176 -0.014 0.077
0.180 -0.013 0.079
0.175 -0.011 0.076
0.170 -0.009 0.074
0.168 -0.007 0.073
0.173 -0.006 0.076
0.179 -0.004 0.078
0.188 -0.003 0.082
0.169 -0.001 0.074
0.164 0.001 0.072
0.165 0.002 0.072
0.166 0.004 0.073
0.167 0.006 0.073
0.173 0.007 0.075
0.174 0.009 0.076
0.164 0.010 0.072
0.159 0.011 0.069
0.160 0.013 0.070
0.163 0.015 0.071
0.164 0.016 0.072
0.166 0.018 0.073
0.162 0.019 0.071
0.159 0.020 0.070
0.157 0.021 0.069
0.150 0.022 0.066
0.148 0.025 0.065
0.149 0.026 0.066
0.150 0.028 0.066
0.195 0.040 0.086
0.200 0.043 0.088
0.208 0.046 0.092
0.209 0.049 0.093
0.207 0.050 0.091
0.210 0.053 0.093
0.207 0.054 0.092
0.204 0.055 0.091
0.193 0.054 0.086
0.189 0.055 0.084
0.194 0.058 0.086
0.193 0.060 0.086
0.192 0.062 0.086
0.191 0.063 0.086
0.192 0.066 0.086
0.192 0.068 0.086
0.191 0.069 0.086
0.189 0.071 0.085
0.189 0.072 0.085
0.189 0.074 0.085
0.189 0.076 0.086
0.189 0.078 0.086
0.188 0.080 0.086
0.188 0.082 0.086
0.188 0.084 0.086
0.188 0.086 0.086
0.186 0.087 0.085
0.194 0.093 0.089
0.195 0.096 0.090
0.194 0.097 0.090
0.188 0.097 0.087
0.179 0.094 0.083
0.165 0.088 0.077
0.160 0.087 0.075
0.163 0.091 0.076
0.165 0.094 0.077
0.172 0.100 0.081
0.175 0.104 0.082
0.180 0.109 0.085
0.182 0.112 0.087
0.182 0.115 0.087
0.183 0.117 0.087
0.184 0.120 0.088
0.184 0.123 0.089
0.178 0.121 0.086
0.178 0.123 0.086
0.178 0.126 0.087
0.184 0.132 0.090
0.197 0.144 0.097
0.187 0.140 0.092
0.181 0.137 0.089
0.178 0.137 0.088
0.170 0.134 0.085
0.168 0.134 0.084
0.168 0.137 0.084
0.175 0.146 0.089
0.181 0.153 0.092
0.182 0.156 0.093
0.175 0.153 0.090
0.169 0.150 0.087
0.165 0.149 0.085
0.167 0.154 0.087
0.167 0.156 0.087
0.166 0.158 0.087
0.166 0.161 0.088
0.165 0.164 0.088
0.164 0.165 0.088
0.163 0.166 0.088
0.161 0.168 0.087
0.164 0.174 0.090
0.163 0.175 0.089
0.162 0.178 0.090
0.160 0.179 0.089
0.159 0.180 0.089
0.158 0.182 0.089
0.160 0.187 0.090
0.159 0.188 0.090
0.159 0.192 0.091
0.157 0.192 0.090
0.154 0.192 0.089
0.153 0.194 0.089
0.154 0.197 0.090
0.154 0.200 0.090
0.122 -0.159 0.071
0.123 -0.158 0.072
0.125 -0.158 0.073
0.126 -0.158 0.073
0.128 -0.158 0.074
0.130 -0.158 0.074
0.130 -0.156 0.074
0.126 -0.148 0.071
0.126 -0.147 0.071
0.127 -0.145 0.071
0.128 -0.144 0.071
0.127 -0.142 0.071
0.126 -0.138 0.070
0.123 -0.133 0.068
0.122 -0.130 0.067
0.118 -0.124 0.064
0.117 -0.120 0.063
0.113 -0.115 0.061
0.110 -0.110 0.059
0.109 -0.107 0.058
0.110 -0.107 0.059
0.112 -0.106 0.059
0.116 -0.108 0.061
0.122 -0.112 0.064
0.179 -0.163 0.094
0.185 -0.165 0.096
0.186 -0.163 0.096
0.187 -0.162 0.097
0.188 -0.160 0.096
0.188 -0.157 0.096
0.189 -0.155 0.096
0.190 -0.154 0.097
0.190 -0.151 0.096
0.189 -0.147 0.095
0.189 -0.145 0.094
0.188 -0.142 0.094
0.189 -0.140 0.094
0.190 -0.139 0.094
0.191 -0.137 0.094
0.188 -0.132 0.092
0.187 -0.129 0.092
0.189 -0.128 0.092
0.190 -0.126 0.092
0.190 -0.124 0.092
0.190 -0.122 0.092
0.191 -0.120 0.092
0.190 -0.118 0.092
0.190 -0.115 0.091
0.190 -0.113 0.091
0.191 -0.112 0.091
0.191 -0.110 0.091
0.192 -0.108 0.091
0.193 -0.106 0.091
0.194 -0.105 0.092
0.194 -0.103 0.092
0.194 -0.100 0.091
0.195 -0.099 0.092
0.196 -0.097 0.092
0.195 -0.094 0.091
0.194 -0.092 0.090
0.193 -0.089 0.090
0.195 -0.088 0.090
0.196 -0.086 0.091
0.197 -0.085 0.091
0.196 -0.083 0.091
0.195 -0.080 0.090
0.197 -0.079 0.091
0.199 -0.078 0.092
0.199 -0.075 0.091
0.197 -0.073 0.090
0.196 -0.070 0.090
0.197 -0.069 0.090
0.199 -0.067 0.091
0.199 -0.065 0.091
0.199 -0.063 0.090
0.198 -0.061 0.090
0.199 -0.060 0.090
0.200 -0.058 0.091
0.202 -0.057 0.092
0.202 -0.055 0.092
0.202 -0.053 0.091
0.206 -0.052 0.093
0.206 -0.049 0.093
0.209 -0.048 0.094
0.221 -0.049 0.099
0.226 -0.048 0.102
0.208 -0.042 0.093
0.199 -0.038 0.090
0.201 -0.037 0.090
0.206 -0.036 0.093
0.205 -0.034 0.092
0.201 -0.031 0.090
0.206 -0.030 0.092
0.229 -0.031 0.102
0.232 -0.029 0.104
0.230 -0.027 0.103
0.223 -0.024 0.099
0.173 -0.015 0.077
0.172 -0.014 0.077
0.175 -0.012 0.078
0.174 -0.011 0.078
0.167 -0.009 0.074
0.166 -0.007 0.074
0.170 -0.006 0.076
0.186 -0.004 0.083
0.187 -0.003 0.083
0.178 -0.001 0.079
0.169 0.001 0.075
0.166 0.002 0.074
0.166 0.004 0.074
0.169 0.006 0.076
0.174 0.007 0.078
0.170 0.009 0.076
0.160 0.010 0.072
0.148 0.010 0.066
0.155 0.012 0.069
0.161 0.014 0.072
0.164 0.016 0.074
0.164 0.018 0.073
0.164 0.019 0.073
0.160 0.020 0.072
0.157 0.021 0.070
0.157 0.023 0.070
0.156 0.024 0.070
0.150 0.026 0.068
0.148 0.027 0.067
0.152 0.030 0.068
0.202 0.043 0.091
0.211 0.047 0.095
0.201 0.047 0.091
0.201 0.049 0.091
0.205 0.052 0.093
0.206 0.054 0.094
0.188 0.051 0.085
0.184 0.052 0.084
0.184 0.054 0.084
0.188 0.057 0.086
0.186 0.058 0.085
0.189 0.061 0.086
0.188 0.063 0.086
0.187 0.064 0.086
0.188 0.066 0.086
0.185 0.067 0.085
0.184 0.069 0.085
0.185 0.071 0.085
0.184 0.073 0.085
0.184 0.074 0.085
0.184 0.077 0.086
0.186 0.079 0.087
0.187 0.082 0.087
0.187 0.083 0.087
0.185 0.085 0.087
0.186 0.087 0.087
0.189 0.091 0.089
0.190 0.093 0.090
0.187 0.094 0.088
0.176 0.090 0.083
0.167 0.088 0.080
0.150 0.080 0.072
0.162 0.089 0.078
0.169 0.095 0.081
0.174 0.100 0.084
0.175 0.102 0.085
0.177 0.105 0.085
0.180 0.109 0.087
0.180 0.111 0.087
0.180 0.114 0.088
0.180 0.116 0.088
0.179 0.117 0.088
0.177 0.119 0.087
0.176 0.120 0.087
0.175 0.121 0.087
0.175 0.124 0.087
0.175 0.126 0.088
0.174 0.130 0.088
0.177 0.135 0.090
0.176 0.137 0.090
0.174 0.138 0.089
0.170 0.136 0.087
0.166 0.136 0.086
0.165 0.137 0.085
0.171 0.145 0.089
0.170 0.146 0.089
0.174 0.153 0.091
0.174 0.156 0.092
0.165 0.150 0.088
0.161 0.149 0.086
0.162 0.153 0.087
0.164 0.157 0.088
0.163 0.159 0.089
0.162 0.161 0.089
0.161 0.162 0.088
0.160 0.164 0.088
0.161 0.168 0.089
0.161 0.171 0.090
0.160 0.173 0.090
0.159 0.175 0.090
0.158 0.177 0.090
0.157 0.178 0.090
0.156 0.180 0.090
0.157 0.184 0.091
0.157 0.187 0.091
0.155 0.187 0.091
0.153 0.188 0.090
0.152 0.189 0.090
0.151 0.191 0.090
0.149 0.191 0.089
0.125 -0.161 0.075
0.127 -0.162 0.076
0.128 -0.160 0.076
0.130 -0.161 0.077
0.130 -0.159 0.076
0.130 -0.157 0.076
0.128 -0.152 0.074
0.125 -0.146 0.072
0.126 -0.145 0.072
0.127 -0.144 0.073
0.128 -0.143 0.073
0.127 -0.140 0.072
0.125 -0.135 0.070
0.122 -0.130 0.068
0.119 -0.125 0.067
0.120 -0.124 0.066
0.120 -0.122 0.066
0.113 -0.113 0.062
0.108 -0.107 0.059
0.110 -0.107 0.060
0.112 -0.107 0.061
0.113 -0.106 0.061
0.181 -0.164 0.097
0.182 -0.163 0.097
0.185 -0.163 0.098
0.185 -0.161 0.098
0.186 -0.158 0.098
0.186 -0.155 0.097
0.186 -0.153 0.097
0.187 -0.151 0.097
0.187 -0.149 0.097
0.189 -0.148 0.097
0.186 -0.143 0.095
0.185 -0.140 0.095
0.185 -0.138 0.094
0.186 -0.136 0.095
0.186 -0.134 0.094
0.186 -0.131 0.094
0.186 -0.129 0.094
0.186 -0.126 0.093
0.187 -0.125 0.093
0.187 -0.122 0.093
0.187 -0.121 0.093
0.188 -0.119 0.093
0.187 -0.116 0.092
0.187 -0.114 0.092
0.187 -0.111 0.091
0.187 -0.109 0.091
0.188 -0.108 0.092
0.189 -0.106 0.092
0.190 -0.105 0.092
0.191 -0.103 0.092
0.191 -0.101 0.092
0.190 -0.099 0.092
0.191 -0.097 0.092
0.192 -0.095 0.092
0.192 -0.093 0.092
0.190 -0.090 0.091
0.191 -0.088 0.091
0.192 -0.087 0.091
0.193 -0.085 0.092
0.193 -0.083 0.091
0.192 -0.081 0.091
0.192 -0.079 0.091
0.192 -0.077 0.091
0.193 -0.075 0.091
0.194 -0.074 0.091
0.194 -0.072 0.091
0.194 -0.070 0.091
0.195 -0.068 0.091
0.195 -0.066 0.091
0.195 -0.064 0.091
0.194 -0.062 0.090
0.195 -0.060 0.091
0.195 -0.058 0.091
0.197 -0.057 0.091
0.200 -0.056 0.093
0.198 -0.054 0.092
0.199 -0.052 0.092
0.200 -0.050 0.092
0.209 -0.050 0.096
0.210 -0.049 0.097
0.199 -0.044 0.092
0.195 -0.041 0.090
0.193 -0.039 0.089
0.193 -0.037 0.089
0.194 -0.036 0.089
0.203 -0.035 0.093
0.193 -0.032 0.089
0.197 -0.030 0.090
0.199 -0.029 0.091
0.219 -0.030 0.100
0.231 -0.029 0.106
0.228 -0.027 0.104
0.173 -0.017 0.079
0.164 -0.015 0.075
0.169 -0.013 0.077
0.172 -0.012 0.078
0.171 -0.010 0.078
0.168 -0.009 0.077
0.168 -0.007 0.077
0.165 -0.005 0.075
0.166 -0.004 0.076
0.171 -0.002 0.078
0.175 -0.001 0.080
0.174 0.001 0.079
0.172 0.002 0.078
0.169 0.004 0.077
0.164 0.005 0.075
0.167 0.007 0.076
0.166 0.009 0.076
0.161 0.010 0.073
0.156 0.011 0.071
0.155 0.012 0.071
0.158 0.014 0.072
0.163 0.016 0.074
0.161 0.017 0.074
0.159 0.019 0.073
0.159 0.020 0.073
0.159 0.022 0.073
0.158 0.023 0.072
0.157 0.024 0.072
0.155 0.026 0.071
0.131 0.023 0.060
0.144 0.027 0.066
0.147 0.029 0.068
0.192 0.039 0.089
0.196 0.042 0.091
0.197 0.044 0.091
0.195 0.046 0.090
0.196 0.048 0.091
0.198 0.050 0.092
0.193 0.051 0.090
0.193 0.053 0.090
0.179 0.051 0.083
0.181 0.053 0.085
0.183 0.055 0.085
0.186 0.058 0.087
0.185 0.060 0.087
0.187 0.062 0.087
0.186 0.064 0.087
0.190 0.067 0.089
0.182 0.066 0.086
0.181 0.068 0.086
0.181 0.070 0.086
0.181 0.072 0.086
0.180 0.073 0.086
0.172 0.072 0.082
0.170 0.072 0.081
0.167 0.073 0.080
0.168 0.075 0.080
0.178 0.082 0.085
0.181 0.085 0.087
0.181 0.087 0.087
0.173 0.085 0.084
0.165 0.083 0.080
0.153 0.079 0.074
0.156 0.082 0.076
0.164 0.088 0.080
0.170 0.093 0.083
0.172 0.096 0.084
0.174 0.100 0.086
0.175 0.102 0.086
0.175 0.105 0.087
0.177 0.107 0.088
0.177 0.110 0.088
0.176 0.111 0.088
0.176 0.113 0.088
0.176 0.116 0.089
0.175 0.118 0.089
0.174 0.119 0.088
0.172 0.120 0.088
0.172 0.122 0.088
0.172 0.124 0.088
0.182 0.134 0.093
0.175 0.131 0.090
0.171 0.131 0.089
0.172 0.134 0.090
0.172 0.136 0.090
0.170 0.137 0.090
0.167 0.137 0.088
0.162 0.135 0.086
0.159 0.135 0.085
0.162 0.140 0.087
0.165 0.146 0.089
0.170 0.152 0.092
0.172 0.157 0.094
0.173 0.161 0.095
0.161 0.152 0.089
0.159 0.153 0.088
0.161 0.157 0.089
0.160 0.159 0.089
0.158 0.160 0.089
0.157 0.162 0.089
0.159 0.166 0.090
0.158 0.168 0.090
0.156 0.169 0.090
0.155 0.171 0.090
0.156 0.175 0.091
0.155 0.176 0.091
0.154 0.178 0.091
0.153 0.180 0.091
0.153 0.183 0.091
0.152 0.185 0.091
0.151 0.186 0.091
0.150 0.187 0.091
0.148 0.188 0.090
0.147 0.189 0.090
0.130 -0.167 0.079
0.128 -0.163 0.078
0.130 -0.163 0.079
0.130 -0.160 0.078
0.129 -0.157 0.077
0.130 -0.156 0.077
0.129 -0.153 0.076
0.127 -0.149 0.075
0.126 -0.145 0.074
0.127 -0.144 0.074
0.128 -0.143 0.075
0.129 -0.142 0.075
0.126 -0.137 0.073
0.122 -0.130 0.070
0.119 -0.126 0.068
0.121 -0.126 0.069
0.122 -0.125 0.069
0.115 -0.115 0.065
0.112 -0.111 0.063
0.110 -0.108 0.062
0.112 -0.107 0.062
0.115 -0.108 0.064
0.178 -0.163 0.098
0.180 -0.162 0.098
0.182 -0.161 0.099
0.183 -0.159 0.099
0.183 -0.156 0.098
0.182 -0.153 0.098
0.183 -0.151 0.098
0.183 -0.149 0.097
0.184 -0.147 0.098
0.185 -0.145 0.097
0.184 -0.142 0.097
0.184 -0.139 0.096
0.182 -0.136 0.095
0.182 -0.133 0.095
0.183 -0.132 0.095
0.184 -0.130 0.095
0.184 -0.128 0.095
0.185 -0.126 0.095
0.184 -0.123 0.094
0.184 -0.121 0.094
0.184 -0.119 0.093
0.184 -0.116 0.093
0.184 -0.115 0.093
0.183 -0.112 0.092
0.184 -0.110 0.092
0.185 -0.108 0.092
0.186 -0.107 0.093
0.186 -0.105 0.093
0.188 -0.104 0.093
0.188 -0.102 0.093
0.188 -0.100 0.093
0.188 -0.097 0.093
0.188 -0.095 0.092
0.189 -0.094 0.093
0.188 -0.091 0.092
0.187 -0.089 0.091
0.187 -0.087 0.091
0.189 -0.086 0.092
0.190 -0.084 0.092
0.190 -0.082 0.092
0.189 -0.080 0.091
0.189 -0.078 0.091
0.190 -0.076 0.091
0.190 -0.074 0.091
0.190 -0.072 0.091
0.192 -0.071 0.092
0.192 -0.069 0.092
0.192 -0.067 0.092
0.191 -0.065 0.091
0.190 -0.063 0.091
0.191 -0.061 0.091
0.192 -0.060 0.091
0.193 -0.058 0.092
0.193 -0.056 0.092
0.193 -0.054 0.092
0.193 -0.052 0.091
0.194 -0.051 0.092
0.199 -0.050 0.094
0.211 -0.051 0.100
0.192 -0.045 0.091
0.190 -0.042 0.089
0.191 -0.041 0.090
0.192 -0.039 0.090
0.192 -0.037 0.090
0.193 -0.035 0.090
0.214 -0.037 0.100
0.211 -0.035 0.099
0.193 -0.030 0.090
0.195 -0.028 0.091
0.206 -0.028 0.096
0.229 -0.029 0.107
0.229 -0.027 0.107
0.161 -0.016 0.075
0.166 -0.015 0.078
0.167 -0.013 0.078
0.170 -0.012 0.079
0.168 -0.010 0.078
0.166 -0.009 0.078
0.164 -0.007 0.077
0.163 -0.005 0.076
0.159 -0.004 0.074
0.164 -0.002 0.076
0.173 -0.001 0.081
0.172 0.001 0.080
0.173 0.003 0.081
0.169 0.004 0.079
0.166 0.006 0.078
0.165 0.007 0.077
0.166 0.009 0.077
0.163 0.010 0.076
0.158 0.011 0.074
0.160 0.013 0.075
0.162 0.015 0.076
0.159 0.016 0.074
0.158 0.017 0.074
0.156 0.019 0.073
0.156 0.020 0.073
0.158 0.022 0.074
0.153 0.023 0.072
0.155 0.024 0.073
0.155 0.026 0.073
0.145 0.026 0.068
0.143 0.026 0.067
0.147 0.029 0.069
0.152 0.031 0.072
0.196 0.042 0.093
0.189 0.042 0.089
0.193 0.045 0.091
0.187 0.046 0.089
0.183 0.046 0.087
0.193 0.051 0.092
0.182 0.050 0.086
0.176 0.050 0.084
0.178 0.052 0.085
0.177 0.054 0.084
0.175 0.055 0.084
0.172 0.056 0.083
0.172 0.057 0.082
0.172 0.059 0.083
0.173 0.061 0.083
0.172 0.063 0.083
0.174 0.065 0.084
0.178 0.068 0.086
0.177 0.070 0.086
0.176 0.071 0.085
0.176 0.073 0.086
0.169 0.072 0.082
0.171 0.075 0.084
0.169 0.076 0.083
0.169 0.078 0.083
0.174 0.082 0.086
0.168 0.081 0.083
0.160 0.079 0.079
0.151 0.076 0.075
0.157 0.081 0.078
0.162 0.085 0.081
0.168 0.090 0.084
0.171 0.094 0.086
0.172 0.096 0.086
0.172 0.099 0.086
0.172 0.101 0.087
0.173 0.103 0.088
0.172 0.105 0.088
0.171 0.107 0.087
0.173 0.110 0.088
0.173 0.112 0.089
0.173 0.114 0.089
0.171 0.115 0.088
0.171 0.117 0.088
0.168 0.117 0.088
0.170 0.121 0.089
0.170 0.123 0.089
0.170 0.126 0.090
0.178 0.134 0.094
0.168 0.129 0.089
0.166 0.130 0.089
0.162 0.128 0.087
0.164 0.133 0.088
0.167 0.137 0.090
0.162 0.136 0.088
0.157 0.134 0.086
0.156 0.135 0.086
0.159 0.140 0.088
0.162 0.145 0.090
0.166 0.152 0.092
0.168 0.157 0.094
0.168 0.159 0.094
0.166 0.160 0.094
0.159 0.156 0.091
0.158 0.157 0.090
0.155 0.158 0.090
0.154 0.159 0.089
0.155 0.163 0.090
0.156 0.166 0.091
0.154 0.168 0.091
0.153 0.169 0.091
0.153 0.172 0.091
0.153 0.174 0.092
0.152 0.176 0.092
0.151 0.178 0.091
0.150 0.179 0.091
0.149 0.181 0.091
0.149 0.184 0.092
0.147 0.185 0.091
0.146 0.186 0.091
0.130 -0.166 0.081
0.128 -0.161 0.079
0.129 -0.160 0.079
0.128 -0.157 0.078
0.129 -0.156 0.079
0.129 -0.154 0.079
0.129 -0.151 0.078
0.128 -0.148 0.077
0.126 -0.144 0.076
0.127 -0.143 0.076
0.127 -0.141 0.076
0.125 -0.137 0.074
0.121 -0.130 0.071
0.122 -0.129 0.072
0.123 -0.128 0.072
0.122 -0.125 0.070
0.120 -0.120 0.069
0.114 -0.113 0.065
0.111 -0.108 0.063
0.112 -0.107 0.063
0.169 -0.157 0.095
0.176 -0.161 0.098
0.178 -0.160 0.099
0.179 -0.159 0.100
0.181 -0.158 0.100
0.181 -0.155 0.099
0.178 -0.150 0.098
0.179 -0.148 0.097
0.180 -0.147 0.098
0.181 -0.145 0.098
0.182 -0.143 0.098
0.182 -0.141 0.098
0.181 -0.137 0.097
0.180 -0.135 0.096
0.181 -0.133 0.096
0.180 -0.130 0.095
0.181 -0.128 0.096
0.182 -0.127 0.096
0.181 -0.124 0.095
0.182 -0.122 0.095
0.182 -0.120 0.095
0.182 -0.118 0.095
0.181 -0.115 0.094
0.180 -0.112 0.093
0.181 -0.111 0.093
0.182 -0.109 0.093
0.183 -0.108 0.094
0.184 -0.106 0.094
0.185 -0.104 0.094
0.184 -0.102 0.094
0.185 -0.100 0.094
0.186 -0.099 0.094
0.185 -0.096 0.093
0.185 -0.094 0.093
0.186 -0.092 0.093
0.185 -0.090 0.093
0.184 -0.088 0.092
0.185 -0.086 0.092
0.186 -0.085 0.093
0.187 -0.083 0.093
0.187 -0.081 0.092
0.186 -0.079 0.092
0.186 -0.077 0.092
0.187 -0.075 0.092
0.187 -0.073 0.092
0.187 -0.071 0.092
0.187 -0.069 0.092
0.188 -0.068 0.092
0.187 -0.066 0.091
0.187 -0.064 0.091
0.187 -0.062 0.091
0.189 -0.061 0.092
0.190 -0.059 0.092
0.190 -0.057 0.092
0.190 -0.055 0.092
0.190 -0.053 0.092
0.191 -0.052 0.092
0.191 -0.050 0.092
0.205 -0.052 0.099
0.181 -0.044 0.087
0.177 -0.041 0.085
0.189 -0.042 0.091
0.190 -0.041 0.092
0.191 -0.039 0.092
0.191 -0.037 0.092
0.191 -0.035 0.092
0.194 -0.034 0.093
0.212 -0.035 0.102
0.206 -0.032 0.099
0.193 -0.028 0.093
0.193 -0.026 0.092
0.219 -0.028 0.105
0.224 -0.026 0.107
0.208 -0.022 0.100
0.174 -0.017 0.083
0.166 -0.015 0.079
0.169 -0.013 0.081
0.171 -0.012 0.081
0.169 -0.010 0.080
0.162 -0.008 0.077
0.165 -0.007 0.079
0.163 -0.005 0.078
0.158 -0.004 0.075
0.168 -0.002 0.080
0.168 -0.001 0.080
0.169 0.001 0.081
0.169 0.002 0.081
0.167 0.004 0.080
0.165 0.006 0.079
0.167 0.007 0.080
0.165 0.009 0.079
0.162 0.010 0.077
0.160 0.011 0.076
0.164 0.013 0.078
0.162 0.015 0.077
0.158 0.016 0.076
0.154 0.017 0.074
0.157 0.019 0.075
0.155 0.020 0.074
0.151 0.021 0.072
0.154 0.023 0.074
0.153 0.024 0.073
0.152 0.025 0.073
0.155 0.027 0.075
0.150 0.028 0.072
0.151 0.030 0.073
0.155 0.032 0.075
0.169 0.036 0.082
0.189 0.043 0.092
0.190 0.045 0.092
0.183 0.045 0.089
0.180 0.046 0.087
0.181 0.048 0.088
0.182 0.050 0.088
0.178 0.051 0.087
0.177 0.052 0.086
0.176 0.053 0.086
0.175 0.055 0.085
0.173 0.056 0.085
0.173 0.058 0.085
0.173 0.060 0.085
0.171 0.061 0.084
0.172 0.063 0.085
0.174 0.065 0.086
0.174 0.067 0.086
0.174 0.069 0.086
0.172 0.070 0.085
0.172 0.072 0.086
0.176 0.075 0.088
0.171 0.075 0.086
0.166 0.075 0.083
0.164 0.075 0.082
0.162 0.077 0.082
0.154 0.074 0.078
0.150 0.074 0.076
0.156 0.079 0.079
0.163 0.084 0.083
0.164 0.087 0.084
0.167 0.090 0.085
0.170 0.094 0.087
0.171 0.096 0.088
0.170 0.098 0.088
0.170 0.100 0.088
0.170 0.102 0.088
0.169 0.104 0.088
0.168 0.105 0.088
0.168 0.107 0.088
0.169 0.110 0.089
0.169 0.112 0.089
0.168 0.113 0.089
0.167 0.115 0.089
0.165 0.115 0.088
0.164 0.117 0.088
0.165 0.120 0.089
0.164 0.122 0.089
0.171 0.129 0.093
0.165 0.127 0.090
0.163 0.128 0.089
0.158 0.126 0.086
0.161 0.130 0.088
0.164 0.135 0.091
0.163 0.137 0.090
0.159 0.136 0.089
0.154 0.134 0.087
0.152 0.135 0.086
0.151 0.137 0.086
0.156 0.143 0.089
0.161 0.150 0.092
0.164 0.156 0.095
0.165 0.160 0.096
0.167 0.165 0.097
0.164 0.164 0.096
0.156 0.159 0.092
0.152 0.158 0.090
0.153 0.161 0.091
0.153 0.164 0.092
0.152 0.166 0.092
0.151 0.168 0.092
0.151 0.170 0.092
0.150 0.171 0.092
0.148 0.172 0.091
0.149 0.176 0.092
0.147 0.177 0.092
0.147 0.179 0.092
0.145 0.180 0.091
0.144 0.181 0.091
0.145 0.185 0.092
0.125 -0.160 0.079
0.127 -0.160 0.080
0.128 -0.159 0.081
0.129 -0.158 0.081
0.130 -0.157 0.081
0.130 -0.155 0.081
0.129 -0.152 0.080
0.129 -0.149 0.079
0.127 -0.145 0.078
0.125 -0.141 0.076
0.125 -0.139 0.076
0.125 -0.137 0.076
0.126 -0.135 0.076
0.127 -0.134 0.076
0.125 -0.130 0.074
0.123 -0.127 0.073
0.124 -0.126 0.073
0.123 -0.122 0.072
0.115 -0.113 0.067
0.171 -0.160 0.099
0.173 -0.159 0.099
0.174 -0.157 0.099
0.177 -0.157 0.100
0.176 -0.154 0.100
0.176 -0.151 0.099
0.176 -0.149 0.099
0.177 -0.147 0.099
0.177 -0.145 0.099
0.178 -0.143 0.098
0.178 -0.140 0.098
0.178 -0.138 0.098
0.178 -0.136 0.097
0.179 -0.134 0.097
0.178 -0.131 0.096
0.178 -0.129 0.096
0.179 -0.127 0.096
0.179 -0.125 0.096
0.178 -0.122 0.096
0.179 -0.120 0.095
0.180 -0.119 0.096
0.180 -0.116 0.095
0.179 -0.114 0.095
0.179 -0.112 0.094
0.179 -0.109 0.094
0.179 -0.108 0.094
0.180 -0.106 0.094
0.182 -0.105 0.095
0.183 -0.103 0.095
0.180 -0.100 0.093
0.181 -0.099 0.094
0.182 -0.097 0.094
0.182 -0.095 0.094
0.182 -0.093 0.094
0.183 -0.091 0.094
0.182 -0.089 0.093
0.181 -0.087 0.093
0.182 -0.085 0.093
0.184 -0.084 0.093
0.185 -0.082 0.094
0.184 -0.080 0.093
0.184 -0.078 0.093
0.184 -0.076 0.093
0.185 -0.074 0.093
0.184 -0.072 0.093
0.183 -0.070 0.092
0.184 -0.068 0.092
0.184 -0.067 0.092
0.183 -0.064 0.091
0.182 -0.062 0.091
0.184 -0.061 0.091
0.186 -0.060 0.093
0.187 -0.058 0.093
0.187 -0.056 0.093
0.186 -0.054 0.092
0.186 -0.052 0.092
0.187 -0.051 0.093
0.196 -0.051 0.097
0.185 -0.047 0.091
0.177 -0.043 0.087
0.187 -0.043 0.092
0.187 -0.042 0.092
0.188 -0.040 0.093
0.189 -0.039 0.093
0.189 -0.037 0.093
0.188 -0.035 0.092
0.186 -0.032 0.091
0.212 -0.035 0.104
0.207 -0.032 0.101
0.192 -0.028 0.094
0.189 -0.026 0.092
0.195 -0.025 0.095
0.211 -0.025 0.103
0.198 -0.021 0.096
0.172 -0.017 0.084
0.168 -0.015 0.082
0.170 -0.014 0.083
0.171 -0.012 0.084
0.172 -0.010 0.084
0.172 -0.009 0.084
0.170 -0.007 0.083
0.169 -0.005 0.082
0.166 -0.004 0.081
0.161 -0.002 0.078
0.164 -0.001 0.080
0.163 0.001 0.080
0.164 0.002 0.080
0.164 0.004 0.080
0.163 0.005 0.079
0.160 0.007 0.078
0.161 0.008 0.079
0.160 0.010 0.078
0.158 0.011 0.077
0.161 0.013 0.079
0.159 0.014 0.078
0.155 0.016 0.076
0.155 0.017 0.076
0.160 0.019 0.078
0.160 0.021 0.078
0.155 0.021 0.076
0.155 0.023 0.076
0.156 0.025 0.077
0.153 0.025 0.075
0.152 0.027 0.075
0.154 0.029 0.076
0.152 0.030 0.075
0.159 0.033 0.078
0.166 0.036 0.082
0.177 0.040 0.088
0.185 0.043 0.091
0.184 0.045 0.091
0.179 0.046 0.089
0.178 0.047 0.088
0.175 0.048 0.087
0.173 0.049 0.086
0.173 0.051 0.086
0.174 0.053 0.087
0.175 0.055 0.087
0.174 0.057 0.087
0.173 0.058 0.087
0.172 0.060 0.087
0.172 0.061 0.087
0.172 0.063 0.087
0.172 0.065 0.087
0.173 0.067 0.087
0.171 0.068 0.087
0.174 0.071 0.089
0.175 0.073 0.089
0.170 0.073 0.087
0.167 0.073 0.085
0.161 0.073 0.082
0.159 0.073 0.081
0.153 0.072 0.079
0.150 0.073 0.077
0.151 0.075 0.078
0.161 0.082 0.083
0.167 0.086 0.086
0.166 0.088 0.087
0.166 0.090 0.086
0.166 0.092 0.087
0.167 0.094 0.088
0.168 0.097 0.088
0.166 0.098 0.088
0.166 0.100 0.088
0.166 0.102 0.088
0.166 0.104 0.088
0.165 0.105 0.088
0.166 0.108 0.089
0.165 0.109 0.089
0.166 0.112 0.090
0.163 0.112 0.089
0.162 0.114 0.088
0.162 0.116 0.089
0.161 0.118 0.089
0.161 0.120 0.089
0.160 0.121 0.089
0.168 0.129 0.093
0.157 0.123 0.087
0.158 0.126 0.088
0.159 0.129 0.089
0.161 0.133 0.091
0.158 0.134 0.090
0.156 0.134 0.089
0.155 0.136 0.089
0.148 0.132 0.086
0.150 0.136 0.087
0.154 0.142 0.090
0.154 0.144 0.090
0.155 0.148 0.091
0.161 0.156 0.095
0.163 0.161 0.097
0.165 0.165 0.099
0.155 0.159 0.094
0.153 0.159 0.092
0.151 0.160 0.092
0.149 0.161 0.092
0.150 0.164 0.092
0.149 0.166 0.092
0.148 0.167 0.092
0.146 0.168 0.092
0.146 0.171 0.092
0.146 0.173 0.093
0.144 0.174 0.092
0.143 0.175 0.092
0.145 0.180 0.093
0.148 0.186 0.096
0.125 -0.158 0.081
0.128 -0.159 0.082
0.130 -0.160 0.083
0.131 -0.159 0.084
0.130 -0.156 0.083
0.128 -0.151 0.081
0.127 -0.147 0.080
0.128 -0.147 0.080
0.126 -0.143 0.079
0.124 -0.138 0.077
0.127 -0.139 0.078
0.128 -0.137 0.078
0.128 -0.136 0.078
0.127 -0.132 0.077
0.127 -0.131 0.077
0.129 -0.131 0.078
0.133 -0.133 0.080
0.156 -0.153 0.093
0.165 -0.160 0.098
0.169 -0.161 0.100
0.171 -0.160 0.101
0.172 -0.158 0.100
0.172 -0.156 0.100
0.173 -0.154 0.100
0.174 -0.152 0.100
0.174 -0.150 0.100
0.175 -0.148 0.100
0.175 -0.146 0.100
0.175 -0.144 0.100
0.175 -0.141 0.099
0.176 -0.139 0.099
0.176 -0.137 0.099
0.176 -0.134 0.098
0.176 -0.132 0.098
0.175 -0.129 0.097
0.175 -0.127 0.097
0.176 -0.126 0.097
0.175 -0.123 0.096
0.175 -0.120 0.096
0.175 -0.118 0.095
0.175 -0.116 0.095
0.176 -0.115 0.096
0.177 -0.113 0.096
0.176 -0.110 0.095
0.177 -0.109 0.095
0.177 -0.107 0.095
0.178 -0.105 0.095
0.176 -0.102 0.094
0.177 -0.101 0.094
0.178 -0.099 0.094
0.178 -0.097 0.094
0.180 -0.096 0.095
0.180 -0.094 0.095
0.180 -0.092 0.094
0.179 -0.089 0.094
0.179 -0.087 0.093
0.179 -0.086 0.093
0.179 -0.084 0.093
0.180 -0.082 0.093
0.180 -0.080 0.093
0.181 -0.079 0.094
0.182 -0.077 0.094
0.182 -0.075 0.094
0.181 -0.073 0.093
0.180 -0.071 0.092
0.180 -0.069 0.092
0.181 -0.067 0.093
0.181 -0.066 0.092
0.181 -0.064 0.092
0.180 -0.062 0.092
0.180 -0.060 0.092
0.184 -0.059 0.093
0.184 -0.057 0.093
0.184 -0.055 0.093
0.183 -0.053 0.093
0.183 -0.052 0.093
0.189 -0.052 0.096
0.187 -0.049 0.094
0.179 -0.045 0.090
0.182 -0.044 0.092
0.184 -0.043 0.092
0.185 -0.041 0.093
0.184 -0.039 0.093
0.185 -0.038 0.093
0.186 -0.036 0.093
0.185 -0.034 0.093
0.184 -0.032 0.092
0.207 -0.034 0.104
0.210 -0.033 0.105
0.194 -0.028 0.097
0.182 -0.025 0.091
0.189 -0.024 0.094
0.202 -0.024 0.101
0.207 -0.022 0.103
0.174 -0.017 0.087
0.166 -0.015 0.083
0.166 -0.013 0.083
0.169 -0.012 0.084
0.172 -0.010 0.086
0.173 -0.009 0.086
0.173 -0.007 0.086
0.169 -0.005 0.084
0.166 -0.004 0.083
0.161 -0.002 0.080
0.161 -0.001 0.080
0.162 0.001 0.081
0.162 0.002 0.081
0.161 0.004 0.080
0.159 0.005 0.079
0.158 0.007 0.079
0.154 0.008 0.077
0.155 0.010 0.077
0.155 0.011 0.077
0.157 0.013 0.078
0.155 0.014 0.078
0.155 0.016 0.077
0.155 0.017 0.077
0.159 0.019 0.079
0.161 0.021 0.081
0.159 0.022 0.079
0.159 0.023 0.079
0.158 0.025 0.079
0.153 0.026 0.077
0.149 0.026 0.075
0.149 0.028 0.075
0.152 0.030 0.076
0.158 0.033 0.080
0.160 0.035 0.081
0.174 0.039 0.088
0.180 0.042 0.091
0.177 0.043 0.090
0.175 0.045 0.089
0.165 0.044 0.084
0.171 0.047 0.087
0.172 0.049 0.088
0.172 0.051 0.088
0.173 0.053 0.088
0.172 0.054 0.088
0.172 0.056 0.088
0.171 0.057 0.087
0.170 0.059 0.087
0.170 0.061 0.088
0.170 0.063 0.088
0.170 0.064 0.087
0.169 0.066 0.087
0.174 0.070 0.090
0.172 0.070 0.089
0.170 0.071 0.088
0.166 0.072 0.086
0.160 0.071 0.083
0.154 0.070 0.081
0.151 0.070 0.079
0.152 0.072 0.080
0.154 0.075 0.081
0.160 0.079 0.084
0.164 0.083 0.087
0.165 0.086 0.088
0.166 0.088 0.088
0.164 0.089 0.088
0.163 0.090 0.087
0.163 0.093 0.088
0.164 0.095 0.088
0.163 0.096 0.088
0.163 0.098 0.088
0.164 0.101 0.089
0.163 0.102 0.089
0.163 0.104 0.089
0.162 0.106 0.089
0.162 0.108 0.089
0.162 0.110 0.089
0.161 0.111 0.089
0.160 0.113 0.089
0.160 0.115 0.089
0.160 0.117 0.090
0.159 0.118 0.089
0.157 0.119 0.089
0.157 0.121 0.089
0.158 0.124 0.090
0.155 0.125 0.089
0.157 0.128 0.090
0.157 0.130 0.091
0.155 0.131 0.090
0.155 0.133 0.091
0.155 0.136 0.091
0.155 0.138 0.091
0.153 0.139 0.091
0.152 0.140 0.091
0.150 0.141 0.090
0.152 0.145 0.092
0.154 0.150 0.093
0.152 0.150 0.092
0.151 0.155 0.093
0.150 0.156 0.093
0.149 0.159 0.093
0.154 0.166 0.096
0.148 0.163 0.093
0.147 0.164 0.093
0.146 0.165 0.093
0.143 0.164 0.091
0.145 0.169 0.093
0.145 0.172 0.094
0.144 0.173 0.094
0.144 0.176 0.094
0.148 0.184 0.097
0.149 0.188 0.099
0.124 -0.157 0.082
0.127 -0.158 0.083
0.129 -0.158 0.084
0.130 -0.158 0.084
0.129 -0.155 0.084
0.127 -0.150 0.082
0.126 -0.147 0.081
0.128 -0.147 0.082
0.126 -0.143 0.080
0.127 -0.141 0.080
0.127 -0.139 0.080
0.128 -0.139 0.081
0.128 -0.137 0.080
0.128 -0.135 0.080
0.130 -0.134 0.080
0.134 -0.137 0.083
0.152 -0.152 0.093
0.162 -0.160 0.099
0.165 -0.160 0.100
0.167 -0.159 0.101
0.170 -0.159 0.102
0.170 -0.157 0.102
0.170 -0.155 0.102
0.172 -0.153 0.102
0.172 -0.151 0.102
0.172 -0.149 0.101
0.173 -0.147 0.101
0.173 -0.145 0.101
0.172 -0.141 0.100
0.174 -0.140 0.100
0.174 -0.138 0.100
0.172 -0.135 0.099
0.173 -0.132 0.099
0.173 -0.130 0.098
0.172 -0.127 0.098
0.173 -0.126 0.098
0.173 -0.123 0.097
0.172 -0.121 0.096
0.172 -0.119 0.096
0.173 -0.117 0.096
0.173 -0.115 0.096
0.174 -0.113 0.096
0.174 -0.111 0.096
0.174 -0.109 0.096
0.174 -0.107 0.096
0.175 -0.106 0.096
0.174 -0.103 0.095
0.174 -0.101 0.095
0.174 -0.099 0.095
0.174 -0.097 0.094
0.175 -0.095 0.094
0.177 -0.095 0.095
0.178 -0.093 0.096
0.176 -0.090 0.095
0.176 -0.088 0.094
0.176 -0.086 0.094
0.177 -0.085 0.094
0.177 -0.083 0.094
0.178 -0.081 0.094
0.178 -0.079 0.094
0.176 -0.077 0.093
0.178 -0.076 0.094
0.178 -0.074 0.094
0.178 -0.072 0.094
0.177 -0.070 0.093
0.178 -0.068 0.093
0.179 -0.067 0.093
0.179 -0.065 0.093
0.178 -0.063 0.093
0.178 -0.061 0.093
0.179 -0.059 0.093
0.178 -0.057 0.092
0.179 -0.056 0.093
0.180 -0.055 0.093
0.179 -0.052 0.093
0.180 -0.051 0.093
0.190 -0.052 0.098
0.182 -0.048 0.094
0.179 -0.045 0.092
0.179 -0.044 0.092
0.182 -0.043 0.093
0.182 -0.041 0.093
0.181 -0.039 0.093
0.182 -0.037 0.093
0.180 -0.035 0.092
0.182 -0.034 0.093
0.181 -0.032 0.093
0.209 -0.035 0.107
0.208 -0.032 0.106
0.195 -0.029 0.100
0.179 -0.025 0.091
0.180 -0.023 0.092
0.196 -0.023 0.100
0.203 -0.022 0.103
0.178 -0.018 0.091
0.172 -0.015 0.087
0.164 -0.013 0.084
0.168 -0.012 0.085
0.172 -0.010 0.087
0.172 -0.009 0.087
0.170 -0.007 0.086
0.167 -0.005 0.085
0.165 -0.004 0.084
0.163 -0.002 0.083
0.164 -0.001 0.083
0.163 0.001 0.083
0.162 0.002 0.082
0.162 0.004 0.082
0.161 0.005 0.082
0.159 0.007 0.081
0.155 0.008 0.079
0.153 0.010 0.078
0.150 0.011 0.076
0.155 0.013 0.079
0.152 0.014 0.078
0.155 0.016 0.079
0.155 0.017 0.079
0.160 0.019 0.082
0.159 0.020 0.081
0.160 0.022 0.082
0.159 0.024 0.081
0.158 0.025 0.081
0.148 0.025 0.076
0.147 0.026 0.075
0.147 0.028 0.076
0.148 0.029 0.076
0.153 0.032 0.079
0.156 0.034 0.080
0.175 0.040 0.090
0.174 0.041 0.090
0.170 0.042 0.088
0.165 0.042 0.085
0.164 0.044 0.085
0.163 0.045 0.085
0.162 0.046 0.084
0.162 0.048 0.084
0.166 0.051 0.086
0.171 0.054 0.089
0.170 0.056 0.089
0.169 0.057 0.088
0.169 0.059 0.088
0.168 0.060 0.088
0.168 0.062 0.088
0.169 0.064 0.089
0.174 0.068 0.092
0.170 0.068 0.090
0.168 0.069 0.089
0.165 0.070 0.088
0.161 0.070 0.086
0.155 0.069 0.083
0.147 0.067 0.079
0.145 0.067 0.078
0.155 0.074 0.083
0.159 0.077 0.086
0.161 0.080 0.087
0.163 0.083 0.088
0.164 0.085 0.089
0.162 0.087 0.088
0.162 0.088 0.088
0.162 0.090 0.088
0.161 0.092 0.088
0.161 0.093 0.088
0.162 0.096 0.089
0.162 0.098 0.090
0.162 0.100 0.090
0.161 0.101 0.090
0.160 0.102 0.089
0.159 0.104 0.089
0.158 0.106 0.089
0.159 0.108 0.090
0.156 0.108 0.089
0.156 0.110 0.089
0.156 0.112 0.089
0.158 0.116 0.090
0.156 0.117 0.090
0.156 0.118 0.090
0.155 0.120 0.090
0.160 0.126 0.093
0.156 0.126 0.092
0.148 0.121 0.087
0.152 0.126 0.090
0.152 0.129 0.091
0.153 0.132 0.091
0.153 0.135 0.092
0.153 0.137 0.093
0.153 0.139 0.093
0.150 0.139 0.091
0.149 0.141 0.091
0.152 0.146 0.094
0.151 0.147 0.093
0.143 0.143 0.089
0.154 0.159 0.097
0.160 0.167 0.101
0.158 0.169 0.101
0.151 0.163 0.097
0.144 0.158 0.093
0.135 0.151 0.087
0.140 0.160 0.091
0.146 0.169 0.096
0.147 0.172 0.097
0.146 0.174 0.097
0.144 0.174 0.096
0.143 0.176 0.096
0.144 0.180 0.097
0.125 -0.156 0.083
0.126 -0.155 0.084
0.127 -0.155 0.084
0.128 -0.154 0.085
0.129 -0.152 0.085
0.129 -0.151 0.085
0.126 -0.145 0.082
0.127 -0.144 0.083
0.128 -0.143 0.083
0.128 -0.141 0.083
0.129 -0.140 0.083
0.134 -0.143 0.085
0.134 -0.141 0.085
0.139 -0.144 0.088
0.161 -0.164 0.101
0.162 -0.163 0.102
0.163 -0.161 0.102
0.164 -0.159 0.102
0.166 -0.159 0.102
0.166 -0.156 0.102
0.167 -0.154 0.102
0.169 -0.154 0.103
0.170 -0.152 0.103
0.171 -0.151 0.103
0.170 -0.147 0.102
0.171 -0.146 0.102
0.170 -0.142 0.101
0.170 -0.140 0.101
0.170 -0.137 0.100
0.171 -0.136 0.101
0.170 -0.133 0.100
0.170 -0.130 0.099
0.170 -0.128 0.099
0.169 -0.126 0.098
0.170 -0.124 0.098
0.170 -0.122 0.098
0.170 -0.120 0.098
0.170 -0.118 0.097
0.171 -0.116 0.097
0.171 -0.114 0.097
0.172 -0.112 0.097
0.171 -0.110 0.096
0.171 -0.107 0.096
0.171 -0.106 0.096
0.171 -0.103 0.095
0.171 -0.102 0.096
0.172 -0.100 0.095
0.171 -0.097 0.095
0.171 -0.096 0.095
0.172 -0.094 0.095
0.173 -0.093 0.095
0.174 -0.091 0.095
0.174 -0.090 0.095
0.172 -0.086 0.094
0.172 -0.085 0.094
0.174 -0.084 0.095
0.175 -0.082 0.095
0.175 -0.080 0.095
0.175 -0.078 0.094
0.176 -0.077 0.095
0.175 -0.074 0.094
0.175 -0.073 0.094
0.175 -0.071 0.094
0.175 -0.069 0.093
0.175 -0.068 0.094
0.175 -0.066 0.094
0.176 -0.064 0.094
0.177 -0.062 0.094
0.176 -0.061 0.094
0.175 -0.058 0.093
0.176 -0.057 0.093
0.176 -0.055 0.093
0.176 -0.053 0.093
0.177 -0.052 0.093
0.179 -0.051 0.094
0.185 -0.051 0.097
0.184 -0.049 0.097
0.179 -0.045 0.094
0.177 -0.043 0.093
0.178 -0.042 0.093
0.179 -0.040 0.094
0.179 -0.038 0.094
0.178 -0.036 0.093
0.178 -0.035 0.093
0.178 -0.033 0.093
0.178 -0.031 0.093
0.205 -0.034 0.107
0.203 -0.032 0.106
0.198 -0.029 0.103
0.181 -0.025 0.094
0.177 -0.023 0.092
0.188 -0.022 0.098
0.195 -0.021 0.101
0.186 -0.018 0.097
0.180 -0.016 0.093
0.177 -0.014 0.092
0.168 -0.012 0.087
0.170 -0.010 0.088
0.168 -0.009 0.087
0.166 -0.007 0.086
0.162 -0.005 0.084
0.162 -0.004 0.084
0.161 -0.002 0.083
0.162 -0.001 0.084
0.161 0.001 0.083
0.161 0.002 0.084
0.164 0.004 0.085
0.164 0.006 0.085
0.161 0.007 0.084
0.156 0.008 0.081
0.152 0.009 0.079
0.150 0.011 0.078
0.151 0.012 0.079
0.151 0.014 0.079
0.150 0.015 0.078
0.157 0.017 0.082
0.159 0.019 0.083
0.156 0.020 0.081
0.154 0.021 0.080
0.157 0.023 0.082
0.154 0.024 0.080
0.147 0.025 0.077
0.147 0.026 0.077
0.147 0.028 0.077
0.151 0.030 0.079
0.151 0.031 0.079
0.159 0.034 0.083
0.161 0.037 0.085
0.168 0.040 0.089
0.169 0.042 0.089
0.164 0.042 0.087
0.165 0.044 0.087
0.163 0.045 0.086
0.162 0.046 0.086
0.160 0.048 0.085
0.159 0.049 0.085
0.159 0.050 0.085
0.159 0.052 0.085
0.160 0.054 0.085
0.166 0.058 0.089
0.167 0.060 0.089
0.166 0.061 0.089
0.170 0.065 0.092
0.169 0.066 0.091
0.167 0.067 0.090
0.163 0.067 0.088
0.161 0.068 0.087
0.155 0.067 0.084
0.150 0.067 0.082
0.146 0.066 0.079
0.150 0.070 0.082
0.156 0.074 0.085
0.159 0.078 0.087
0.160 0.080 0.088
0.160 0.082 0.088
0.160 0.084 0.089
0.160 0.085 0.089
0.160 0.087 0.089
0.160 0.089 0.089
0.159 0.091 0.089
0.159 0.093 0.089
0.159 0.095 0.090
0.159 0.097 0.090
0.159 0.098 0.090
0.157 0.099 0.089
0.157 0.101 0.089
0.157 0.103 0.090
0.156 0.105 0.090
0.155 0.106 0.090
0.155 0.108 0.090
0.154 0.109 0.090
0.154 0.111 0.090
0.154 0.113 0.090
0.154 0.116 0.091
0.154 0.117 0.091
0.153 0.119 0.091
0.151 0.120 0.090
0.162 0.130 0.097
0.153 0.126 0.092
0.152 0.127 0.092
0.152 0.129 0.092
0.149 0.129 0.091
0.149 0.132 0.092
0.148 0.133 0.092
0.148 0.135 0.092
0.148 0.138 0.092
0.151 0.143 0.094
0.153 0.148 0.096
0.149 0.146 0.094
0.146 0.149 0.094
0.149 0.154 0.096
0.156 0.164 0.101
0.156 0.167 0.102
0.152 0.165 0.100
0.145 0.160 0.096
0.139 0.156 0.092
0.144 0.164 0.096
0.148 0.172 0.099
0.151 0.178 0.102
0.150 0.179 0.101
0.146 0.177 0.099
0.140 0.172 0.095
0.137 0.171 0.094
0.122 -0.153 0.084
0.123 -0.152 0.084
0.126 -0.153 0.085
0.127 -0.153 0.086
0.130 -0.154 0.087
0.129 -0.151 0.086
0.128 -0.147 0.085
0.127 -0.144 0.084
0.129 -0.144 0.085
0.130 -0.144 0.086
0.134 -0.146 0.088
0.139 -0.149 0.090
0.155 -0.164 0.101
0.159 -0.165 0.102
0.160 -0.164 0.103
0.162 -0.163 0.103
0.165 -0.163 0.105
0.164 -0.160 0.104
0.163 -0.156 0.103
0.164 -0.155 0.103
0.166 -0.154 0.103
0.166 -0.151 0.103
0.166 -0.149 0.103
0.166 -0.147 0.102
0.166 -0.144 0.102
0.167 -0.143 0.102
0.170 -0.143 0.103
0.167 -0.138 0.101
0.168 -0.137 0.101
0.169 -0.135 0.101
0.168 -0.132 0.101
