VERSION .7
FIELDS x y z
SIZE 4 4 4
TYPE F F F
COUNT 1 1 1
WIDTH     2585
HEIGHT 1
VIEWPOINT 0 0 0 1 0 0 0
POINTS     2585
DATA ascii
0.117 -0.154 0.032
0.117 -0.152 0.032
0.115 -0.147 0.031
0.115 -0.146 0.031
0.115 -0.144 0.031
0.116 -0.143 0.031
0.120 -0.146 0.032
0.127 -0.153 0.034
0.130 -0.154 0.034
0.135 -0.157 0.035
0.290 -0.317 0.074
0.290 -0.313 0.074
0.291 -0.309 0.074
0.290 -0.303 0.073
0.290 -0.299 0.072
0.293 -0.297 0.073
0.293 -0.292 0.072
0.293 -0.288 0.072
0.291 -0.282 0.071
0.293 -0.279 0.071
0.293 -0.274 0.071
0.290 -0.268 0.070
0.289 -0.263 0.069
0.289 -0.258 0.069
0.288 -0.253 0.069
0.286 -0.248 0.068
0.286 -0.243 0.067
0.285 -0.239 0.067
0.285 -0.235 0.067
0.282 -0.229 0.066
0.278 -0.222 0.064
0.210 -0.160 0.048
0.207 -0.155 0.047
0.207 -0.152 0.047
0.213 -0.154 0.048
0.209 -0.149 0.047
0.202 -0.141 0.046
0.202 -0.139 0.045
0.203 -0.137 0.046
0.206 -0.136 0.046
0.207 -0.135 0.046
0.212 -0.136 0.047
0.223 -0.140 0.050
0.222 -0.137 0.049
0.208 -0.126 0.046
0.204 -0.121 0.045
0.204 -0.119 0.045
0.204 -0.117 0.045
0.205 -0.115 0.045
0.207 -0.114 0.045
0.207 -0.112 0.045
0.209 -0.110 0.045
0.208 -0.108 0.045
0.213 -0.108 0.046
0.211 -0.105 0.045
0.212 -0.103 0.046
0.210 -0.100 0.045
0.210 -0.098 0.045
0.212 -0.097 0.045
0.209 -0.093 0.045
0.211 -0.092 0.045
0.215 -0.092 0.046
0.213 -0.089 0.045
0.213 -0.087 0.045
0.206 -0.082 0.044
0.211 -0.082 0.045
0.211 -0.079 0.044
0.220 -0.079 0.046
0.220 -0.076 0.046
0.217 -0.073 0.046
0.225 -0.074 0.047
0.237 -0.075 0.050
0.243 -0.075 0.051
0.249 -0.074 0.052
0.256 -0.074 0.053
0.260 -0.073 0.054
0.364 -0.095 0.075
0.364 -0.092 0.076
0.366 -0.089 0.076
0.366 -0.085 0.076
0.361 -0.081 0.075
0.352 -0.075 0.073
0.352 -0.072 0.073
0.348 -0.068 0.072
0.328 -0.061 0.068
0.315 -0.056 0.065
0.294 -0.050 0.061
0.286 -0.046 0.059
0.283 -0.043 0.058
0.283 -0.040 0.058
0.284 -0.037 0.058
0.284 -0.035 0.058
0.281 -0.032 0.058
0.279 -0.029 0.057
0.280 -0.027 0.057
0.285 -0.025 0.058
0.288 -0.022 0.059
0.283 -0.019 0.058
0.281 -0.017 0.058
0.284 -0.014 0.058
0.290 -0.012 0.060
0.294 -0.009 0.060
0.289 -0.007 0.059
0.294 -0.004 0.060
0.295 -0.001 0.061
0.294 0.001 0.060
0.292 0.004 0.060
0.297 0.007 0.061
0.294 0.009 0.060
0.293 0.012 0.060
0.289 0.014 0.059
0.283 0.017 0.058
0.282 0.019 0.058
0.288 0.022 0.059
0.290 0.025 0.060
0.289 0.027 0.059
0.290 0.030 0.060
0.291 0.033 0.060
0.296 0.036 0.061
0.300 0.040 0.062
0.294 0.041 0.061
0.296 0.044 0.061
0.298 0.047 0.061
0.297 0.050 0.061
0.297 0.053 0.061
0.298 0.056 0.062
0.295 0.058 0.061
0.303 0.062 0.063
0.307 0.066 0.064
0.293 0.066 0.061
0.290 0.068 0.060
0.287 0.070 0.060
0.286 0.072 0.060
0.297 0.078 0.062
0.303 0.082 0.063
0.301 0.085 0.063
0.294 0.086 0.061
0.291 0.088 0.061
0.290 0.090 0.061
0.283 0.091 0.060
0.291 0.096 0.061
0.298 0.101 0.063
0.289 0.101 0.061
0.273 0.098 0.058
0.267 0.099 0.056
0.275 0.110 0.058
0.310 0.127 0.066
0.314 0.132 0.067
0.311 0.134 0.067
0.316 0.139 0.068
0.317 0.143 0.068
0.320 0.147 0.069
0.312 0.147 0.067
0.321 0.155 0.069
0.318 0.157 0.069
0.320 0.161 0.069
0.321 0.165 0.070
0.321 0.169 0.070
0.321 0.172 0.070
0.319 0.175 0.070
0.317 0.177 0.070
0.314 0.179 0.069
0.308 0.179 0.068
0.304 0.180 0.067
0.301 0.182 0.067
0.298 0.183 0.066
0.291 0.183 0.065
0.287 0.183 0.064
0.282 0.184 0.064
0.279 0.185 0.063
0.275 0.185 0.062
0.269 0.185 0.061
0.265 0.185 0.060
0.263 0.187 0.060
0.262 0.190 0.060
0.261 0.192 0.060
0.259 0.194 0.060
0.259 0.198 0.060
0.258 0.201 0.060
0.258 0.204 0.061
0.260 0.209 0.061
0.258 0.212 0.061
0.258 0.215 0.061
0.258 0.218 0.062
0.257 0.221 0.062
0.256 0.224 0.062
0.256 0.228 0.062
0.255 0.231 0.062
0.253 0.233 0.062
0.254 0.238 0.063
0.255 0.243 0.063
0.253 0.246 0.063
0.251 0.248 0.063
0.251 0.252 0.063
0.246 0.250 0.062
0.243 0.252 0.062
0.246 0.259 0.063
0.257 0.275 0.066
0.250 0.272 0.065
0.259 0.286 0.068
0.216 0.252 0.058
0.204 0.245 0.055
0.195 0.239 0.053
0.200 0.249 0.055
0.200 0.253 0.055
0.194 0.249 0.054
0.191 0.248 0.053
0.181 0.239 0.051
0.112 -0.156 0.033
0.111 -0.153 0.032
0.113 -0.154 0.033
0.118 -0.158 0.034
0.116 -0.153 0.033
0.107 -0.139 0.030
0.112 -0.144 0.032
0.114 -0.144 0.032
0.113 -0.142 0.032
0.113 -0.140 0.032
0.120 -0.146 0.033
0.122 -0.146 0.034
0.121 -0.143 0.033
0.127 -0.147 0.035
0.134 -0.153 0.036
0.287 -0.305 0.076
0.285 -0.298 0.075
0.288 -0.297 0.075
0.291 -0.295 0.076
0.294 -0.294 0.076
0.288 -0.283 0.074
0.291 -0.282 0.074
0.291 -0.278 0.074
0.290 -0.272 0.073
0.289 -0.267 0.073
0.289 -0.263 0.073
0.289 -0.259 0.072
0.289 -0.255 0.072
0.286 -0.248 0.071
0.286 -0.244 0.070
0.285 -0.239 0.070
0.283 -0.234 0.069
0.284 -0.230 0.069
0.278 -0.222 0.067
0.267 -0.210 0.065
0.224 -0.174 0.054
0.213 -0.162 0.051
0.207 -0.155 0.049
0.210 -0.155 0.050
0.209 -0.152 0.050
0.205 -0.146 0.049
0.201 -0.140 0.047
0.200 -0.137 0.047
0.203 -0.137 0.048
0.207 -0.137 0.048
0.203 -0.132 0.047
0.206 -0.132 0.048
0.213 -0.134 0.049
0.211 -0.131 0.049
0.204 -0.124 0.047
0.204 -0.121 0.047
0.202 -0.118 0.046
0.202 -0.116 0.046
0.203 -0.114 0.046
0.206 -0.114 0.047
0.209 -0.113 0.047
0.207 -0.110 0.047
0.211 -0.110 0.048
0.209 -0.106 0.047
0.210 -0.104 0.047
0.211 -0.103 0.047
0.209 -0.100 0.047
0.206 -0.096 0.046
0.203 -0.093 0.045
0.201 -0.090 0.045
0.205 -0.090 0.046
0.208 -0.089 0.046
0.199 -0.083 0.044
0.207 -0.084 0.046
0.201 -0.080 0.044
0.209 -0.081 0.046
0.203 -0.077 0.045
0.209 -0.077 0.046
0.215 -0.077 0.047
0.217 -0.075 0.047
0.219 -0.074 0.048
0.225 -0.074 0.049
0.232 -0.074 0.051
0.240 -0.074 0.052
0.247 -0.074 0.054
0.248 -0.072 0.054
0.254 -0.071 0.055
0.337 -0.091 0.073
0.341 -0.089 0.074
0.347 -0.088 0.075
0.356 -0.086 0.077
0.350 -0.082 0.076
0.347 -0.078 0.075
0.345 -0.074 0.075
0.334 -0.069 0.072
0.336 -0.066 0.072
0.328 -0.061 0.071
0.308 -0.055 0.066
0.293 -0.049 0.063
0.285 -0.045 0.061
0.281 -0.042 0.060
0.282 -0.040 0.061
0.282 -0.037 0.061
0.282 -0.035 0.061
0.281 -0.032 0.060
0.280 -0.029 0.060
0.278 -0.027 0.060
0.280 -0.024 0.060
0.284 -0.022 0.061
0.285 -0.019 0.061
0.283 -0.017 0.061
0.282 -0.014 0.061
0.290 -0.012 0.062
0.292 -0.009 0.062
0.291 -0.007 0.062
0.287 -0.004 0.062
0.289 -0.001 0.062
0.290 0.001 0.062
0.294 0.004 0.063
0.292 0.007 0.063
0.292 0.009 0.063
0.291 0.012 0.062
0.287 0.014 0.061
0.284 0.017 0.061
0.284 0.019 0.061
0.287 0.022 0.062
0.291 0.025 0.062
0.292 0.028 0.063
0.285 0.030 0.061
0.282 0.032 0.061
0.287 0.035 0.062
0.290 0.038 0.062
0.290 0.041 0.062
0.288 0.043 0.062
0.292 0.047 0.063
0.295 0.050 0.064
0.299 0.053 0.064
0.304 0.057 0.066
0.298 0.059 0.064
0.281 0.058 0.061
0.291 0.063 0.063
0.294 0.066 0.064
0.286 0.067 0.062
0.285 0.070 0.062
0.285 0.072 0.062
0.289 0.076 0.063
0.303 0.082 0.066
0.292 0.082 0.064
0.300 0.087 0.066
0.291 0.087 0.064
0.284 0.088 0.062
0.287 0.092 0.063
0.293 0.097 0.064
0.291 0.099 0.064
0.288 0.101 0.064
0.287 0.103 0.063
0.287 0.106 0.064
0.295 0.112 0.065
0.297 0.116 0.066
0.266 0.106 0.059
0.267 0.109 0.059
0.311 0.134 0.069
0.313 0.138 0.070
0.315 0.142 0.071
0.314 0.145 0.071
0.317 0.150 0.072
0.310 0.150 0.070
0.309 0.152 0.070
0.308 0.155 0.070
0.311 0.160 0.071
0.315 0.166 0.072
0.314 0.168 0.072
0.312 0.171 0.071
0.311 0.174 0.072
0.308 0.175 0.071
0.303 0.176 0.070
0.301 0.179 0.070
0.299 0.181 0.070
0.295 0.182 0.069
0.289 0.181 0.068
0.284 0.182 0.067
0.282 0.184 0.066
0.278 0.184 0.066
0.274 0.185 0.065
0.268 0.184 0.064
0.264 0.185 0.063
0.262 0.187 0.063
0.262 0.190 0.063
0.261 0.193 0.063
0.260 0.196 0.063
0.260 0.199 0.063
0.259 0.201 0.063
0.259 0.205 0.063
0.258 0.208 0.064
0.258 0.212 0.064
0.257 0.214 0.064
0.257 0.218 0.064
0.256 0.221 0.064
0.255 0.224 0.064
0.256 0.228 0.065
0.254 0.230 0.065
0.252 0.233 0.065
0.255 0.240 0.066
0.255 0.243 0.066
0.249 0.242 0.065
0.242 0.238 0.063
0.242 0.243 0.064
0.242 0.247 0.064
0.231 0.240 0.062
0.213 0.236 0.058
0.200 0.225 0.055
0.195 0.223 0.054
0.205 0.239 0.057
0.196 0.232 0.055
0.192 0.232 0.054
0.193 0.237 0.055
0.192 0.239 0.055
0.192 0.242 0.055
0.191 0.245 0.055
0.226 0.299 0.066
0.101 -0.140 0.031
0.098 -0.135 0.030
0.098 -0.134 0.030
0.098 -0.132 0.030
0.099 -0.131 0.030
0.100 -0.130 0.030
0.100 -0.129 0.030
0.101 -0.128 0.030
0.101 -0.126 0.029
0.101 -0.125 0.029
0.101 -0.123 0.029
0.102 -0.122 0.029
0.102 -0.121 0.029
0.123 -0.142 0.035
0.124 -0.138 0.035
0.125 -0.137 0.035
0.132 -0.143 0.037
0.278 -0.291 0.076
0.280 -0.289 0.076
0.286 -0.290 0.077
0.283 -0.283 0.076
0.286 -0.281 0.077
0.286 -0.277 0.076
0.287 -0.274 0.076
0.285 -0.268 0.075
0.286 -0.264 0.075
0.286 -0.260 0.075
0.287 -0.257 0.075
0.286 -0.253 0.074
0.285 -0.247 0.074
0.285 -0.243 0.073
0.285 -0.240 0.073
0.283 -0.234 0.072
0.284 -0.231 0.072
0.281 -0.225 0.071
0.273 -0.215 0.069
0.219 -0.170 0.055
0.209 -0.159 0.052
0.202 -0.152 0.050
0.206 -0.152 0.051
0.207 -0.150 0.051
0.198 -0.141 0.049
0.195 -0.137 0.048
0.200 -0.138 0.049
0.203 -0.137 0.050
0.200 -0.133 0.049
0.199 -0.130 0.048
0.198 -0.127 0.048
0.201 -0.127 0.049
0.203 -0.125 0.049
0.204 -0.124 0.049
0.201 -0.120 0.048
0.201 -0.117 0.048
0.199 -0.114 0.047
0.201 -0.113 0.048
0.204 -0.112 0.048
0.206 -0.111 0.049
0.210 -0.111 0.050
0.183 -0.095 0.043
0.174 -0.089 0.041
0.174 -0.087 0.041
0.173 -0.085 0.041
0.172 -0.082 0.040
0.172 -0.080 0.040
0.174 -0.079 0.040
0.175 -0.078 0.041
0.176 -0.077 0.041
0.178 -0.076 0.041
0.179 -0.075 0.041
0.182 -0.074 0.042
0.184 -0.073 0.042
0.194 -0.075 0.045
0.205 -0.077 0.047
0.209 -0.077 0.048
0.209 -0.075 0.048
0.211 -0.073 0.048
0.221 -0.075 0.051
0.226 -0.074 0.052
0.232 -0.074 0.053
0.234 -0.072 0.053
0.237 -0.071 0.054
0.245 -0.071 0.056
0.249 -0.070 0.056
0.326 -0.088 0.074
0.335 -0.088 0.076
0.338 -0.085 0.076
0.334 -0.081 0.076
0.338 -0.079 0.076
0.340 -0.076 0.077
0.331 -0.071 0.075
0.328 -0.068 0.074
0.333 -0.065 0.075
0.321 -0.060 0.072
0.309 -0.055 0.069
0.294 -0.050 0.066
0.283 -0.045 0.063
0.282 -0.042 0.063
0.283 -0.040 0.063
0.283 -0.037 0.063
0.282 -0.035 0.063
0.282 -0.032 0.063
0.282 -0.030 0.063
0.281 -0.027 0.063
0.282 -0.024 0.063
0.284 -0.022 0.063
0.287 -0.020 0.064
0.286 -0.017 0.064
0.283 -0.014 0.063
0.281 -0.012 0.063
0.287 -0.009 0.064
0.288 -0.007 0.064
0.287 -0.004 0.064
0.285 -0.001 0.064
0.286 0.001 0.064
0.286 0.004 0.064
0.286 0.006 0.064
0.287 0.009 0.064
0.286 0.012 0.064
0.285 0.014 0.064
0.286 0.017 0.064
0.289 0.020 0.065
0.287 0.022 0.064
0.279 0.024 0.063
0.283 0.027 0.063
0.283 0.030 0.063
0.276 0.031 0.062
0.280 0.034 0.063
0.287 0.038 0.064
0.290 0.041 0.065
0.286 0.043 0.064
0.289 0.046 0.065
0.293 0.050 0.066
0.298 0.053 0.067
0.302 0.057 0.068
0.298 0.059 0.067
0.278 0.057 0.063
0.284 0.061 0.064
0.280 0.063 0.063
0.273 0.064 0.062
0.265 0.065 0.060
0.284 0.075 0.065
0.288 0.078 0.066
0.286 0.081 0.065
0.288 0.084 0.066
0.290 0.087 0.066
0.292 0.091 0.067
0.295 0.095 0.068
0.299 0.099 0.069
0.301 0.102 0.069
0.296 0.104 0.068
0.295 0.106 0.068
0.299 0.111 0.069
0.304 0.116 0.070
0.309 0.121 0.072
0.299 0.120 0.069
0.274 0.112 0.064
0.310 0.137 0.072
0.310 0.140 0.073
0.309 0.143 0.073
0.312 0.147 0.073
0.309 0.150 0.073
0.304 0.150 0.072
0.301 0.152 0.071
0.300 0.154 0.071
0.306 0.161 0.073
0.308 0.165 0.073
0.308 0.169 0.074
0.306 0.171 0.073
0.303 0.173 0.073
0.299 0.174 0.072
0.297 0.176 0.072
0.296 0.179 0.072
0.290 0.179 0.070
0.286 0.180 0.070
0.283 0.181 0.069
0.279 0.182 0.069
0.276 0.184 0.068
0.273 0.184 0.067
0.266 0.184 0.066
0.263 0.185 0.066
0.261 0.186 0.065
0.260 0.189 0.065
0.261 0.193 0.066
0.260 0.196 0.066
0.259 0.199 0.066
0.259 0.202 0.066
0.258 0.205 0.066
0.258 0.208 0.066
0.257 0.211 0.066
0.256 0.214 0.066
0.254 0.215 0.066
0.252 0.217 0.066
0.251 0.221 0.066
0.253 0.226 0.067
0.250 0.228 0.067
0.246 0.228 0.066
0.246 0.231 0.066
0.248 0.237 0.067
0.244 0.237 0.066
0.231 0.229 0.063
0.232 0.237 0.064
0.210 0.218 0.058
0.205 0.217 0.057
0.202 0.217 0.057
0.204 0.223 0.058
0.201 0.224 0.057
0.197 0.222 0.056
0.194 0.222 0.056
0.197 0.234 0.058
0.195 0.235 0.057
0.200 0.245 0.059
0.245 0.314 0.074
0.250 0.331 0.077
0.098 -0.135 0.031
0.099 -0.134 0.031
0.100 -0.134 0.031
0.100 -0.132 0.031
0.100 -0.131 0.031
0.101 -0.130 0.031
0.099 -0.126 0.030
0.102 -0.128 0.031
0.102 -0.126 0.031
0.102 -0.124 0.031
0.102 -0.123 0.031
0.102 -0.121 0.030
0.102 -0.119 0.030
0.102 -0.118 0.030
0.103 -0.117 0.030
0.121 -0.135 0.035
0.123 -0.135 0.036
0.125 -0.135 0.036
0.274 -0.274 0.077
0.279 -0.275 0.078
0.279 -0.271 0.078
0.279 -0.267 0.077
0.277 -0.261 0.076
0.281 -0.260 0.077
0.281 -0.257 0.077
0.281 -0.252 0.076
0.282 -0.249 0.076
0.282 -0.245 0.076
0.283 -0.242 0.076
0.282 -0.237 0.075
0.283 -0.234 0.075
0.282 -0.230 0.075
0.281 -0.225 0.074
0.223 -0.176 0.059
0.214 -0.166 0.056
0.205 -0.157 0.054
0.193 -0.145 0.050
0.200 -0.148 0.052
0.205 -0.149 0.053
0.202 -0.144 0.052
0.201 -0.141 0.051
0.203 -0.140 0.052
0.198 -0.134 0.050
0.198 -0.132 0.050
0.195 -0.128 0.049
0.194 -0.125 0.049
0.197 -0.124 0.050
0.201 -0.124 0.050
0.203 -0.123 0.051
0.203 -0.121 0.051
0.201 -0.118 0.050
0.202 -0.116 0.050
0.172 -0.093 0.042
0.169 -0.090 0.042
0.170 -0.089 0.042
0.172 -0.087 0.042
0.172 -0.082 0.042
0.173 -0.081 0.042
0.175 -0.080 0.042
0.175 -0.079 0.042
0.177 -0.077 0.043
0.177 -0.076 0.043
0.178 -0.074 0.043
0.180 -0.073 0.043
0.180 -0.071 0.043
0.182 -0.070 0.044
0.183 -0.069 0.044
0.185 -0.068 0.044
0.190 -0.068 0.045
0.206 -0.072 0.049
0.230 -0.078 0.055
0.229 -0.075 0.054
0.229 -0.073 0.054
0.231 -0.071 0.055
0.234 -0.070 0.056
0.240 -0.070 0.057
0.253 -0.071 0.060
0.311 -0.085 0.074
0.326 -0.085 0.077
0.331 -0.084 0.078
0.326 -0.079 0.077
0.324 -0.076 0.076
0.329 -0.074 0.077
0.328 -0.071 0.077
0.322 -0.066 0.076
0.318 -0.063 0.075
0.315 -0.059 0.074
0.310 -0.055 0.072
0.294 -0.050 0.069
0.282 -0.045 0.066
0.281 -0.042 0.066
0.285 -0.040 0.067
0.280 -0.037 0.065
0.280 -0.034 0.065
0.280 -0.032 0.065
0.284 -0.030 0.066
0.286 -0.027 0.067
0.285 -0.025 0.066
0.285 -0.022 0.066
0.284 -0.019 0.066
0.283 -0.017 0.066
0.279 -0.014 0.065
0.279 -0.011 0.065
0.280 -0.009 0.065
0.286 -0.007 0.067
0.291 -0.004 0.068
0.289 -0.001 0.067
0.287 0.001 0.067
0.285 0.004 0.066
0.286 0.006 0.067
0.288 0.009 0.067
0.284 0.012 0.066
0.273 0.014 0.064
0.283 0.017 0.066
0.288 0.020 0.067
0.274 0.021 0.064
0.268 0.023 0.063
0.276 0.026 0.064
0.283 0.030 0.066
0.289 0.033 0.068
0.273 0.034 0.064
0.281 0.037 0.066
0.284 0.040 0.067
0.283 0.043 0.066
0.284 0.045 0.066
0.283 0.048 0.066
0.291 0.052 0.068
0.296 0.056 0.070
0.287 0.057 0.067
0.278 0.057 0.065
0.283 0.061 0.067
0.284 0.064 0.067
0.281 0.066 0.066
0.279 0.068 0.066
0.277 0.070 0.065
0.280 0.074 0.066
0.279 0.076 0.066
0.278 0.078 0.066
0.278 0.081 0.066
0.285 0.086 0.068
0.297 0.093 0.071
0.300 0.096 0.072
0.298 0.099 0.071
0.298 0.102 0.071
0.297 0.104 0.071
0.298 0.107 0.071
0.300 0.111 0.072
0.299 0.114 0.072
0.298 0.116 0.072
0.298 0.119 0.072
0.295 0.121 0.071
0.289 0.122 0.070
0.272 0.120 0.066
0.296 0.134 0.072
0.302 0.140 0.074
0.304 0.144 0.074
0.307 0.149 0.076
0.300 0.148 0.074
0.292 0.147 0.072
0.292 0.151 0.072
0.297 0.156 0.074
0.301 0.162 0.075
0.302 0.166 0.075
0.303 0.170 0.076
0.300 0.172 0.075
0.292 0.170 0.073
0.289 0.172 0.073
0.290 0.176 0.073
0.287 0.177 0.073
0.284 0.179 0.072
0.282 0.180 0.072
0.278 0.182 0.071
0.274 0.182 0.070
0.271 0.184 0.070
0.266 0.184 0.069
0.263 0.185 0.068
0.261 0.186 0.068
0.260 0.189 0.068
0.260 0.193 0.068
0.259 0.195 0.068
0.258 0.198 0.068
0.259 0.202 0.069
0.259 0.206 0.069
0.259 0.209 0.069
0.257 0.211 0.069
0.255 0.213 0.069
0.253 0.215 0.069
0.251 0.217 0.069
0.253 0.223 0.069
0.250 0.224 0.069
0.245 0.223 0.068
0.240 0.222 0.067
0.237 0.223 0.066
0.240 0.229 0.067
0.233 0.227 0.066
0.223 0.221 0.064
0.212 0.214 0.061
0.207 0.212 0.060
0.204 0.212 0.059
0.200 0.212 0.058
0.198 0.213 0.058
0.197 0.216 0.058
0.201 0.224 0.060
0.202 0.229 0.061
0.204 0.234 0.061
0.209 0.244 0.063
0.209 0.252 0.064
0.206 0.253 0.064
0.234 0.297 0.073
0.235 0.302 0.074
0.215 0.285 0.068
0.100 -0.137 0.033
0.100 -0.136 0.033
0.101 -0.135 0.033
0.102 -0.135 0.033
0.101 -0.133 0.033
0.102 -0.131 0.032
0.102 -0.130 0.032
0.102 -0.128 0.032
0.102 -0.126 0.032
0.102 -0.125 0.032
0.102 -0.123 0.032
0.102 -0.121 0.032
0.102 -0.119 0.032
0.103 -0.118 0.031
0.103 -0.117 0.031
0.104 -0.116 0.031
0.109 -0.120 0.033
0.108 -0.117 0.032
0.107 -0.114 0.032
0.267 -0.268 0.078
0.272 -0.268 0.079
0.277 -0.270 0.080
0.278 -0.266 0.080
0.278 -0.262 0.080
0.278 -0.258 0.079
0.278 -0.254 0.079
0.279 -0.250 0.079
0.279 -0.246 0.078
0.278 -0.242 0.078
0.278 -0.238 0.078
0.280 -0.236 0.078
0.275 -0.228 0.076
0.274 -0.224 0.076
0.223 -0.176 0.061
0.210 -0.163 0.057
0.192 -0.147 0.052
0.193 -0.145 0.052
0.195 -0.144 0.052
0.201 -0.146 0.054
0.207 -0.147 0.055
0.204 -0.143 0.054
0.200 -0.138 0.053
0.202 -0.137 0.053
0.198 -0.132 0.052
0.197 -0.129 0.052
0.200 -0.128 0.053
0.196 -0.124 0.051
0.199 -0.123 0.052
0.203 -0.124 0.053
0.204 -0.122 0.053
0.206 -0.120 0.053
0.193 -0.111 0.050
0.168 -0.095 0.043
0.169 -0.093 0.043
0.169 -0.091 0.043
0.169 -0.090 0.043
0.170 -0.089 0.043
0.171 -0.087 0.044
0.172 -0.086 0.044
0.172 -0.084 0.044
0.178 -0.085 0.045
0.184 -0.086 0.046
0.186 -0.085 0.047
0.190 -0.085 0.048
0.195 -0.085 0.049
0.190 -0.081 0.048
0.186 -0.078 0.047
0.180 -0.073 0.045
0.180 -0.072 0.045
0.182 -0.070 0.045
0.183 -0.069 0.046
0.185 -0.068 0.046
0.185 -0.066 0.046
0.185 -0.065 0.046
0.191 -0.065 0.047
0.195 -0.064 0.048
0.226 -0.072 0.056
0.226 -0.070 0.056
0.232 -0.070 0.057
0.242 -0.070 0.060
0.255 -0.072 0.063
0.321 -0.084 0.079
0.324 -0.082 0.079
0.322 -0.078 0.079
0.315 -0.074 0.077
0.316 -0.071 0.077
0.316 -0.068 0.077
0.313 -0.064 0.076
0.311 -0.061 0.076
0.312 -0.058 0.076
0.304 -0.054 0.074
0.294 -0.050 0.072
0.280 -0.045 0.068
0.280 -0.042 0.068
0.281 -0.040 0.068
0.281 -0.037 0.068
0.278 -0.034 0.068
0.282 -0.032 0.068
0.284 -0.030 0.069
0.286 -0.027 0.069
0.285 -0.025 0.069
0.284 -0.022 0.069
0.283 -0.019 0.069
0.280 -0.017 0.068
0.281 -0.014 0.068
0.280 -0.011 0.068
0.279 -0.009 0.068
0.284 -0.006 0.069
0.288 -0.004 0.070
0.289 -0.001 0.070
0.286 0.001 0.069
0.287 0.004 0.069
0.287 0.006 0.070
0.291 0.009 0.071
0.282 0.012 0.068
0.271 0.014 0.066
0.269 0.016 0.065
0.281 0.019 0.068
0.278 0.022 0.068
0.272 0.024 0.066
0.286 0.027 0.069
0.290 0.030 0.070
0.279 0.032 0.068
0.276 0.034 0.067
0.276 0.037 0.067
0.283 0.040 0.069
0.283 0.043 0.069
0.281 0.045 0.069
0.280 0.047 0.068
0.277 0.049 0.068
0.292 0.055 0.071
0.291 0.057 0.071
0.285 0.059 0.070
0.284 0.061 0.070
0.288 0.065 0.071
0.289 0.068 0.071
0.284 0.069 0.070
0.278 0.071 0.068
0.270 0.071 0.067
0.264 0.072 0.065
0.263 0.074 0.065
0.273 0.080 0.067
0.278 0.084 0.069
0.287 0.090 0.071
0.289 0.093 0.072
0.294 0.097 0.073
0.295 0.101 0.073
0.296 0.104 0.074
0.297 0.107 0.074
0.296 0.110 0.074
0.296 0.113 0.074
0.292 0.114 0.073
0.289 0.116 0.073
0.290 0.119 0.073
0.297 0.125 0.075
0.287 0.124 0.073
0.270 0.119 0.068
0.258 0.117 0.065
0.296 0.140 0.075
0.293 0.142 0.075
0.286 0.142 0.073
0.284 0.144 0.073
0.289 0.149 0.074
0.290 0.153 0.075
0.294 0.158 0.076
0.298 0.164 0.077
0.298 0.167 0.077
0.291 0.167 0.076
0.288 0.168 0.075
0.286 0.170 0.075
0.285 0.173 0.075
0.283 0.175 0.074
0.281 0.177 0.074
0.280 0.179 0.074
0.276 0.181 0.073
0.272 0.181 0.073
0.269 0.182 0.072
0.266 0.184 0.072
0.264 0.186 0.071
0.263 0.188 0.071
0.262 0.191 0.071
0.260 0.193 0.071
0.259 0.195 0.071
0.259 0.199 0.071
0.259 0.203 0.072
0.260 0.207 0.072
0.260 0.211 0.073
0.258 0.213 0.072
0.254 0.213 0.071
0.253 0.215 0.071
0.252 0.219 0.072
0.250 0.221 0.071
0.246 0.220 0.070
0.238 0.217 0.069
0.235 0.218 0.068
0.233 0.219 0.068
0.226 0.217 0.066
0.223 0.217 0.066
0.219 0.217 0.065
0.211 0.213 0.063
0.208 0.213 0.062
0.207 0.216 0.062
0.202 0.214 0.061
0.202 0.218 0.062
0.212 0.232 0.065
0.212 0.236 0.065
0.205 0.233 0.064
0.201 0.232 0.063
0.216 0.253 0.068
0.211 0.251 0.067
0.208 0.252 0.066
0.203 0.250 0.065
0.197 0.246 0.064
0.200 0.258 0.066
0.203 0.266 0.067
0.205 0.273 0.068
0.100 -0.138 0.034
0.100 -0.137 0.034
0.101 -0.136 0.034
0.102 -0.135 0.034
0.102 -0.134 0.034
0.101 -0.131 0.034
0.102 -0.131 0.034
0.103 -0.129 0.034
0.102 -0.126 0.033
0.102 -0.124 0.033
0.103 -0.124 0.033
0.103 -0.123 0.033
0.104 -0.121 0.033
0.103 -0.119 0.033
0.103 -0.117 0.033
0.103 -0.115 0.032
0.105 -0.115 0.033
0.106 -0.115 0.033
0.105 -0.112 0.033
0.108 -0.114 0.033
0.264 -0.265 0.080
0.272 -0.269 0.082
0.275 -0.268 0.083
0.277 -0.265 0.083
0.276 -0.261 0.082
0.275 -0.256 0.082
0.277 -0.253 0.082
0.277 -0.250 0.081
0.277 -0.245 0.081
0.277 -0.241 0.081
0.277 -0.238 0.080
0.274 -0.231 0.079
0.272 -0.226 0.078
0.265 -0.217 0.076
0.255 -0.205 0.073
0.202 -0.157 0.057
0.199 -0.152 0.056
0.196 -0.148 0.055
0.197 -0.146 0.055
0.205 -0.149 0.057
0.207 -0.148 0.057
0.202 -0.142 0.056
0.200 -0.138 0.055
0.200 -0.136 0.055
0.206 -0.137 0.056
0.206 -0.135 0.056
0.200 -0.129 0.055
0.198 -0.125 0.054
0.202 -0.125 0.055
0.204 -0.124 0.055
0.206 -0.123 0.056
0.172 -0.101 0.046
0.167 -0.096 0.045
0.168 -0.095 0.045
0.168 -0.093 0.045
0.169 -0.092 0.045
0.170 -0.090 0.045
0.171 -0.089 0.045
0.210 -0.105 0.055
0.206 -0.101 0.054
0.206 -0.099 0.054
0.209 -0.098 0.055
0.207 -0.095 0.054
0.209 -0.094 0.055
0.196 -0.086 0.051
0.205 -0.088 0.053
0.211 -0.088 0.055
0.213 -0.087 0.055
0.210 -0.084 0.054
0.205 -0.080 0.053
0.192 -0.073 0.050
0.189 -0.070 0.049
0.186 -0.067 0.048
0.186 -0.065 0.048
0.187 -0.063 0.048
0.189 -0.062 0.049
0.190 -0.061 0.049
0.195 -0.060 0.050
0.208 -0.062 0.053
0.246 -0.072 0.063
0.257 -0.072 0.066
0.313 -0.082 0.080
0.317 -0.080 0.081
0.314 -0.076 0.080
0.307 -0.072 0.078
0.304 -0.068 0.077
0.305 -0.066 0.077
0.302 -0.062 0.077
0.302 -0.059 0.077
0.301 -0.057 0.076
0.302 -0.054 0.076
0.289 -0.049 0.073
0.275 -0.044 0.069
0.275 -0.041 0.069
0.278 -0.039 0.070
0.276 -0.037 0.070
0.281 -0.035 0.071
0.281 -0.032 0.071
0.284 -0.030 0.071
0.284 -0.027 0.072
0.285 -0.025 0.072
0.283 -0.022 0.071
0.280 -0.019 0.070
0.280 -0.017 0.070
0.279 -0.014 0.070
0.279 -0.011 0.070
0.280 -0.009 0.070
0.280 -0.006 0.071
0.284 -0.004 0.071
0.281 -0.001 0.071
0.285 0.001 0.072
0.283 0.004 0.071
0.286 0.006 0.072
0.289 0.009 0.073
0.281 0.012 0.071
0.265 0.013 0.067
0.275 0.016 0.069
0.274 0.019 0.069
0.275 0.021 0.069
0.288 0.025 0.073
0.297 0.028 0.075
0.292 0.031 0.074
0.277 0.032 0.070
0.267 0.033 0.067
0.279 0.037 0.070
0.281 0.040 0.071
0.280 0.042 0.071
0.277 0.044 0.070
0.278 0.047 0.070
0.282 0.050 0.071
0.286 0.054 0.073
0.287 0.057 0.073
0.287 0.059 0.073
0.282 0.061 0.072
0.288 0.065 0.073
0.292 0.069 0.074
0.280 0.069 0.072
0.270 0.069 0.069
0.262 0.069 0.067
0.255 0.070 0.065
0.248 0.070 0.063
0.256 0.075 0.066
0.275 0.083 0.071
0.282 0.088 0.073
0.288 0.093 0.074
0.292 0.097 0.075
0.292 0.100 0.075
0.292 0.103 0.076
0.294 0.106 0.076
0.292 0.108 0.076
0.289 0.110 0.075
0.289 0.113 0.075
0.285 0.115 0.074
0.284 0.117 0.074
0.290 0.122 0.076
0.287 0.124 0.075
0.273 0.121 0.072
0.267 0.121 0.071
0.262 0.121 0.069
0.270 0.128 0.072
0.277 0.134 0.074
0.278 0.138 0.074
0.281 0.142 0.075
0.283 0.146 0.076
0.285 0.150 0.076
0.286 0.154 0.077
0.290 0.159 0.078
0.291 0.163 0.079
0.286 0.164 0.077
0.284 0.166 0.077
0.283 0.169 0.077
0.280 0.170 0.077
0.278 0.172 0.076
0.277 0.175 0.076
0.276 0.177 0.076
0.273 0.179 0.075
0.268 0.179 0.074
0.265 0.180 0.074
0.265 0.183 0.074
0.264 0.186 0.074
0.263 0.188 0.074
0.261 0.190 0.074
0.259 0.192 0.073
0.258 0.195 0.073
0.257 0.198 0.074
0.257 0.202 0.074
0.257 0.205 0.074
0.257 0.208 0.074
0.258 0.213 0.075
0.252 0.211 0.074
0.251 0.214 0.074
0.250 0.217 0.074
0.246 0.217 0.073
0.239 0.215 0.071
0.235 0.214 0.070
0.233 0.216 0.070
0.231 0.218 0.070
0.220 0.212 0.067
0.222 0.217 0.068
0.218 0.217 0.067
0.214 0.217 0.066
0.213 0.219 0.066
0.209 0.218 0.065
0.205 0.218 0.065
0.206 0.223 0.065
0.211 0.232 0.067
0.214 0.239 0.069
0.202 0.230 0.065
0.198 0.228 0.064
0.197 0.232 0.065
0.201 0.240 0.066
0.201 0.244 0.067
0.198 0.244 0.066
0.195 0.244 0.065
0.191 0.243 0.065
0.198 0.256 0.067
0.197 0.259 0.068
0.197 0.263 0.068
0.100 -0.138 0.035
0.100 -0.137 0.035
0.101 -0.136 0.035
0.102 -0.136 0.036
0.102 -0.134 0.035
0.102 -0.133 0.035
0.103 -0.131 0.035
0.103 -0.130 0.035
0.103 -0.128 0.035
0.103 -0.127 0.035
0.103 -0.125 0.035
0.103 -0.123 0.035
0.104 -0.122 0.034
0.104 -0.120 0.034
0.102 -0.116 0.034
0.103 -0.115 0.034
0.104 -0.115 0.034
0.106 -0.115 0.034
0.107 -0.114 0.034
0.107 -0.112 0.034
0.112 -0.116 0.036
0.269 -0.266 0.084
0.271 -0.265 0.085
0.272 -0.262 0.085
0.271 -0.256 0.084
0.272 -0.253 0.084
0.275 -0.252 0.084
0.274 -0.247 0.084
0.274 -0.243 0.083
0.275 -0.240 0.083
0.276 -0.237 0.083
0.275 -0.232 0.082
0.271 -0.226 0.081
0.268 -0.219 0.079
0.258 -0.208 0.076
0.203 -0.155 0.059
0.204 -0.153 0.059
0.207 -0.153 0.060
0.210 -0.153 0.061
0.207 -0.148 0.060
0.202 -0.142 0.058
0.199 -0.137 0.057
0.202 -0.137 0.058
0.206 -0.137 0.059
0.205 -0.135 0.058
0.202 -0.130 0.057
0.201 -0.127 0.057
0.204 -0.126 0.057
0.172 -0.103 0.048
0.168 -0.099 0.047
0.168 -0.097 0.047
0.168 -0.095 0.047
0.169 -0.094 0.047
0.204 -0.109 0.056
0.211 -0.110 0.058
0.207 -0.106 0.057
0.206 -0.103 0.056
0.209 -0.102 0.057
0.207 -0.099 0.056
0.209 -0.098 0.057
0.209 -0.096 0.057
0.210 -0.094 0.057
0.212 -0.093 0.057
0.201 -0.086 0.054
0.212 -0.089 0.057
0.208 -0.085 0.056
0.205 -0.082 0.055
0.203 -0.079 0.054
0.207 -0.078 0.055
0.209 -0.077 0.056
0.207 -0.074 0.055
0.193 -0.067 0.052
0.188 -0.064 0.050
0.189 -0.062 0.050
0.190 -0.061 0.050
0.190 -0.059 0.051
0.191 -0.057 0.051
0.193 -0.056 0.051
0.200 -0.056 0.053
0.296 -0.078 0.078
0.300 -0.076 0.079
0.300 -0.073 0.079
0.290 -0.068 0.076
0.300 -0.068 0.079
0.294 -0.064 0.077
0.293 -0.061 0.077
0.294 -0.058 0.077
0.292 -0.055 0.077
0.289 -0.052 0.076
0.283 -0.048 0.074
0.277 -0.044 0.073
0.273 -0.041 0.071
0.273 -0.039 0.072
0.275 -0.036 0.072
0.276 -0.034 0.072
0.279 -0.032 0.073
0.277 -0.029 0.072
0.280 -0.027 0.073
0.282 -0.024 0.074
0.281 -0.022 0.073
0.281 -0.019 0.073
0.281 -0.017 0.073
0.282 -0.014 0.074
0.281 -0.012 0.073
0.282 -0.009 0.074
0.282 -0.006 0.074
0.279 -0.004 0.073
0.281 -0.001 0.073
0.282 0.001 0.074
0.282 0.004 0.073
0.282 0.006 0.074
0.282 0.009 0.073
0.278 0.011 0.073
0.279 0.014 0.073
0.273 0.016 0.071
0.260 0.018 0.068
0.278 0.022 0.073
0.284 0.025 0.074
0.295 0.028 0.077
0.290 0.031 0.076
0.272 0.031 0.071
0.269 0.033 0.071
0.279 0.037 0.073
0.279 0.040 0.073
0.276 0.042 0.072
0.276 0.044 0.072
0.276 0.047 0.073
0.279 0.050 0.073
0.282 0.053 0.074
0.287 0.057 0.076
0.284 0.059 0.075
0.284 0.062 0.075
0.286 0.065 0.075
0.290 0.068 0.077
0.265 0.065 0.070
0.250 0.064 0.066
0.263 0.069 0.070
0.254 0.070 0.068
0.247 0.070 0.066
0.253 0.074 0.067
0.290 0.091 0.077
0.292 0.094 0.078
0.286 0.095 0.077
0.283 0.097 0.076
0.287 0.101 0.077
0.285 0.103 0.077
0.283 0.105 0.076
0.283 0.108 0.076
0.284 0.111 0.077
0.283 0.114 0.077
0.280 0.115 0.076
0.280 0.118 0.076
0.281 0.122 0.076
0.276 0.122 0.075
0.270 0.123 0.074
0.265 0.123 0.073
0.261 0.124 0.072
0.269 0.131 0.074
0.270 0.134 0.074
0.275 0.140 0.076
0.278 0.144 0.077
0.277 0.147 0.077
0.279 0.151 0.078
0.278 0.153 0.078
0.280 0.157 0.078
0.281 0.161 0.079
0.279 0.163 0.079
0.274 0.164 0.078
0.275 0.167 0.078
0.273 0.169 0.078
0.272 0.172 0.077
0.264 0.170 0.075
0.266 0.174 0.076
0.264 0.177 0.076
0.260 0.177 0.075
0.260 0.180 0.075
0.260 0.183 0.076
0.261 0.187 0.076
0.257 0.188 0.075
0.256 0.190 0.075
0.255 0.193 0.075
0.255 0.196 0.075
0.254 0.199 0.076
0.253 0.202 0.076
0.252 0.205 0.076
0.251 0.208 0.076
0.250 0.210 0.076
0.249 0.213 0.076
0.247 0.215 0.076
0.242 0.214 0.075
0.235 0.212 0.073
0.231 0.211 0.072
0.230 0.214 0.072
0.227 0.214 0.071
0.229 0.220 0.072
0.218 0.213 0.069
0.218 0.217 0.070
0.213 0.215 0.068
0.205 0.211 0.066
0.206 0.215 0.067
0.208 0.221 0.068
0.204 0.220 0.067
0.202 0.223 0.067
0.205 0.229 0.068
0.204 0.232 0.069
0.200 0.231 0.067
0.196 0.230 0.066
0.194 0.232 0.066
0.197 0.239 0.068
0.198 0.244 0.068
0.196 0.246 0.068
0.196 0.250 0.069
0.194 0.250 0.068
0.194 0.254 0.069
0.199 0.265 0.071
0.100 -0.137 0.036
0.101 -0.137 0.037
0.102 -0.136 0.037
0.102 -0.134 0.036
0.102 -0.132 0.036
0.102 -0.131 0.036
0.103 -0.130 0.037
0.104 -0.129 0.037
0.104 -0.128 0.037
0.105 -0.127 0.036
0.103 -0.123 0.036
0.103 -0.121 0.036
0.104 -0.120 0.036
0.104 -0.118 0.035
0.103 -0.116 0.035
0.104 -0.115 0.035
0.108 -0.118 0.036
0.108 -0.116 0.036
0.108 -0.114 0.036
0.109 -0.113 0.036
0.116 -0.119 0.038
0.267 -0.260 0.086
0.268 -0.257 0.086
0.268 -0.253 0.086
0.268 -0.250 0.086
0.270 -0.248 0.086
0.272 -0.246 0.086
0.272 -0.242 0.086
0.272 -0.238 0.085
0.273 -0.235 0.085
0.272 -0.230 0.084
0.270 -0.225 0.083
0.267 -0.218 0.082
0.262 -0.211 0.080
0.206 -0.158 0.063
0.203 -0.153 0.061
0.207 -0.153 0.062
0.207 -0.151 0.062
0.206 -0.148 0.062
0.203 -0.143 0.060
0.199 -0.138 0.059
0.200 -0.136 0.059
0.203 -0.136 0.060
0.205 -0.135 0.060
0.203 -0.131 0.060
0.203 -0.129 0.059
0.178 -0.111 0.052
0.171 -0.105 0.050
0.170 -0.102 0.049
0.171 -0.100 0.049
0.173 -0.100 0.050
0.206 -0.115 0.059
0.209 -0.114 0.060
0.210 -0.112 0.060
0.209 -0.109 0.060
0.207 -0.106 0.059
0.201 -0.101 0.057
0.205 -0.100 0.058
0.208 -0.100 0.059
0.206 -0.097 0.058
0.207 -0.095 0.058
0.209 -0.094 0.059
0.211 -0.093 0.059
0.197 -0.085 0.055
0.208 -0.087 0.058
0.206 -0.084 0.057
0.204 -0.081 0.057
0.204 -0.079 0.057
0.206 -0.078 0.057
0.210 -0.078 0.058
0.212 -0.076 0.059
0.218 -0.076 0.060
0.221 -0.075 0.061
0.216 -0.071 0.060
0.195 -0.063 0.054
0.190 -0.059 0.052
0.191 -0.058 0.053
0.192 -0.056 0.053
0.193 -0.054 0.053
0.194 -0.053 0.053
0.196 -0.051 0.054
0.208 -0.053 0.057
0.213 -0.052 0.058
0.280 -0.061 0.076
0.290 -0.060 0.079
0.289 -0.057 0.079
0.285 -0.054 0.078
0.281 -0.050 0.076
0.278 -0.047 0.075
0.275 -0.044 0.075
0.273 -0.041 0.074
0.272 -0.039 0.074
0.272 -0.036 0.074
0.274 -0.034 0.074
0.272 -0.031 0.074
0.273 -0.029 0.074
0.277 -0.027 0.075
0.279 -0.024 0.076
0.279 -0.022 0.075
0.279 -0.019 0.075
0.279 -0.017 0.075
0.279 -0.014 0.075
0.281 -0.012 0.076
0.285 -0.009 0.077
0.280 -0.006 0.076
0.282 -0.004 0.076
0.284 -0.001 0.077
0.281 0.001 0.076
0.281 0.004 0.076
0.281 0.006 0.076
0.280 0.009 0.076
0.280 0.011 0.076
0.275 0.014 0.075
0.269 0.016 0.073
0.263 0.018 0.071
0.262 0.020 0.071
0.271 0.024 0.073
0.278 0.027 0.075
0.277 0.029 0.075
0.273 0.031 0.074
0.275 0.034 0.075
0.278 0.037 0.075
0.274 0.039 0.074
0.273 0.041 0.074
0.274 0.044 0.074
0.277 0.047 0.076
0.279 0.050 0.076
0.283 0.053 0.077
0.285 0.056 0.078
0.289 0.060 0.079
0.285 0.062 0.078
0.283 0.064 0.077
0.280 0.066 0.077
0.270 0.066 0.074
0.246 0.063 0.068
0.245 0.065 0.067
0.256 0.070 0.070
0.252 0.071 0.069
0.259 0.076 0.071
0.276 0.084 0.076
0.290 0.091 0.080
0.290 0.094 0.080
0.284 0.094 0.079
0.278 0.095 0.077
0.278 0.098 0.077
0.276 0.100 0.077
0.273 0.102 0.076
0.276 0.106 0.077
0.280 0.110 0.078
0.276 0.111 0.077
0.274 0.113 0.077
0.274 0.116 0.077
0.273 0.118 0.077
0.271 0.120 0.077
0.266 0.121 0.075
0.262 0.122 0.074
0.269 0.128 0.077
0.261 0.127 0.074
0.268 0.133 0.077
0.267 0.136 0.077
0.261 0.135 0.075
0.262 0.139 0.075
0.268 0.145 0.077
0.271 0.150 0.078
0.270 0.152 0.078
0.265 0.152 0.077
0.266 0.156 0.078
0.264 0.158 0.077
0.263 0.160 0.077
0.258 0.160 0.076
0.257 0.163 0.076
0.255 0.165 0.076
0.256 0.168 0.076
0.255 0.170 0.076
0.258 0.175 0.077
0.257 0.178 0.077
0.256 0.181 0.077
0.253 0.182 0.077
0.253 0.186 0.077
0.253 0.188 0.077
0.252 0.191 0.077
0.252 0.194 0.077
0.251 0.197 0.077
0.249 0.199 0.077
0.250 0.203 0.078
0.249 0.206 0.078
0.248 0.209 0.078
0.246 0.211 0.078
0.243 0.211 0.077
0.238 0.211 0.076
0.232 0.209 0.074
0.224 0.206 0.072
0.218 0.204 0.071
0.218 0.207 0.071
0.212 0.204 0.069
0.218 0.214 0.072
0.211 0.210 0.070
0.205 0.208 0.068
0.199 0.206 0.067
0.199 0.208 0.067
0.203 0.216 0.069
0.204 0.221 0.069
0.199 0.219 0.068
0.202 0.226 0.070
0.204 0.233 0.071
0.201 0.233 0.070
0.198 0.233 0.070
0.199 0.238 0.071
0.197 0.240 0.070
0.198 0.245 0.071
0.198 0.249 0.072
0.194 0.248 0.071
0.190 0.246 0.069
0.190 0.250 0.070
0.193 0.257 0.071
0.100 -0.137 0.038
0.101 -0.137 0.038
0.102 -0.136 0.038
0.102 -0.134 0.038
0.101 -0.132 0.037
0.102 -0.131 0.038
0.103 -0.130 0.038
0.104 -0.129 0.038
0.104 -0.128 0.038
0.104 -0.126 0.037
0.103 -0.123 0.037
0.104 -0.122 0.037
0.104 -0.120 0.037
0.104 -0.119 0.037
0.104 -0.117 0.037
0.105 -0.117 0.037
0.110 -0.120 0.038
0.108 -0.116 0.037
0.103 -0.109 0.035
0.109 -0.114 0.037
0.104 -0.107 0.035
0.261 -0.255 0.087
0.263 -0.253 0.088
0.262 -0.248 0.087
0.263 -0.246 0.087
0.266 -0.245 0.087
0.268 -0.243 0.088
0.269 -0.240 0.088
0.269 -0.236 0.087
0.268 -0.231 0.086
0.267 -0.227 0.086
0.266 -0.222 0.085
0.264 -0.217 0.084
0.259 -0.209 0.082
0.252 -0.200 0.080
0.205 -0.157 0.064
0.200 -0.151 0.062
0.203 -0.151 0.063
0.207 -0.151 0.064
0.205 -0.147 0.063
0.206 -0.145 0.064
0.201 -0.140 0.062
0.199 -0.136 0.061
0.204 -0.136 0.062
0.206 -0.135 0.063
0.204 -0.132 0.062
0.185 -0.117 0.056
0.174 -0.108 0.052
0.171 -0.104 0.051
0.171 -0.102 0.051
0.177 -0.105 0.053
0.206 -0.119 0.062
0.205 -0.116 0.061
0.206 -0.114 0.061
0.206 -0.112 0.061
0.206 -0.110 0.061
0.203 -0.106 0.060
0.207 -0.106 0.061
0.203 -0.102 0.060
0.202 -0.099 0.059
0.206 -0.099 0.060
0.205 -0.097 0.060
0.206 -0.095 0.060
0.207 -0.093 0.060
0.208 -0.092 0.061
0.211 -0.091 0.061
0.196 -0.082 0.057
0.215 -0.088 0.062
0.212 -0.085 0.061
0.207 -0.080 0.060
0.206 -0.078 0.059
0.209 -0.077 0.060
0.213 -0.077 0.061
0.215 -0.075 0.062
0.223 -0.076 0.064
0.224 -0.074 0.064
0.229 -0.073 0.065
0.236 -0.073 0.067
0.203 -0.061 0.058
0.194 -0.057 0.055
0.193 -0.054 0.055
0.193 -0.053 0.055
0.194 -0.051 0.055
0.196 -0.050 0.056
0.198 -0.048 0.056
0.199 -0.047 0.056
0.201 -0.045 0.057
0.201 -0.043 0.057
0.210 -0.043 0.059
0.211 -0.042 0.059
0.274 -0.044 0.077
0.273 -0.041 0.077
0.271 -0.038 0.076
0.270 -0.036 0.076
0.271 -0.033 0.076
0.271 -0.031 0.076
0.272 -0.029 0.076
0.274 -0.026 0.077
0.276 -0.024 0.077
0.276 -0.021 0.077
0.275 -0.019 0.077
0.275 -0.016 0.077
0.274 -0.014 0.077
0.278 -0.011 0.078
0.280 -0.009 0.078
0.279 -0.006 0.078
0.279 -0.004 0.078
0.281 -0.001 0.079
0.278 0.001 0.078
0.277 0.004 0.077
0.279 0.006 0.078
0.281 0.009 0.079
0.279 0.011 0.078
0.272 0.014 0.076
0.262 0.016 0.073
0.258 0.020 0.072
0.258 0.022 0.072
0.260 0.025 0.073
0.266 0.028 0.075
0.272 0.031 0.076
0.276 0.034 0.077
0.274 0.036 0.077
0.278 0.040 0.078
0.272 0.041 0.076
0.272 0.044 0.076
0.283 0.048 0.080
0.286 0.051 0.081
0.285 0.054 0.080
0.288 0.057 0.081
0.291 0.060 0.082
0.286 0.062 0.081
0.279 0.063 0.079
0.269 0.063 0.076
0.252 0.062 0.071
0.240 0.061 0.068
0.238 0.063 0.068
0.247 0.068 0.070
0.257 0.073 0.073
0.268 0.079 0.076
0.276 0.084 0.079
0.283 0.089 0.081
0.287 0.093 0.082
0.278 0.093 0.080
0.271 0.093 0.078
0.271 0.096 0.078
0.270 0.098 0.078
0.267 0.099 0.077
0.264 0.101 0.076
0.263 0.103 0.076
0.265 0.107 0.077
0.267 0.110 0.078
0.267 0.113 0.078
0.266 0.115 0.078
0.260 0.116 0.076
0.256 0.116 0.075
0.255 0.119 0.075
0.255 0.121 0.075
0.257 0.125 0.076
0.263 0.131 0.078
0.264 0.134 0.078
0.259 0.135 0.077
0.258 0.137 0.077
0.261 0.141 0.078
0.262 0.145 0.079
0.260 0.147 0.078
0.257 0.148 0.077
0.252 0.148 0.076
0.252 0.151 0.076
0.251 0.153 0.076
0.250 0.156 0.076
0.248 0.157 0.076
0.250 0.161 0.077
0.249 0.164 0.077
0.253 0.170 0.078
0.255 0.174 0.079
0.255 0.177 0.079
0.249 0.176 0.078
0.250 0.180 0.078
0.250 0.183 0.079
0.249 0.186 0.079
0.248 0.189 0.079
0.249 0.192 0.079
0.248 0.195 0.079
0.248 0.198 0.079
0.247 0.201 0.080
0.246 0.204 0.080
0.242 0.204 0.079
0.237 0.203 0.077
0.233 0.204 0.077
0.230 0.204 0.076
0.222 0.200 0.074
0.211 0.194 0.070
0.208 0.194 0.070
0.209 0.198 0.070
0.210 0.203 0.071
0.208 0.204 0.071
0.207 0.207 0.071
0.203 0.206 0.070
0.195 0.201 0.068
0.191 0.200 0.067
0.197 0.210 0.069
0.200 0.217 0.071
0.202 0.223 0.072
0.203 0.228 0.073
0.202 0.231 0.073
0.197 0.228 0.071
0.198 0.234 0.072
0.199 0.239 0.073
0.201 0.245 0.074
0.201 0.249 0.075
0.194 0.244 0.073
0.189 0.241 0.071
0.189 0.245 0.071
0.188 0.248 0.072
0.194 0.259 0.074
0.100 -0.138 0.039
0.102 -0.137 0.039
0.102 -0.137 0.039
0.103 -0.135 0.039
0.102 -0.132 0.039
0.103 -0.132 0.039
0.103 -0.130 0.039
0.103 -0.129 0.039
0.105 -0.129 0.039
0.106 -0.128 0.039
0.104 -0.124 0.039
0.104 -0.123 0.038
0.105 -0.122 0.039
0.105 -0.120 0.038
0.105 -0.118 0.038
0.108 -0.120 0.039
0.107 -0.117 0.039
0.104 -0.112 0.037
0.101 -0.107 0.036
0.107 -0.112 0.038
0.115 -0.119 0.041
0.116 -0.118 0.041
0.122 -0.121 0.042
0.255 -0.246 0.088
0.257 -0.245 0.088
0.260 -0.243 0.089
0.262 -0.241 0.089
0.264 -0.239 0.089
0.264 -0.235 0.089
0.262 -0.230 0.088
0.264 -0.228 0.088
0.263 -0.224 0.087
0.262 -0.219 0.087
0.261 -0.215 0.086
0.259 -0.210 0.085
0.253 -0.201 0.083
0.200 -0.154 0.065
0.200 -0.151 0.065
0.204 -0.152 0.066
0.204 -0.149 0.066
0.206 -0.148 0.066
0.205 -0.145 0.065
0.202 -0.140 0.064
0.200 -0.137 0.063
0.202 -0.136 0.064
0.204 -0.135 0.064
0.182 -0.118 0.057
0.175 -0.111 0.055
0.175 -0.109 0.055
0.175 -0.107 0.054
0.195 -0.117 0.060
0.207 -0.122 0.064
0.210 -0.121 0.065
0.210 -0.119 0.065
0.208 -0.116 0.064
0.207 -0.113 0.064
0.206 -0.110 0.063
0.204 -0.107 0.062
0.209 -0.107 0.064
0.206 -0.104 0.063
0.204 -0.100 0.062
0.206 -0.099 0.062
0.209 -0.098 0.063
0.207 -0.096 0.063
0.212 -0.095 0.064
0.209 -0.092 0.063
0.209 -0.090 0.063
0.211 -0.089 0.063
0.208 -0.085 0.062
0.212 -0.085 0.063
0.209 -0.081 0.062
0.206 -0.078 0.061
0.202 -0.075 0.060
0.206 -0.074 0.061
0.219 -0.077 0.065
0.221 -0.075 0.065
0.226 -0.075 0.067
0.231 -0.074 0.068
0.230 -0.072 0.068
0.234 -0.071 0.069
0.238 -0.070 0.070
0.240 -0.068 0.071
0.201 -0.051 0.059
0.199 -0.049 0.058
0.199 -0.047 0.058
0.200 -0.045 0.058
0.200 -0.043 0.058
0.200 -0.041 0.058
0.203 -0.040 0.059
0.205 -0.039 0.060
0.207 -0.037 0.060
0.209 -0.035 0.061
0.210 -0.034 0.061
0.217 -0.033 0.063
0.222 -0.032 0.064
0.268 -0.033 0.078
0.272 -0.031 0.079
0.270 -0.028 0.078
0.271 -0.026 0.078
0.273 -0.024 0.079
0.274 -0.021 0.079
0.273 -0.019 0.079
0.271 -0.016 0.078
0.271 -0.014 0.078
0.275 -0.011 0.080
0.277 -0.009 0.080
0.277 -0.006 0.080
0.276 -0.004 0.080
0.275 -0.001 0.080
0.275 0.001 0.079
0.276 0.004 0.080
0.277 0.006 0.080
0.275 0.009 0.080
0.275 0.011 0.080
0.269 0.014 0.078
0.262 0.016 0.076
0.257 0.018 0.074
0.255 0.020 0.074
0.253 0.022 0.073
0.254 0.024 0.074
0.259 0.027 0.075
0.272 0.031 0.079
0.275 0.034 0.080
0.278 0.037 0.081
0.277 0.039 0.080
0.275 0.042 0.080
0.276 0.044 0.080
0.280 0.048 0.081
0.284 0.051 0.083
0.284 0.054 0.083
0.280 0.056 0.082
0.282 0.059 0.083
0.280 0.061 0.082
0.271 0.062 0.079
0.255 0.060 0.075
0.238 0.059 0.070
0.241 0.062 0.071
0.241 0.064 0.071
0.247 0.068 0.073
0.260 0.074 0.077
0.270 0.079 0.080
0.275 0.084 0.081
0.285 0.090 0.084
0.280 0.091 0.083
0.268 0.089 0.080
0.264 0.091 0.079
0.263 0.093 0.078
0.264 0.096 0.079
0.261 0.097 0.078
0.258 0.099 0.077
0.255 0.100 0.076
0.253 0.102 0.076
0.254 0.105 0.076
0.259 0.110 0.078
0.256 0.111 0.077
0.250 0.111 0.076
0.252 0.115 0.076
0.252 0.117 0.077
0.253 0.120 0.077
0.254 0.124 0.077
0.256 0.128 0.078
0.256 0.130 0.078
0.252 0.131 0.078
0.257 0.137 0.079
0.255 0.138 0.079
0.255 0.141 0.079
0.252 0.142 0.078
0.250 0.144 0.078
0.248 0.145 0.077
0.246 0.148 0.077
0.247 0.151 0.078
0.248 0.154 0.078
0.246 0.156 0.078
0.245 0.159 0.078
0.247 0.163 0.079
0.255 0.171 0.082
0.254 0.174 0.081
0.249 0.173 0.080
0.246 0.174 0.079
0.248 0.179 0.080
0.247 0.181 0.080
0.245 0.183 0.080
0.247 0.188 0.081
0.248 0.192 0.082
0.247 0.195 0.082
0.244 0.196 0.081
0.241 0.197 0.080
0.229 0.190 0.077
0.219 0.185 0.074
0.218 0.187 0.074
0.219 0.191 0.074
0.214 0.191 0.073
0.206 0.186 0.071
0.200 0.184 0.069
0.199 0.186 0.069
0.202 0.193 0.071
0.204 0.198 0.072
0.205 0.201 0.072
0.204 0.204 0.072
0.202 0.206 0.072
0.194 0.201 0.070
0.191 0.201 0.069
0.196 0.209 0.071
0.199 0.217 0.073
0.200 0.221 0.074
0.203 0.229 0.075
0.204 0.233 0.076
0.199 0.232 0.075
0.189 0.223 0.071
0.198 0.238 0.075
0.201 0.245 0.077
0.198 0.246 0.076
0.194 0.245 0.075
0.191 0.245 0.074
0.188 0.245 0.074
0.190 0.250 0.075
0.184 0.247 0.073
0.101 -0.137 0.041
0.102 -0.137 0.041
0.102 -0.134 0.040
0.102 -0.133 0.040
0.103 -0.133 0.041
0.105 -0.133 0.041
0.104 -0.130 0.040
0.105 -0.130 0.041
0.106 -0.129 0.041
0.104 -0.125 0.040
0.104 -0.123 0.040
0.105 -0.122 0.040
0.105 -0.121 0.040
0.106 -0.119 0.040
0.108 -0.120 0.040
0.104 -0.114 0.038
0.104 -0.113 0.039
0.099 -0.105 0.036
0.110 -0.115 0.040
0.119 -0.123 0.043
0.116 -0.117 0.042
0.116 -0.115 0.042
0.117 -0.115 0.042
0.254 -0.242 0.090
0.256 -0.240 0.090
0.257 -0.237 0.090
0.259 -0.235 0.090
0.252 -0.225 0.088
0.257 -0.226 0.089
0.259 -0.224 0.089
0.258 -0.220 0.089
0.259 -0.217 0.088
0.259 -0.213 0.088
0.257 -0.208 0.087
0.246 -0.196 0.083
0.205 -0.158 0.069
0.203 -0.154 0.068
0.206 -0.153 0.068
0.205 -0.150 0.068
0.205 -0.148 0.068
0.203 -0.144 0.067
0.201 -0.140 0.066
0.201 -0.137 0.066
0.201 -0.135 0.066
0.197 -0.130 0.064
0.181 -0.117 0.059
0.176 -0.112 0.057
0.176 -0.110 0.057
0.197 -0.121 0.063
0.204 -0.123 0.065
0.207 -0.122 0.066
0.210 -0.122 0.067
0.212 -0.120 0.067
0.211 -0.118 0.067
0.209 -0.114 0.066
0.207 -0.111 0.065
0.208 -0.109 0.065
0.207 -0.106 0.065
0.204 -0.103 0.064
0.203 -0.100 0.064
0.205 -0.099 0.064
0.205 -0.097 0.064
0.207 -0.096 0.065
0.207 -0.094 0.064
0.209 -0.092 0.065
0.207 -0.089 0.064
0.206 -0.087 0.064
0.204 -0.084 0.063
0.208 -0.083 0.064
0.207 -0.081 0.064
0.201 -0.076 0.062
0.200 -0.074 0.061
0.205 -0.074 0.063
0.217 -0.076 0.066
0.220 -0.075 0.067
0.224 -0.074 0.068
0.229 -0.074 0.070
0.232 -0.072 0.071
0.233 -0.070 0.071
0.238 -0.070 0.072
0.241 -0.068 0.073
0.254 -0.069 0.077
0.276 -0.073 0.083
0.277 -0.070 0.084
0.273 -0.067 0.082
0.264 -0.062 0.080
0.214 -0.044 0.064
0.209 -0.041 0.063
0.208 -0.039 0.063
0.208 -0.037 0.062
0.208 -0.035 0.062
0.209 -0.034 0.063
0.210 -0.032 0.063
0.211 -0.030 0.063
0.213 -0.028 0.064
0.215 -0.027 0.064
0.216 -0.025 0.065
0.228 -0.024 0.068
0.260 -0.025 0.078
0.271 -0.024 0.081
0.271 -0.021 0.081
0.270 -0.019 0.081
0.269 -0.016 0.080
0.270 -0.014 0.081
0.271 -0.011 0.081
0.274 -0.009 0.082
0.274 -0.006 0.082
0.272 -0.004 0.081
0.271 -0.001 0.081
0.272 0.001 0.081
0.276 0.004 0.082
0.272 0.006 0.081
0.279 0.009 0.083
0.280 0.012 0.084
0.272 0.014 0.081
0.268 0.016 0.080
0.260 0.018 0.078
0.260 0.020 0.078
0.261 0.023 0.078
0.257 0.025 0.077
0.259 0.027 0.078
0.268 0.031 0.080
0.274 0.034 0.082
0.276 0.037 0.083
0.274 0.039 0.082
0.274 0.042 0.082
0.277 0.045 0.083
0.280 0.048 0.084
0.278 0.050 0.084
0.277 0.052 0.084
0.277 0.055 0.083
0.273 0.057 0.082
0.269 0.059 0.081
0.234 0.058 0.071
0.243 0.062 0.074
0.252 0.067 0.077
0.261 0.072 0.079
0.270 0.077 0.082
0.276 0.081 0.084
0.281 0.086 0.086
0.286 0.090 0.087
0.278 0.090 0.085
0.265 0.089 0.081
0.247 0.085 0.076
0.246 0.087 0.076
0.252 0.091 0.077
0.254 0.095 0.078
0.251 0.097 0.078
0.248 0.098 0.077
0.245 0.099 0.076
0.242 0.100 0.075
0.244 0.103 0.076
0.247 0.107 0.077
0.246 0.110 0.077
0.247 0.113 0.077
0.250 0.117 0.078
0.248 0.119 0.078
0.251 0.122 0.079
0.247 0.123 0.078
0.246 0.126 0.078
0.246 0.128 0.078
0.246 0.131 0.078
0.246 0.134 0.079
0.246 0.137 0.079
0.248 0.141 0.080
0.248 0.143 0.080
0.248 0.146 0.080
0.246 0.148 0.080
0.247 0.151 0.080
0.248 0.155 0.081
0.245 0.156 0.080
0.243 0.157 0.080
0.244 0.161 0.080
0.250 0.168 0.083
0.251 0.172 0.083
0.245 0.171 0.082
0.245 0.174 0.082
0.246 0.178 0.082
0.245 0.180 0.082
0.243 0.182 0.082
0.248 0.189 0.084
0.248 0.193 0.084
0.245 0.194 0.084
0.238 0.191 0.082
0.228 0.187 0.079
0.219 0.183 0.076
0.214 0.181 0.074
0.207 0.178 0.072
0.207 0.181 0.073
0.209 0.186 0.074
0.200 0.181 0.071
0.193 0.178 0.069
0.194 0.182 0.069
0.198 0.189 0.071
0.198 0.192 0.072
0.200 0.197 0.073
0.204 0.205 0.075
0.203 0.208 0.075
0.196 0.203 0.073
0.192 0.203 0.072
0.195 0.209 0.073
0.195 0.213 0.074
0.195 0.216 0.074
0.199 0.225 0.076
0.204 0.234 0.079
0.200 0.233 0.077
0.194 0.229 0.075
0.198 0.238 0.078
0.199 0.243 0.078
0.197 0.244 0.078
0.195 0.247 0.078
0.195 0.250 0.079
0.193 0.251 0.078
0.191 0.252 0.078
0.188 0.252 0.077
0.102 -0.138 0.042
0.102 -0.136 0.042
0.103 -0.136 0.042
0.103 -0.134 0.042
0.104 -0.134 0.042
0.105 -0.133 0.042
0.105 -0.131 0.042
0.105 -0.130 0.042
0.106 -0.128 0.042
0.105 -0.126 0.042
0.105 -0.124 0.041
0.104 -0.121 0.041
0.111 -0.128 0.043
0.113 -0.127 0.044
0.106 -0.118 0.041
0.103 -0.113 0.040
0.099 -0.107 0.038
0.099 -0.105 0.038
0.104 -0.109 0.039
0.117 -0.120 0.044
0.114 -0.115 0.042
0.110 -0.110 0.041
0.111 -0.109 0.041
0.239 -0.228 0.087
0.246 -0.231 0.090
0.250 -0.231 0.090
0.250 -0.227 0.090
0.248 -0.222 0.089
0.250 -0.220 0.089
0.253 -0.219 0.090
0.254 -0.216 0.090
0.254 -0.213 0.090
0.255 -0.210 0.090
0.247 -0.201 0.087
0.243 -0.194 0.085
0.235 -0.184 0.082
0.216 -0.166 0.075
0.204 -0.155 0.070
0.202 -0.151 0.070
0.206 -0.151 0.071
0.203 -0.147 0.069
0.202 -0.143 0.069
0.202 -0.140 0.068
0.206 -0.141 0.070
0.197 -0.133 0.066
0.186 -0.123 0.063
0.178 -0.116 0.060
0.178 -0.113 0.059
0.193 -0.121 0.064
0.201 -0.123 0.067
0.201 -0.121 0.067
0.204 -0.120 0.067
0.209 -0.121 0.069
0.213 -0.121 0.070
0.216 -0.120 0.071
0.211 -0.116 0.069
0.207 -0.111 0.068
0.207 -0.109 0.067
0.208 -0.107 0.067
0.203 -0.102 0.066
0.202 -0.100 0.065
0.202 -0.098 0.065
0.202 -0.095 0.065
0.204 -0.094 0.065
0.205 -0.093 0.066
0.206 -0.091 0.066
0.211 -0.091 0.068
0.202 -0.085 0.064
0.203 -0.084 0.065
0.205 -0.082 0.065
0.205 -0.080 0.065
0.199 -0.076 0.063
0.201 -0.075 0.064
0.208 -0.075 0.066
0.213 -0.075 0.067
0.217 -0.074 0.068
0.221 -0.073 0.070
0.226 -0.073 0.071
0.230 -0.072 0.072
0.234 -0.071 0.073
0.239 -0.070 0.075
0.247 -0.070 0.077
0.258 -0.071 0.081
0.272 -0.072 0.085
0.273 -0.070 0.085
0.273 -0.067 0.085
0.270 -0.064 0.084
0.268 -0.061 0.083
0.267 -0.058 0.083
0.265 -0.055 0.082
0.264 -0.052 0.082
0.265 -0.050 0.082
0.264 -0.047 0.082
0.261 -0.044 0.081
0.223 -0.032 0.069
0.215 -0.029 0.066
0.214 -0.027 0.066
0.215 -0.025 0.066
0.217 -0.023 0.067
0.218 -0.021 0.067
0.220 -0.019 0.068
0.267 -0.018 0.082
0.268 -0.016 0.083
0.267 -0.013 0.082
0.267 -0.011 0.082
0.268 -0.009 0.083
0.270 -0.006 0.083
0.269 -0.004 0.083
0.269 -0.001 0.083
0.269 0.001 0.083
0.271 0.004 0.083
0.286 0.007 0.088
0.286 0.009 0.088
0.278 0.011 0.086
0.272 0.014 0.084
0.256 0.015 0.079
0.253 0.017 0.078
0.264 0.021 0.082
0.270 0.024 0.084
0.267 0.026 0.082
0.264 0.028 0.082
0.266 0.031 0.082
0.271 0.034 0.084
0.269 0.036 0.083
0.270 0.039 0.084
0.273 0.042 0.085
0.276 0.045 0.086
0.276 0.047 0.086
0.275 0.050 0.085
0.277 0.052 0.086
0.274 0.054 0.085
0.262 0.055 0.082
0.250 0.055 0.078
0.220 0.050 0.069
0.214 0.051 0.067
0.229 0.057 0.072
0.239 0.061 0.075
0.248 0.066 0.078
0.261 0.072 0.082
0.266 0.076 0.084
0.274 0.081 0.086
0.279 0.085 0.088
0.275 0.087 0.087
0.273 0.088 0.086
0.264 0.088 0.083
0.241 0.083 0.076
0.241 0.085 0.076
0.244 0.089 0.078
0.245 0.092 0.078
0.245 0.094 0.078
0.244 0.096 0.078
0.240 0.097 0.077
0.239 0.099 0.077
0.239 0.101 0.077
0.241 0.105 0.078
0.242 0.108 0.078
0.242 0.111 0.078
0.242 0.113 0.078
0.240 0.115 0.078
0.240 0.117 0.078
0.242 0.121 0.079
0.242 0.124 0.079
0.243 0.127 0.080
0.242 0.129 0.080
0.242 0.131 0.080
0.240 0.133 0.079
0.244 0.138 0.081
0.247 0.143 0.082
0.246 0.145 0.082
0.246 0.148 0.082
0.248 0.152 0.083
0.245 0.153 0.082
0.241 0.154 0.081
0.240 0.156 0.081
0.242 0.160 0.082
0.246 0.166 0.084
0.246 0.169 0.084
0.243 0.170 0.083
0.241 0.172 0.083
0.242 0.175 0.083
0.243 0.179 0.084
0.243 0.183 0.085
0.240 0.184 0.084
0.243 0.189 0.085
0.237 0.187 0.084
0.213 0.175 0.076
0.211 0.176 0.075
0.205 0.173 0.073
0.201 0.174 0.073
0.204 0.179 0.074
0.207 0.185 0.076
0.201 0.183 0.074
0.189 0.175 0.070
0.189 0.177 0.070
0.192 0.184 0.072
0.191 0.186 0.072
0.196 0.193 0.074
0.201 0.202 0.076
0.202 0.206 0.077
0.198 0.206 0.076
0.194 0.206 0.075
0.194 0.209 0.075
0.195 0.213 0.076
0.195 0.217 0.076
0.196 0.221 0.077
0.203 0.233 0.081
0.201 0.235 0.080
0.197 0.234 0.079
0.200 0.241 0.081
0.199 0.243 0.081
0.195 0.243 0.080
0.195 0.247 0.081
0.197 0.253 0.082
0.195 0.254 0.081
0.193 0.255 0.081
0.192 0.258 0.081
0.102 -0.139 0.043
0.102 -0.137 0.043
0.102 -0.135 0.043
0.104 -0.135 0.044
0.105 -0.135 0.044
0.104 -0.133 0.043
0.105 -0.132 0.043
0.105 -0.130 0.043
0.105 -0.128 0.043
0.105 -0.126 0.043
0.105 -0.124 0.042
