VERSION .7
FIELDS x y z
SIZE 4 4 4
TYPE F F F
COUNT 1 1 1
WIDTH     2586
HEIGHT 1
VIEWPOINT 0 0 0 1 0 0 0
POINTS     2586
DATA ascii
0.305 0.184 0.062
0.300 0.184 0.061
0.295 0.184 0.060
0.290 0.185 0.059
0.286 0.185 0.059
0.280 0.185 0.058
0.275 0.185 0.057
0.270 0.185 0.056
0.266 0.185 0.055
0.263 0.187 0.055
0.262 0.189 0.055
0.261 0.192 0.055
0.259 0.194 0.055
0.260 0.198 0.055
0.260 0.202 0.055
0.260 0.205 0.055
0.260 0.209 0.056
0.259 0.212 0.056
0.258 0.214 0.056
0.258 0.218 0.056
0.258 0.222 0.056
0.257 0.225 0.056
0.257 0.229 0.057
0.257 0.232 0.057
0.255 0.235 0.057
0.255 0.239 0.057
0.255 0.242 0.057
0.255 0.247 0.058
0.255 0.250 0.058
0.253 0.253 0.058
0.261 0.265 0.060
0.258 0.266 0.060
0.254 0.267 0.059
0.254 0.271 0.060
0.256 0.279 0.061
0.259 0.285 0.061
0.263 0.295 0.063
0.264 0.302 0.064
0.267 0.310 0.065
0.275 0.324 0.067
0.281 0.337 0.069
0.278 0.339 0.069
0.284 0.352 0.071
0.283 0.356 0.071
0.222 0.292 0.057
0.104 -0.145 0.028
0.107 -0.147 0.028
0.105 -0.143 0.028
0.106 -0.142 0.028
0.107 -0.142 0.028
0.107 -0.139 0.028
0.106 -0.136 0.027
0.107 -0.136 0.028
0.113 -0.142 0.029
0.119 -0.147 0.030
0.127 -0.154 0.032
0.136 -0.163 0.034
0.143 -0.169 0.036
0.289 -0.325 0.071
0.290 -0.321 0.071
0.290 -0.316 0.071
0.288 -0.310 0.070
0.291 -0.308 0.070
0.292 -0.305 0.070
0.292 -0.300 0.070
0.291 -0.295 0.069
0.292 -0.291 0.069
0.292 -0.287 0.069
0.291 -0.281 0.068
0.290 -0.276 0.067
0.289 -0.271 0.067
0.289 -0.267 0.067
0.289 -0.262 0.066
0.290 -0.259 0.066
0.290 -0.255 0.066
0.289 -0.250 0.065
0.288 -0.245 0.065
0.286 -0.240 0.064
0.285 -0.235 0.064
0.285 -0.231 0.063
0.278 -0.222 0.062
0.220 -0.170 0.048
0.212 -0.161 0.047
0.208 -0.155 0.045
0.207 -0.152 0.045
0.207 -0.150 0.045
0.213 -0.151 0.046
0.216 -0.151 0.046
0.215 -0.148 0.046
0.207 -0.140 0.044
0.209 -0.138 0.045
0.214 -0.139 0.046
0.220 -0.141 0.047
0.221 -0.139 0.047
0.214 -0.132 0.045
0.212 -0.128 0.045
0.208 -0.124 0.044
0.203 -0.119 0.043
0.202 -0.116 0.042
0.205 -0.115 0.043
0.208 -0.114 0.043
0.210 -0.113 0.044
0.203 -0.107 0.042
0.206 -0.107 0.043
0.205 -0.104 0.042
0.212 -0.106 0.044
0.211 -0.103 0.043
0.207 -0.099 0.042
0.204 -0.095 0.042
0.203 -0.092 0.041
0.209 -0.093 0.042
0.209 -0.091 0.043
0.198 -0.084 0.040
0.212 -0.088 0.043
0.197 -0.080 0.040
0.217 -0.086 0.044
0.214 -0.083 0.043
0.206 -0.077 0.041
0.227 -0.081 0.045
0.225 -0.078 0.045
0.227 -0.077 0.046
0.223 -0.073 0.045
0.231 -0.074 0.046
0.237 -0.073 0.047
0.243 -0.073 0.048
0.249 -0.072 0.049
0.253 -0.071 0.050
0.364 -0.098 0.072
0.380 -0.099 0.075
0.379 -0.095 0.075
0.378 -0.092 0.075
0.366 -0.085 0.072
0.366 -0.082 0.072
0.361 -0.077 0.071
0.356 -0.073 0.070
0.350 -0.069 0.069
0.305 -0.054 0.060
0.290 -0.049 0.057
0.286 -0.046 0.056
0.284 -0.043 0.056
0.284 -0.040 0.056
0.285 -0.038 0.056
0.285 -0.035 0.056
0.284 -0.032 0.056
0.290 -0.030 0.057
0.292 -0.028 0.057
0.292 -0.025 0.057
0.290 -0.022 0.057
0.291 -0.020 0.057
0.288 -0.017 0.056
0.295 -0.015 0.058
0.292 -0.012 0.057
0.290 -0.009 0.057
0.290 -0.007 0.057
0.293 -0.004 0.057
0.291 -0.001 0.057
0.293 0.001 0.057
0.296 0.004 0.058
0.293 0.007 0.057
0.293 0.009 0.057
0.295 0.012 0.058
0.291 0.014 0.057
0.288 0.017 0.057
0.291 0.020 0.057
0.295 0.023 0.058
0.299 0.026 0.059
0.300 0.029 0.059
0.290 0.030 0.057
0.291 0.033 0.057
0.291 0.036 0.057
0.297 0.039 0.058
0.302 0.043 0.059
0.305 0.046 0.060
0.305 0.049 0.060
0.300 0.051 0.059
0.294 0.052 0.058
0.294 0.055 0.058
0.297 0.058 0.059
0.292 0.060 0.058
0.310 0.067 0.061
0.303 0.068 0.060
0.296 0.069 0.059
0.300 0.073 0.060
0.300 0.076 0.060
0.291 0.076 0.058
0.302 0.082 0.060
0.294 0.083 0.059
0.299 0.087 0.060
0.309 0.093 0.062
0.312 0.097 0.062
0.311 0.100 0.062
0.304 0.100 0.061
0.300 0.102 0.060
0.298 0.104 0.060
0.294 0.106 0.059
0.273 0.101 0.055
0.280 0.109 0.057
0.318 0.127 0.065
0.327 0.134 0.067
0.329 0.138 0.067
0.329 0.141 0.067
0.330 0.145 0.067
0.332 0.149 0.068
0.332 0.153 0.068
0.335 0.158 0.069
0.340 0.164 0.070
0.342 0.169 0.071
0.341 0.171 0.071
0.336 0.173 0.070
0.333 0.175 0.069
0.332 0.178 0.069
0.325 0.178 0.068
0.322 0.179 0.068
0.318 0.181 0.067
0.313 0.182 0.066
0.309 0.183 0.065
0.302 0.182 0.064
0.298 0.183 0.063
0.294 0.184 0.063
0.290 0.185 0.062
0.286 0.186 0.061
0.282 0.186 0.061
0.276 0.186 0.060
0.269 0.185 0.058
0.265 0.185 0.058
0.263 0.187 0.057
0.262 0.190 0.058
0.260 0.192 0.057
0.259 0.194 0.057
0.259 0.198 0.057
0.260 0.202 0.058
0.259 0.205 0.058
0.259 0.208 0.058
0.259 0.212 0.058
0.258 0.215 0.059
0.259 0.219 0.059
0.258 0.222 0.059
0.258 0.226 0.059
0.257 0.229 0.059
0.257 0.232 0.060
0.257 0.237 0.060
0.257 0.240 0.060
0.255 0.243 0.060
0.254 0.246 0.060
0.254 0.250 0.061
0.252 0.252 0.061
0.249 0.254 0.060
0.248 0.256 0.060
0.249 0.262 0.061
0.254 0.271 0.062
0.263 0.286 0.065
0.267 0.295 0.067
0.266 0.299 0.067
0.263 0.301 0.067
0.264 0.307 0.067
0.269 0.318 0.069
0.272 0.326 0.070
0.198 0.257 0.053
0.194 0.256 0.052
0.104 -0.145 0.029
0.113 -0.156 0.032
0.115 -0.156 0.032
0.116 -0.155 0.032
0.117 -0.155 0.032
0.114 -0.148 0.031
0.114 -0.146 0.031
0.114 -0.145 0.031
0.116 -0.145 0.031
0.120 -0.148 0.032
0.122 -0.148 0.032
0.127 -0.152 0.033
0.134 -0.158 0.035
0.286 -0.313 0.073
0.288 -0.310 0.073
0.289 -0.307 0.073
0.291 -0.304 0.073
0.292 -0.300 0.073
0.292 -0.296 0.073
0.291 -0.290 0.072
0.291 -0.286 0.072
0.290 -0.281 0.071
0.290 -0.276 0.071
0.290 -0.272 0.070
0.289 -0.266 0.070
0.290 -0.263 0.070
0.291 -0.260 0.070
0.290 -0.255 0.069
0.288 -0.249 0.068
0.287 -0.244 0.068
0.287 -0.241 0.067
0.286 -0.236 0.067
0.285 -0.232 0.067
0.282 -0.225 0.065
0.225 -0.174 0.052
0.217 -0.165 0.050
0.214 -0.160 0.049
0.213 -0.156 0.049
0.211 -0.153 0.048
0.213 -0.152 0.048
0.215 -0.150 0.049
0.212 -0.146 0.048
0.211 -0.142 0.047
0.211 -0.140 0.047
0.213 -0.139 0.048
0.217 -0.139 0.048
0.221 -0.139 0.049
0.224 -0.138 0.049
0.217 -0.132 0.048
0.208 -0.124 0.046
0.205 -0.120 0.045
0.206 -0.118 0.045
0.209 -0.117 0.046
0.211 -0.116 0.046
0.210 -0.113 0.046
0.209 -0.110 0.045
0.207 -0.107 0.045
0.210 -0.107 0.045
0.211 -0.105 0.045
0.211 -0.103 0.045
0.207 -0.099 0.044
0.206 -0.096 0.044
0.209 -0.095 0.045
0.209 -0.093 0.045
0.209 -0.091 0.045
0.213 -0.091 0.045
0.211 -0.088 0.045
0.212 -0.086 0.045
0.211 -0.083 0.045
0.220 -0.085 0.046
0.214 -0.080 0.045
0.224 -0.082 0.047
0.221 -0.079 0.046
0.225 -0.078 0.047
0.229 -0.077 0.048
0.230 -0.075 0.048
0.234 -0.075 0.049
0.238 -0.073 0.050
0.248 -0.074 0.052
0.255 -0.074 0.053
0.256 -0.072 0.053
0.362 -0.094 0.075
0.376 -0.095 0.078
0.360 -0.087 0.075
0.362 -0.084 0.075
0.357 -0.080 0.074
0.353 -0.076 0.073
0.349 -0.072 0.072
0.342 -0.067 0.071
0.329 -0.061 0.068
0.307 -0.055 0.063
0.292 -0.049 0.060
0.282 -0.045 0.058
0.279 -0.042 0.057
0.281 -0.040 0.058
0.285 -0.038 0.059
0.284 -0.035 0.058
0.281 -0.032 0.058
0.284 -0.030 0.058
0.290 -0.028 0.059
0.288 -0.025 0.059
0.287 -0.022 0.059
0.286 -0.020 0.059
0.292 -0.017 0.060
0.293 -0.015 0.060
0.292 -0.012 0.060
0.292 -0.009 0.060
0.293 -0.007 0.060
0.294 -0.004 0.060
0.293 -0.001 0.060
0.296 0.001 0.061
0.299 0.004 0.061
0.302 0.007 0.062
0.298 0.009 0.061
0.287 0.012 0.059
0.288 0.014 0.059
0.286 0.017 0.059
0.288 0.020 0.059
0.299 0.023 0.061
0.301 0.026 0.062
0.298 0.028 0.061
0.299 0.031 0.062
0.296 0.034 0.061
0.296 0.036 0.061
0.299 0.039 0.062
0.295 0.042 0.061
0.300 0.045 0.062
0.312 0.050 0.064
0.304 0.051 0.063
0.298 0.053 0.061
0.296 0.055 0.061
0.299 0.059 0.062
0.302 0.062 0.063
0.301 0.065 0.062
0.297 0.067 0.062
0.295 0.069 0.061
0.305 0.074 0.063
0.297 0.075 0.062
0.296 0.078 0.062
0.299 0.081 0.062
0.308 0.087 0.064
0.306 0.089 0.064
0.307 0.092 0.064
0.313 0.097 0.066
0.308 0.099 0.065
0.299 0.099 0.063
0.297 0.101 0.063
0.297 0.104 0.063
0.293 0.105 0.062
0.287 0.106 0.061
0.281 0.107 0.060
0.265 0.103 0.056
0.317 0.130 0.067
0.323 0.135 0.069
0.323 0.139 0.069
0.324 0.143 0.069
0.326 0.147 0.070
0.325 0.150 0.070
0.322 0.152 0.069
0.328 0.158 0.071
0.333 0.164 0.072
0.327 0.165 0.071
0.324 0.167 0.071
0.329 0.173 0.072
0.322 0.173 0.070
0.319 0.175 0.070
0.317 0.177 0.070
0.315 0.179 0.069
0.312 0.181 0.069
0.310 0.183 0.069
0.302 0.182 0.067
0.297 0.182 0.066
0.293 0.184 0.065
0.289 0.185 0.065
0.285 0.186 0.064
0.280 0.186 0.063
0.274 0.185 0.062
0.268 0.184 0.061
0.264 0.185 0.060
0.263 0.187 0.060
0.262 0.190 0.060
0.261 0.193 0.060
0.261 0.196 0.060
0.260 0.199 0.060
0.259 0.201 0.060
0.259 0.205 0.061
0.259 0.208 0.061
0.258 0.211 0.061
0.257 0.214 0.061
0.259 0.219 0.062
0.258 0.222 0.062
0.257 0.225 0.062
0.256 0.228 0.062
0.256 0.232 0.062
0.256 0.236 0.063
0.255 0.239 0.063
0.254 0.242 0.063
0.254 0.246 0.063
0.251 0.248 0.063
0.247 0.247 0.062
0.244 0.248 0.062
0.244 0.252 0.062
0.247 0.260 0.063
0.255 0.274 0.066
0.264 0.288 0.069
0.267 0.296 0.070
0.258 0.290 0.068
0.215 0.250 0.057
0.210 0.248 0.056
0.210 0.253 0.057
0.201 0.250 0.055
0.198 0.250 0.055
0.195 0.250 0.054
0.188 0.244 0.052
0.186 0.246 0.052
0.119 -0.166 0.035
0.115 -0.158 0.033
0.107 -0.145 0.031
0.113 -0.151 0.032
0.116 -0.153 0.033
0.115 -0.150 0.033
0.114 -0.147 0.032
0.115 -0.146 0.033
0.116 -0.146 0.033
0.118 -0.145 0.033
0.121 -0.147 0.033
0.121 -0.145 0.033
0.126 -0.149 0.035
0.135 -0.155 0.037
0.287 -0.305 0.076
0.290 -0.303 0.076
0.290 -0.299 0.076
0.287 -0.292 0.075
0.287 -0.287 0.074
0.288 -0.284 0.074
0.289 -0.280 0.074
0.289 -0.276 0.074
0.288 -0.270 0.073
0.288 -0.266 0.073
0.289 -0.263 0.073
0.290 -0.260 0.073
0.290 -0.256 0.072
0.287 -0.249 0.071
0.286 -0.244 0.071
0.286 -0.240 0.070
0.286 -0.236 0.070
0.285 -0.232 0.069
0.222 -0.172 0.053
0.215 -0.164 0.052
0.215 -0.161 0.051
0.214 -0.157 0.051
0.210 -0.152 0.050
0.214 -0.152 0.051
0.212 -0.149 0.050
0.210 -0.144 0.049
0.211 -0.142 0.049
0.213 -0.141 0.050
0.211 -0.138 0.049
0.211 -0.135 0.049
0.217 -0.137 0.050
0.221 -0.136 0.051
0.211 -0.128 0.049
0.207 -0.123 0.048
0.206 -0.120 0.047
0.207 -0.119 0.047
0.208 -0.117 0.047
0.211 -0.116 0.048
0.212 -0.115 0.048
0.206 -0.109 0.047
0.209 -0.109 0.047
0.210 -0.107 0.047
0.206 -0.103 0.046
0.208 -0.102 0.047
0.209 -0.100 0.047
0.206 -0.096 0.046
0.202 -0.092 0.045
0.199 -0.089 0.044
0.202 -0.088 0.045
0.208 -0.089 0.046
0.201 -0.084 0.044
0.210 -0.085 0.046
0.201 -0.080 0.044
0.210 -0.081 0.046
0.207 -0.078 0.046
0.210 -0.077 0.046
0.213 -0.076 0.047
0.227 -0.079 0.050
0.226 -0.076 0.049
0.235 -0.077 0.051
0.235 -0.075 0.051
0.240 -0.074 0.052
0.248 -0.074 0.054
0.254 -0.074 0.055
0.270 -0.076 0.059
0.346 -0.091 0.075
0.350 -0.088 0.076
0.354 -0.086 0.077
0.353 -0.082 0.076
0.349 -0.078 0.076
0.346 -0.074 0.075
0.344 -0.071 0.074
0.334 -0.066 0.072
0.329 -0.061 0.071
0.321 -0.057 0.069
0.293 -0.049 0.063
0.283 -0.045 0.061
0.279 -0.042 0.060
0.283 -0.040 0.061
0.285 -0.038 0.061
0.283 -0.035 0.061
0.280 -0.032 0.060
0.279 -0.029 0.060
0.284 -0.027 0.061
0.289 -0.025 0.062
0.286 -0.022 0.061
0.289 -0.020 0.062
0.290 -0.017 0.062
0.292 -0.015 0.063
0.291 -0.012 0.062
0.293 -0.009 0.063
0.293 -0.007 0.063
0.291 -0.004 0.062
0.292 -0.001 0.062
0.295 0.001 0.063
0.301 0.004 0.065
0.306 0.007 0.066
0.293 0.009 0.063
0.287 0.012 0.062
0.286 0.014 0.061
0.294 0.017 0.063
0.295 0.020 0.063
0.291 0.022 0.062
0.286 0.025 0.061
0.302 0.029 0.065
0.291 0.030 0.063
0.292 0.033 0.063
0.297 0.037 0.064
0.296 0.039 0.064
0.301 0.043 0.065
0.309 0.046 0.067
0.307 0.049 0.066
0.299 0.051 0.065
0.294 0.052 0.064
0.294 0.055 0.064
0.295 0.058 0.064
0.296 0.061 0.064
0.293 0.063 0.064
0.292 0.066 0.063
0.290 0.068 0.063
0.282 0.069 0.061
0.287 0.073 0.062
0.298 0.078 0.065
0.319 0.087 0.070
0.311 0.088 0.068
0.293 0.085 0.064
0.296 0.089 0.065
0.306 0.095 0.067
0.300 0.096 0.066
0.291 0.096 0.064
0.293 0.099 0.064
0.291 0.102 0.064
0.292 0.105 0.065
0.296 0.109 0.065
0.295 0.112 0.065
0.291 0.113 0.065
0.259 0.106 0.058
0.310 0.134 0.069
0.320 0.141 0.072
0.324 0.146 0.073
0.323 0.149 0.073
0.312 0.147 0.070
0.324 0.156 0.073
0.318 0.157 0.072
0.317 0.160 0.072
0.313 0.161 0.071
0.311 0.163 0.071
0.316 0.169 0.072
0.314 0.172 0.072
0.311 0.174 0.072
0.306 0.174 0.070
0.305 0.177 0.070
0.305 0.181 0.071
0.302 0.183 0.070
0.299 0.184 0.070
0.292 0.183 0.068
0.289 0.185 0.068
0.282 0.184 0.066
0.278 0.185 0.066
0.274 0.185 0.065
0.269 0.185 0.064
0.265 0.185 0.063
0.262 0.187 0.063
0.261 0.190 0.063
0.262 0.193 0.063
0.261 0.196 0.063
0.260 0.199 0.063
0.260 0.202 0.063
0.259 0.205 0.064
0.258 0.208 0.064
0.258 0.211 0.064
0.258 0.215 0.064
0.257 0.218 0.064
0.257 0.222 0.064
0.255 0.224 0.064
0.256 0.228 0.065
0.257 0.233 0.065
0.255 0.235 0.065
0.253 0.237 0.065
0.252 0.240 0.065
0.249 0.242 0.065
0.245 0.242 0.064
0.240 0.241 0.063
0.236 0.241 0.062
0.236 0.245 0.063
0.240 0.253 0.064
0.204 0.226 0.056
0.205 0.231 0.056
0.207 0.238 0.057
0.204 0.238 0.057
0.202 0.239 0.057
0.200 0.240 0.056
0.193 0.236 0.055
0.192 0.239 0.055
0.195 0.247 0.056
0.193 0.248 0.056
0.230 0.305 0.068
0.099 -0.139 0.030
0.099 -0.136 0.030
0.099 -0.135 0.030
0.100 -0.134 0.030
0.100 -0.132 0.030
0.100 -0.131 0.030
0.101 -0.130 0.030
0.100 -0.127 0.029
0.101 -0.126 0.029
0.101 -0.125 0.029
0.102 -0.124 0.029
0.102 -0.122 0.029
0.102 -0.121 0.029
0.108 -0.126 0.031
0.126 -0.145 0.036
0.122 -0.136 0.034
0.126 -0.138 0.035
0.281 -0.295 0.077
0.279 -0.288 0.076
0.280 -0.285 0.076
0.283 -0.283 0.076
0.284 -0.280 0.076
0.284 -0.275 0.076
0.283 -0.270 0.075
0.286 -0.269 0.076
0.286 -0.264 0.075
0.287 -0.261 0.075
0.287 -0.257 0.075
0.288 -0.254 0.075
0.289 -0.251 0.075
0.287 -0.245 0.074
0.286 -0.241 0.073
0.284 -0.235 0.073
0.283 -0.230 0.072
0.276 -0.221 0.070
0.222 -0.172 0.056
0.212 -0.162 0.053
0.204 -0.153 0.051
0.202 -0.149 0.050
0.208 -0.151 0.052
0.207 -0.148 0.051
0.210 -0.147 0.052
0.208 -0.143 0.051
0.207 -0.140 0.051
0.207 -0.138 0.051
0.206 -0.135 0.050
0.208 -0.133 0.050
0.213 -0.134 0.051
0.213 -0.132 0.051
0.207 -0.126 0.050
0.206 -0.123 0.049
0.209 -0.122 0.050
0.203 -0.116 0.048
0.204 -0.115 0.048
0.208 -0.115 0.049
0.217 -0.117 0.051
0.214 -0.113 0.051
0.176 -0.090 0.041
0.177 -0.088 0.041
0.172 -0.084 0.040
0.172 -0.082 0.040
0.173 -0.081 0.040
0.174 -0.080 0.041
0.175 -0.078 0.041
0.176 -0.077 0.041
0.177 -0.076 0.041
0.179 -0.075 0.041
0.182 -0.074 0.042
0.185 -0.073 0.043
0.189 -0.073 0.043
0.209 -0.079 0.048
0.210 -0.077 0.048
0.214 -0.076 0.049
0.217 -0.075 0.050
0.226 -0.076 0.052
0.227 -0.075 0.052
0.234 -0.075 0.053
0.238 -0.074 0.054
0.243 -0.073 0.055
0.251 -0.073 0.057
0.265 -0.074 0.060
0.346 -0.091 0.078
0.345 -0.087 0.078
0.346 -0.084 0.078
0.347 -0.081 0.078
0.342 -0.077 0.077
0.333 -0.072 0.075
0.335 -0.069 0.075
0.330 -0.065 0.074
0.327 -0.061 0.073
0.319 -0.057 0.072
0.296 -0.050 0.067
0.284 -0.045 0.064
0.281 -0.042 0.063
0.281 -0.040 0.063
0.284 -0.037 0.064
0.285 -0.035 0.064
0.281 -0.032 0.063
0.279 -0.029 0.062
0.278 -0.027 0.062
0.282 -0.024 0.063
0.290 -0.022 0.065
0.287 -0.020 0.064
0.286 -0.017 0.064
0.289 -0.014 0.065
0.292 -0.012 0.065
0.288 -0.009 0.064
0.285 -0.006 0.064
0.288 -0.004 0.064
0.287 -0.001 0.064
0.290 0.001 0.065
0.294 0.004 0.066
0.299 0.007 0.067
0.291 0.009 0.065
0.288 0.012 0.064
0.294 0.015 0.066
0.298 0.018 0.067
0.295 0.020 0.066
0.293 0.023 0.066
0.298 0.026 0.067
0.284 0.027 0.064
0.290 0.030 0.065
0.290 0.033 0.065
0.293 0.036 0.066
0.300 0.040 0.067
0.297 0.042 0.067
0.298 0.045 0.067
0.295 0.047 0.066
0.291 0.049 0.066
0.291 0.052 0.066
0.288 0.054 0.065
0.286 0.056 0.065
0.289 0.060 0.065
0.288 0.062 0.065
0.284 0.064 0.064
0.280 0.066 0.063
0.276 0.067 0.063
0.275 0.070 0.062
0.293 0.077 0.067
0.308 0.084 0.070
0.305 0.086 0.069
0.278 0.081 0.063
0.281 0.085 0.064
0.293 0.091 0.067
0.296 0.095 0.068
0.298 0.098 0.068
0.297 0.101 0.068
0.298 0.104 0.069
0.296 0.106 0.068
0.301 0.111 0.069
0.301 0.114 0.070
0.300 0.117 0.069
0.299 0.120 0.069
0.268 0.110 0.062
0.311 0.137 0.073
0.317 0.143 0.074
0.319 0.147 0.075
0.309 0.146 0.073
0.308 0.149 0.073
0.312 0.154 0.074
0.306 0.154 0.073
0.303 0.156 0.072
0.305 0.160 0.072
0.307 0.165 0.073
0.307 0.168 0.073
0.305 0.171 0.073
0.301 0.172 0.072
0.299 0.174 0.072
0.297 0.176 0.072
0.293 0.177 0.071
0.291 0.179 0.071
0.290 0.182 0.071
0.287 0.184 0.070
0.280 0.183 0.069
0.277 0.184 0.068
0.273 0.185 0.067
0.269 0.185 0.067
0.264 0.185 0.066
0.262 0.187 0.065
0.261 0.190 0.065
0.261 0.193 0.066
0.261 0.196 0.066
0.261 0.200 0.066
0.260 0.203 0.066
0.259 0.206 0.066
0.258 0.208 0.066
0.257 0.211 0.066
0.256 0.214 0.066
0.253 0.215 0.066
0.254 0.219 0.066
0.253 0.222 0.066
0.253 0.226 0.067
0.255 0.232 0.068
0.253 0.234 0.068
0.247 0.233 0.066
0.242 0.231 0.065
0.239 0.232 0.065
0.238 0.235 0.065
0.232 0.233 0.064
0.220 0.225 0.061
0.214 0.223 0.060
0.217 0.230 0.061
0.208 0.223 0.059
0.199 0.218 0.056
0.201 0.224 0.057
0.204 0.230 0.059
0.205 0.235 0.059
0.200 0.233 0.058
0.197 0.234 0.058
0.197 0.238 0.058
0.202 0.248 0.060
0.240 0.304 0.072
0.251 0.333 0.077
0.099 -0.137 0.031
0.100 -0.136 0.031
0.100 -0.135 0.031
0.101 -0.133 0.031
0.101 -0.132 0.031
0.101 -0.131 0.031
0.100 -0.128 0.031
0.101 -0.127 0.031
0.102 -0.126 0.031
0.102 -0.124 0.031
0.102 -0.123 0.031
0.102 -0.121 0.030
0.101 -0.118 0.030
0.101 -0.117 0.030
0.102 -0.116 0.030
0.119 -0.133 0.035
0.118 -0.130 0.034
0.267 -0.272 0.075
0.274 -0.274 0.077
0.278 -0.274 0.078
0.278 -0.270 0.077
0.281 -0.269 0.078
0.283 -0.266 0.078
0.282 -0.261 0.077
0.281 -0.257 0.077
0.283 -0.254 0.077
0.285 -0.252 0.077
0.284 -0.247 0.076
0.286 -0.244 0.077
0.285 -0.240 0.076
0.284 -0.235 0.075
0.281 -0.229 0.075
0.276 -0.221 0.073
0.211 -0.161 0.055
0.198 -0.149 0.052
0.201 -0.148 0.052
0.202 -0.146 0.052
0.204 -0.145 0.052
0.203 -0.143 0.052
0.208 -0.144 0.053
0.206 -0.140 0.053
0.200 -0.133 0.051
0.203 -0.132 0.051
0.208 -0.133 0.052
0.209 -0.132 0.053
0.207 -0.128 0.052
0.206 -0.125 0.052
0.210 -0.125 0.052
0.210 -0.123 0.052
0.211 -0.121 0.053
0.210 -0.118 0.052
0.200 -0.110 0.049
0.169 -0.092 0.042
0.169 -0.090 0.042
0.170 -0.088 0.042
0.171 -0.087 0.042
0.172 -0.082 0.042
0.173 -0.081 0.042
0.174 -0.079 0.042
0.175 -0.078 0.042
0.176 -0.077 0.042
0.177 -0.076 0.043
0.178 -0.074 0.043
0.179 -0.073 0.043
0.180 -0.072 0.043
0.181 -0.070 0.043
0.182 -0.069 0.044
0.185 -0.068 0.044
0.189 -0.068 0.045
0.213 -0.074 0.051
0.216 -0.073 0.051
0.224 -0.074 0.053
0.229 -0.073 0.054
0.233 -0.072 0.055
0.237 -0.071 0.056
0.245 -0.071 0.058
0.262 -0.073 0.062
0.278 -0.076 0.066
0.336 -0.088 0.079
0.337 -0.085 0.079
0.339 -0.082 0.080
0.342 -0.080 0.080
0.326 -0.073 0.076
0.326 -0.070 0.076
0.326 -0.067 0.076
0.326 -0.064 0.076
0.323 -0.061 0.076
0.309 -0.055 0.072
0.294 -0.050 0.069
0.283 -0.045 0.066
0.276 -0.042 0.065
0.276 -0.039 0.064
0.281 -0.037 0.066
0.283 -0.035 0.066
0.283 -0.032 0.066
0.279 -0.029 0.065
0.279 -0.027 0.065
0.288 -0.025 0.067
0.289 -0.022 0.067
0.287 -0.020 0.067
0.286 -0.017 0.067
0.291 -0.015 0.068
0.289 -0.012 0.067
0.284 -0.009 0.066
0.283 -0.006 0.066
0.287 -0.004 0.067
0.290 -0.001 0.067
0.288 0.001 0.067
0.288 0.004 0.067
0.287 0.006 0.067
0.293 0.009 0.068
0.293 0.012 0.068
0.297 0.015 0.069
0.294 0.017 0.069
0.296 0.020 0.069
0.297 0.023 0.069
0.302 0.026 0.070
0.298 0.028 0.070
0.288 0.030 0.067
0.287 0.033 0.067
0.294 0.036 0.069
0.285 0.038 0.067
0.283 0.040 0.066
0.280 0.042 0.065
0.289 0.046 0.068
0.292 0.049 0.068
0.290 0.052 0.068
0.288 0.054 0.068
0.286 0.056 0.067
0.288 0.060 0.068
0.290 0.063 0.068
0.288 0.065 0.068
0.292 0.069 0.069
0.293 0.072 0.069
0.282 0.072 0.067
0.281 0.074 0.067
0.287 0.078 0.068
0.271 0.077 0.064
0.265 0.077 0.063
0.288 0.087 0.069
0.300 0.093 0.071
0.302 0.097 0.072
0.303 0.100 0.072
0.305 0.104 0.073
0.302 0.106 0.072
0.299 0.108 0.072
0.296 0.110 0.071
0.299 0.114 0.072
0.299 0.117 0.072
0.298 0.119 0.072
0.306 0.126 0.074
0.269 0.116 0.065
0.275 0.122 0.067
0.306 0.138 0.075
0.303 0.140 0.074
0.301 0.142 0.074
0.306 0.148 0.075
0.303 0.150 0.075
0.293 0.148 0.072
0.287 0.148 0.071
0.295 0.155 0.073
0.302 0.162 0.075
0.302 0.166 0.075
0.300 0.168 0.075
0.299 0.171 0.075
0.296 0.173 0.074
0.293 0.174 0.074
0.290 0.176 0.073
0.288 0.178 0.073
0.285 0.179 0.072
0.282 0.181 0.072
0.278 0.181 0.071
0.275 0.183 0.070
0.272 0.184 0.070
0.266 0.184 0.069
0.264 0.185 0.068
0.262 0.187 0.068
0.262 0.190 0.068
0.261 0.193 0.068
0.260 0.196 0.069
0.260 0.200 0.069
0.260 0.203 0.069
0.260 0.206 0.069
0.259 0.209 0.069
0.257 0.211 0.069
0.255 0.213 0.069
0.254 0.216 0.069
0.252 0.218 0.069
0.250 0.220 0.069
0.249 0.223 0.069
0.249 0.227 0.069
0.245 0.227 0.068
0.239 0.225 0.067
0.232 0.222 0.065
0.219 0.213 0.062
0.221 0.219 0.063
0.212 0.213 0.061
0.209 0.214 0.060
0.209 0.217 0.060
0.206 0.219 0.060
0.202 0.218 0.059
0.199 0.218 0.059
0.202 0.225 0.060
0.209 0.237 0.063
0.206 0.237 0.062
0.208 0.243 0.063
0.214 0.255 0.065
0.228 0.285 0.071
0.229 0.291 0.072
0.215 0.277 0.068
0.217 0.283 0.069
0.216 0.287 0.069
0.099 -0.137 0.033
0.100 -0.136 0.033
0.101 -0.135 0.033
0.101 -0.135 0.033
0.102 -0.134 0.033
0.102 -0.132 0.033
0.102 -0.130 0.032
0.102 -0.128 0.032
0.102 -0.126 0.032
0.102 -0.125 0.032
0.102 -0.123 0.032
0.103 -0.122 0.032
0.102 -0.120 0.032
0.103 -0.118 0.031
0.103 -0.117 0.031
0.103 -0.115 0.031
0.114 -0.125 0.034
0.113 -0.122 0.034
0.110 -0.117 0.033
0.260 -0.265 0.076
0.270 -0.271 0.079
0.273 -0.270 0.079
0.277 -0.269 0.080
0.280 -0.268 0.081
0.281 -0.265 0.080
0.278 -0.258 0.079
0.277 -0.253 0.079
0.278 -0.250 0.079
0.278 -0.246 0.078
0.279 -0.243 0.078
0.280 -0.240 0.078
0.281 -0.237 0.078
0.280 -0.232 0.077
0.275 -0.225 0.076
0.259 -0.208 0.071
0.248 -0.196 0.068
0.203 -0.155 0.055
0.204 -0.154 0.055
0.199 -0.147 0.053
0.202 -0.146 0.054
0.203 -0.145 0.054
0.205 -0.144 0.055
0.208 -0.144 0.055
0.205 -0.139 0.054
0.200 -0.133 0.053
0.200 -0.131 0.053
0.203 -0.130 0.053
0.204 -0.129 0.053
0.204 -0.127 0.053
0.209 -0.127 0.055
0.212 -0.127 0.055
0.209 -0.122 0.054
0.176 -0.101 0.045
0.169 -0.095 0.044
0.169 -0.094 0.044
0.169 -0.092 0.043
0.169 -0.090 0.043
0.169 -0.088 0.043
0.170 -0.087 0.043
0.171 -0.086 0.044
0.173 -0.084 0.044
0.180 -0.086 0.046
0.183 -0.086 0.046
0.186 -0.085 0.047
0.188 -0.084 0.047
0.191 -0.084 0.048
0.191 -0.082 0.048
0.182 -0.076 0.046
0.181 -0.074 0.045
0.180 -0.072 0.045
0.181 -0.070 0.045
0.182 -0.069 0.045
0.183 -0.068 0.046
0.185 -0.066 0.046
0.186 -0.065 0.046
0.190 -0.064 0.047
0.197 -0.065 0.049
0.225 -0.072 0.055
0.230 -0.071 0.057
0.234 -0.070 0.058
0.240 -0.070 0.059
0.258 -0.073 0.063
0.274 -0.075 0.067
0.325 -0.085 0.080
0.324 -0.082 0.079
0.324 -0.079 0.079
0.318 -0.074 0.078
0.318 -0.071 0.078
0.314 -0.068 0.077
0.315 -0.065 0.077
0.315 -0.062 0.077
0.313 -0.059 0.076
0.307 -0.055 0.075
0.293 -0.050 0.071
0.281 -0.045 0.068
0.274 -0.041 0.067
0.277 -0.039 0.067
0.278 -0.037 0.067
0.282 -0.035 0.068
0.284 -0.032 0.069
0.284 -0.030 0.069
0.285 -0.027 0.069
0.289 -0.025 0.070
0.289 -0.022 0.070
0.288 -0.020 0.070
0.289 -0.017 0.070
0.288 -0.014 0.070
0.287 -0.012 0.069
0.283 -0.009 0.068
0.287 -0.007 0.069
0.289 -0.004 0.070
0.291 -0.001 0.071
0.292 0.001 0.071
0.287 0.004 0.070
0.284 0.006 0.069
0.288 0.009 0.070
0.289 0.012 0.070
0.290 0.014 0.070
0.290 0.017 0.070
0.296 0.020 0.072
0.302 0.023 0.073
0.301 0.026 0.073
0.297 0.028 0.072
0.293 0.031 0.071
0.290 0.033 0.071
0.287 0.035 0.070
0.283 0.037 0.069
0.276 0.039 0.067
0.280 0.042 0.068
0.290 0.046 0.071
0.295 0.050 0.072
0.294 0.053 0.072
0.300 0.056 0.073
0.298 0.059 0.073
0.291 0.060 0.071
0.291 0.063 0.071
0.299 0.068 0.073
0.296 0.070 0.073
0.290 0.071 0.071
0.286 0.073 0.070
0.283 0.075 0.070
0.277 0.076 0.068
0.265 0.075 0.065
0.266 0.078 0.066
0.275 0.083 0.068
0.299 0.093 0.074
0.300 0.096 0.074
0.301 0.100 0.075
0.301 0.103 0.075
0.299 0.105 0.075
0.296 0.107 0.074
0.294 0.109 0.073
0.295 0.112 0.074
0.294 0.115 0.074
0.293 0.117 0.074
0.293 0.121 0.074
0.296 0.125 0.075
0.289 0.125 0.073
0.276 0.122 0.070
0.272 0.123 0.069
0.291 0.135 0.074
0.294 0.139 0.075
0.292 0.141 0.075
0.291 0.144 0.075
0.282 0.143 0.072
0.283 0.146 0.073
0.289 0.152 0.074
0.293 0.158 0.076
0.296 0.163 0.077
0.296 0.166 0.077
0.294 0.168 0.077
0.293 0.171 0.076
0.290 0.173 0.076
0.286 0.173 0.075
0.283 0.175 0.075
0.280 0.176 0.074
0.279 0.179 0.074
0.276 0.181 0.074
0.271 0.180 0.072
0.268 0.182 0.072
0.266 0.184 0.072
0.264 0.186 0.071
0.263 0.188 0.071
0.262 0.191 0.071
0.261 0.193 0.071
0.260 0.196 0.071
0.259 0.199 0.071
0.259 0.202 0.071
0.259 0.206 0.072
0.258 0.209 0.072
0.257 0.211 0.072
0.255 0.214 0.072
0.253 0.216 0.072
0.251 0.218 0.071
0.248 0.218 0.071
0.244 0.219 0.070
0.239 0.218 0.069
0.235 0.218 0.068
0.233 0.220 0.068
0.224 0.215 0.066
0.218 0.212 0.064
0.211 0.209 0.062
0.209 0.211 0.062
0.206 0.212 0.062
0.207 0.216 0.062
0.209 0.222 0.063
0.211 0.228 0.064
0.214 0.235 0.066
0.218 0.243 0.067
0.215 0.243 0.067
0.209 0.241 0.066
0.205 0.240 0.065
0.206 0.246 0.065
0.206 0.250 0.066
0.214 0.267 0.069
0.211 0.268 0.069
0.206 0.265 0.067
0.207 0.271 0.068
0.216 0.287 0.072
0.099 -0.137 0.034
0.100 -0.136 0.034
0.101 -0.136 0.034
0.102 -0.135 0.034
0.102 -0.134 0.034
0.102 -0.132 0.034
0.103 -0.131 0.034
0.103 -0.129 0.034
0.102 -0.126 0.033
0.102 -0.125 0.033
0.103 -0.124 0.033
0.103 -0.123 0.033
0.104 -0.121 0.033
0.104 -0.119 0.033
0.104 -0.118 0.033
0.103 -0.116 0.033
0.105 -0.116 0.033
0.107 -0.116 0.033
0.107 -0.114 0.033
0.111 -0.117 0.034
0.269 -0.270 0.082
0.271 -0.268 0.082
0.273 -0.266 0.082
0.279 -0.267 0.083
0.278 -0.262 0.083
0.277 -0.257 0.082
0.277 -0.253 0.082
0.276 -0.249 0.081
0.277 -0.245 0.081
0.276 -0.240 0.080
0.275 -0.236 0.080
0.276 -0.233 0.080
0.275 -0.229 0.079
0.272 -0.222 0.078
0.261 -0.210 0.074
0.249 -0.197 0.071
0.206 -0.158 0.058
0.200 -0.151 0.056
0.203 -0.150 0.057
0.202 -0.147 0.056
0.204 -0.146 0.057
0.206 -0.145 0.057
0.206 -0.142 0.057
0.205 -0.139 0.057
0.201 -0.134 0.055
0.198 -0.129 0.054
0.193 -0.124 0.053
0.196 -0.124 0.053
0.206 -0.128 0.056
0.211 -0.129 0.057
0.208 -0.124 0.056
0.170 -0.100 0.046
0.168 -0.097 0.045
0.169 -0.095 0.045
0.170 -0.094 0.045
0.170 -0.092 0.045
0.170 -0.090 0.045
0.172 -0.090 0.046
0.207 -0.103 0.055
0.205 -0.100 0.054
0.206 -0.099 0.054
0.207 -0.097 0.054
0.207 -0.095 0.054
0.210 -0.094 0.055
0.197 -0.086 0.051
0.213 -0.091 0.056
0.208 -0.087 0.054
0.211 -0.086 0.055
0.212 -0.085 0.055
0.204 -0.079 0.053
0.197 -0.075 0.051
0.188 -0.069 0.049
0.187 -0.067 0.048
0.186 -0.065 0.048
0.186 -0.063 0.048
0.187 -0.062 0.048
0.189 -0.060 0.048
0.196 -0.061 0.050
0.227 -0.068 0.058
0.241 -0.070 0.061
0.249 -0.070 0.064
0.315 -0.080 0.080
0.312 -0.076 0.079
0.311 -0.073 0.079
0.305 -0.069 0.077
0.302 -0.065 0.077
0.299 -0.062 0.076
0.301 -0.059 0.076
0.303 -0.057 0.077
0.299 -0.053 0.076
0.299 -0.051 0.076
0.272 -0.044 0.069
0.278 -0.042 0.070
0.280 -0.040 0.071
0.278 -0.037 0.070
0.278 -0.034 0.070
0.283 -0.032 0.071
0.285 -0.030 0.072
0.285 -0.027 0.072
0.282 -0.024 0.071
0.284 -0.022 0.071
0.287 -0.020 0.072
0.290 -0.017 0.073
0.286 -0.014 0.072
0.281 -0.012 0.071
0.285 -0.009 0.072
0.290 -0.007 0.073
0.291 -0.004 0.073
0.290 -0.001 0.073
0.293 0.001 0.074
0.293 0.004 0.074
0.284 0.006 0.071
0.285 0.009 0.072
0.284 0.012 0.071
0.283 0.014 0.071
0.282 0.017 0.071
0.294 0.020 0.074
0.298 0.023 0.075
0.290 0.025 0.073
0.287 0.027 0.072
0.286 0.030 0.072
0.282 0.032 0.071
0.283 0.035 0.072
0.288 0.038 0.073
0.285 0.040 0.072
0.281 0.042 0.071
0.287 0.046 0.073
0.286 0.049 0.073
0.291 0.052 0.074
0.295 0.056 0.075
0.298 0.059 0.076
0.292 0.061 0.074
0.295 0.064 0.075
0.293 0.066 0.075
0.285 0.067 0.073
0.283 0.069 0.072
0.280 0.071 0.072
0.277 0.073 0.071
0.272 0.074 0.070
0.265 0.075 0.068
0.255 0.075 0.066
0.272 0.082 0.070
0.281 0.088 0.072
0.286 0.092 0.074
0.293 0.097 0.076
0.287 0.098 0.074
0.289 0.101 0.075
0.290 0.105 0.075
0.294 0.109 0.076
0.290 0.111 0.075
0.288 0.113 0.075
0.286 0.115 0.075
0.288 0.119 0.075
0.290 0.122 0.076
0.291 0.126 0.076
0.287 0.127 0.076
0.278 0.126 0.073
0.269 0.125 0.071
0.273 0.129 0.072
0.277 0.134 0.074
0.279 0.138 0.074
0.278 0.141 0.074
0.280 0.145 0.075
0.284 0.150 0.076
0.287 0.155 0.077
0.285 0.157 0.077
0.290 0.163 0.078
0.289 0.165 0.078
0.287 0.168 0.078
0.282 0.168 0.077
0.278 0.169 0.076
0.276 0.171 0.076
0.274 0.173 0.075
0.275 0.176 0.076
0.271 0.177 0.075
0.268 0.178 0.074
0.265 0.180 0.074
0.264 0.183 0.074
0.264 0.186 0.074
0.264 0.189 0.074
0.261 0.191 0.074
0.261 0.194 0.074
0.260 0.196 0.074
0.258 0.198 0.074
0.256 0.200 0.073
0.255 0.203 0.074
0.256 0.208 0.074
0.256 0.211 0.074
0.254 0.213 0.074
0.252 0.215 0.074
0.249 0.216 0.073
0.245 0.217 0.073
0.242 0.217 0.072
0.239 0.218 0.071
0.235 0.218 0.071
0.228 0.215 0.069
0.225 0.216 0.068
0.223 0.217 0.068
0.220 0.219 0.068
0.213 0.215 0.066
0.209 0.215 0.065
0.209 0.218 0.065
0.212 0.226 0.067
0.214 0.231 0.068
0.216 0.238 0.069
0.218 0.243 0.070
0.216 0.245 0.070
0.205 0.237 0.067
0.200 0.235 0.065
0.198 0.237 0.065
0.199 0.241 0.066
0.201 0.248 0.067
0.203 0.254 0.068
0.203 0.257 0.068
0.204 0.263 0.069
0.204 0.267 0.070
0.229 0.305 0.079
0.099 -0.137 0.035
0.100 -0.136 0.035
0.101 -0.136 0.035
0.102 -0.135 0.035
0.101 -0.133 0.035
0.102 -0.132 0.035
0.102 -0.131 0.035
0.103 -0.130 0.035
0.104 -0.129 0.035
0.102 -0.125 0.034
0.104 -0.125 0.035
0.104 -0.124 0.035
0.104 -0.122 0.035
0.104 -0.121 0.034
0.104 -0.118 0.034
0.104 -0.117 0.034
0.106 -0.117 0.034
0.107 -0.116 0.035
0.107 -0.114 0.034
0.106 -0.112 0.034
0.115 -0.120 0.037
0.268 -0.266 0.084
0.269 -0.262 0.084
0.271 -0.260 0.084
0.274 -0.259 0.085
0.275 -0.256 0.085
0.276 -0.253 0.084
0.278 -0.250 0.085
0.276 -0.245 0.084
0.275 -0.240 0.083
0.272 -0.234 0.082
0.274 -0.232 0.082
0.275 -0.228 0.082
0.270 -0.221 0.080
0.265 -0.214 0.079
0.210 -0.161 0.061
0.205 -0.155 0.060
0.207 -0.153 0.060
0.205 -0.149 0.059
0.205 -0.147 0.059
0.204 -0.144 0.059
0.204 -0.141 0.058
0.204 -0.139 0.058
0.202 -0.135 0.057
0.196 -0.129 0.056
0.192 -0.124 0.054
0.194 -0.123 0.055
0.206 -0.128 0.058
0.170 -0.102 0.048
0.168 -0.098 0.047
0.168 -0.097 0.047
0.169 -0.096 0.047
0.170 -0.094 0.047
0.184 -0.100 0.051
0.202 -0.108 0.056
0.206 -0.108 0.057
0.208 -0.106 0.057
0.211 -0.106 0.058
0.211 -0.104 0.058
0.207 -0.099 0.056
0.208 -0.098 0.057
0.209 -0.096 0.057
0.210 -0.094 0.057
0.212 -0.093 0.057
0.205 -0.088 0.055
0.208 -0.087 0.056
0.207 -0.085 0.056
0.205 -0.082 0.055
0.207 -0.080 0.056
0.213 -0.080 0.057
0.214 -0.079 0.057
0.214 -0.077 0.057
0.194 -0.068 0.052
0.189 -0.064 0.050
0.187 -0.062 0.050
0.189 -0.060 0.050
0.190 -0.059 0.050
0.191 -0.057 0.051
0.193 -0.056 0.051
0.200 -0.056 0.053
0.304 -0.077 0.080
0.307 -0.075 0.081
0.302 -0.071 0.080
0.300 -0.068 0.079
0.293 -0.063 0.077
0.292 -0.060 0.077
0.293 -0.058 0.077
0.292 -0.055 0.077
0.288 -0.051 0.075
0.285 -0.048 0.075
0.275 -0.044 0.072
0.277 -0.042 0.072
0.279 -0.040 0.073
0.279 -0.037 0.073
0.278 -0.034 0.073
0.282 -0.032 0.074
0.285 -0.030 0.074
0.283 -0.027 0.074
0.277 -0.024 0.072
0.277 -0.021 0.072
0.281 -0.019 0.073
0.287 -0.017 0.075
0.290 -0.015 0.076
0.283 -0.012 0.074
0.286 -0.009 0.074
0.290 -0.007 0.076
0.287 -0.004 0.075
0.290 -0.001 0.076
0.293 0.001 0.076
0.293 0.004 0.076
0.287 0.007 0.075
0.283 0.009 0.074
0.281 0.012 0.073
0.281 0.014 0.073
0.280 0.017 0.073
0.287 0.020 0.075
0.277 0.021 0.072
0.285 0.025 0.075
0.281 0.027 0.074
0.278 0.029 0.073
0.277 0.032 0.073
0.288 0.036 0.075
0.295 0.039 0.077
0.290 0.041 0.076
0.285 0.043 0.075
0.276 0.044 0.073
0.283 0.048 0.074
0.288 0.052 0.076
0.289 0.054 0.076
0.284 0.056 0.075
0.286 0.059 0.075
0.290 0.063 0.077
0.290 0.066 0.077
0.283 0.067 0.075
0.277 0.068 0.073
0.267 0.068 0.071
0.260 0.069 0.069
0.261 0.071 0.069
0.254 0.072 0.067
0.264 0.077 0.070
0.272 0.082 0.072
0.282 0.088 0.075
0.286 0.092 0.076
0.284 0.094 0.076
0.283 0.097 0.076
0.283 0.100 0.076
0.286 0.103 0.077
0.287 0.107 0.077
0.285 0.109 0.077
0.279 0.109 0.076
0.280 0.113 0.076
0.280 0.115 0.076
0.282 0.119 0.077
0.282 0.122 0.077
0.282 0.125 0.077
0.273 0.124 0.075
0.273 0.127 0.075
0.265 0.126 0.073
0.267 0.129 0.073
0.270 0.134 0.074
0.273 0.138 0.076
0.273 0.141 0.076
0.275 0.146 0.077
0.280 0.151 0.078
0.281 0.155 0.079
0.280 0.158 0.079
0.279 0.160 0.078
0.280 0.164 0.079
0.276 0.165 0.078
0.274 0.166 0.078
0.271 0.168 0.077
0.268 0.169 0.076
0.268 0.173 0.077
0.267 0.175 0.077
0.263 0.175 0.076
0.260 0.177 0.075
0.260 0.180 0.075
0.261 0.184 0.076
0.259 0.186 0.076
0.259 0.190 0.076
0.259 0.193 0.076
0.258 0.195 0.076
0.255 0.196 0.076
0.253 0.198 0.075
0.253 0.202 0.076
0.254 0.206 0.076
0.254 0.209 0.077
0.252 0.212 0.076
0.249 0.213 0.076
0.247 0.214 0.075
0.244 0.216 0.075
0.242 0.217 0.075
0.240 0.220 0.075
0.234 0.218 0.073
0.225 0.213 0.071
0.224 0.216 0.071
0.224 0.220 0.071
0.219 0.218 0.070
0.214 0.216 0.069
0.211 0.217 0.068
0.212 0.222 0.069
0.212 0.226 0.069
0.210 0.227 0.069
0.200 0.221 0.066
0.209 0.234 0.070
0.206 0.235 0.069
0.204 0.236 0.069
0.204 0.239 0.069
0.201 0.240 0.069
0.199 0.242 0.069
0.195 0.241 0.068
0.196 0.246 0.068
0.200 0.255 0.070
0.198 0.256 0.070
0.199 0.261 0.071
0.188 0.251 0.067
0.100 -0.137 0.036
0.101 -0.137 0.037
0.102 -0.135 0.037
0.102 -0.134 0.037
0.102 -0.132 0.036
0.103 -0.131 0.036
0.103 -0.131 0.037
0.104 -0.129 0.037
0.104 -0.128 0.037
0.104 -0.126 0.036
0.104 -0.124 0.036
0.104 -0.122 0.036
0.104 -0.120 0.036
0.104 -0.119 0.036
0.105 -0.118 0.036
0.106 -0.117 0.036
0.108 -0.118 0.036
0.109 -0.117 0.036
0.107 -0.113 0.035
0.108 -0.112 0.036
0.120 -0.123 0.039
0.266 -0.260 0.086
0.267 -0.256 0.086
0.269 -0.255 0.086
0.272 -0.253 0.087
0.274 -0.251 0.087
0.273 -0.247 0.086
0.273 -0.242 0.086
0.271 -0.237 0.085
0.271 -0.233 0.084
0.273 -0.231 0.085
0.274 -0.228 0.085
0.271 -0.222 0.083
0.265 -0.213 0.081
0.254 -0.201 0.078
0.212 -0.162 0.064
0.205 -0.155 0.062
0.208 -0.154 0.063
0.207 -0.151 0.062
0.203 -0.146 0.061
0.202 -0.142 0.060
0.204 -0.141 0.061
0.206 -0.140 0.061
0.203 -0.136 0.060
0.202 -0.133 0.059
0.196 -0.126 0.057
0.194 -0.123 0.057
0.176 -0.110 0.051
0.171 -0.104 0.050
0.170 -0.102 0.049
0.171 -0.101 0.049
0.172 -0.099 0.050
0.208 -0.115 0.060
0.207 -0.113 0.059
0.202 -0.108 0.058
0.205 -0.107 0.058
0.208 -0.107 0.059
0.210 -0.106 0.060
0.212 -0.104 0.060
0.211 -0.101 0.060
0.206 -0.097 0.058
0.207 -0.095 0.058
0.210 -0.094 0.059
0.212 -0.093 0.059
0.198 -0.085 0.055
0.209 -0.088 0.059
0.206 -0.084 0.057
0.206 -0.082 0.058
0.209 -0.081 0.058
0.211 -0.080 0.059
0.211 -0.078 0.059
0.209 -0.075 0.058
0.219 -0.076 0.060
0.221 -0.075 0.061
0.220 -0.073 0.061
0.196 -0.063 0.054
0.190 -0.059 0.052
0.190 -0.057 0.052
0.192 -0.056 0.053
0.194 -0.055 0.053
0.195 -0.053 0.053
0.197 -0.052 0.054
0.206 -0.052 0.056
0.289 -0.062 0.079
0.289 -0.060 0.079
0.286 -0.056 0.078
0.283 -0.053 0.077
0.283 -0.051 0.077
0.281 -0.048 0.076
0.278 -0.045 0.076
0.277 -0.042 0.075
0.277 -0.039 0.075
0.276 -0.037 0.075
0.278 -0.034 0.075
0.282 -0.032 0.076
0.283 -0.030 0.077
0.281 -0.027 0.076
0.277 -0.024 0.075
0.276 -0.021 0.075
0.280 -0.019 0.076
0.287 -0.017 0.078
0.285 -0.014 0.077
0.285 -0.012 0.077
0.288 -0.009 0.078
0.287 -0.007 0.077
0.286 -0.004 0.077
0.287 -0.001 0.078
0.291 0.001 0.079
0.291 0.004 0.079
0.285 0.006 0.077
0.283 0.009 0.077
0.283 0.012 0.077
0.283 0.014 0.076
0.289 0.017 0.078
0.293 0.020 0.079
0.293 0.023 0.079
0.282 0.024 0.076
0.276 0.026 0.075
0.271 0.029 0.074
0.274 0.031 0.074
0.287 0.036 0.078
0.291 0.039 0.079
0.291 0.041 0.079
0.276 0.042 0.075
0.275 0.044 0.075
0.281 0.048 0.077
0.288 0.052 0.078
0.289 0.055 0.079
0.283 0.056 0.077
0.287 0.060 0.078
0.288 0.063 0.079
0.286 0.065 0.078
0.283 0.067 0.078
0.274 0.067 0.075
0.260 0.066 0.071
0.250 0.066 0.069
0.251 0.069 0.069
0.262 0.074 0.072
0.278 0.081 0.077
0.282 0.085 0.078
0.289 0.090 0.080
0.289 0.093 0.080
0.282 0.094 0.078
0.275 0.094 0.076
0.278 0.098 0.077
0.279 0.101 0.078
0.279 0.104 0.078
0.278 0.106 0.078
0.277 0.109 0.077
0.273 0.110 0.077
0.271 0.112 0.076
0.271 0.115 0.076
0.270 0.117 0.076
0.271 0.120 0.077
0.271 0.123 0.077
0.262 0.122 0.074
0.263 0.125 0.075
0.264 0.128 0.075
0.267 0.133 0.076
0.268 0.136 0.077
0.267 0.138 0.077
0.265 0.140 0.076
0.267 0.144 0.077
0.263 0.145 0.076
0.273 0.154 0.079
0.271 0.155 0.079
0.274 0.160 0.080
0.272 0.163 0.080
0.266 0.162 0.078
0.261 0.162 0.077
0.262 0.166 0.078
0.261 0.168 0.077
0.260 0.171 0.077
0.258 0.172 0.077
0.257 0.175 0.077
0.257 0.178 0.077
0.256 0.181 0.077
0.255 0.183 0.077
0.253 0.185 0.077
0.256 0.190 0.078
0.254 0.193 0.078
0.251 0.193 0.077
0.250 0.196 0.077
0.251 0.201 0.078
0.251 0.204 0.078
0.251 0.207 0.078
0.249 0.209 0.078
0.246 0.211 0.078
0.242 0.211 0.077
0.235 0.209 0.075
0.237 0.214 0.076
0.232 0.213 0.075
0.226 0.210 0.073
0.223 0.211 0.073
0.224 0.216 0.073
0.222 0.218 0.073
0.215 0.215 0.071
0.211 0.214 0.070
0.208 0.215 0.070
0.210 0.220 0.071
0.211 0.225 0.072
0.202 0.219 0.069
0.195 0.215 0.067
0.202 0.226 0.070
0.204 0.232 0.071
0.204 0.236 0.071
0.207 0.243 0.073
0.202 0.241 0.071
0.193 0.235 0.069
0.194 0.239 0.070
0.188 0.237 0.068
0.193 0.247 0.070
0.194 0.252 0.071
0.191 0.252 0.070
0.199 0.266 0.074
0.101 -0.138 0.038
0.101 -0.137 0.038
0.102 -0.136 0.038
0.102 -0.135 0.038
0.102 -0.133 0.038
0.102 -0.131 0.038
0.104 -0.131 0.038
0.105 -0.130 0.038
0.105 -0.128 0.038
0.105 -0.127 0.038
0.103 -0.123 0.037
0.104 -0.122 0.037
0.104 -0.120 0.037
0.104 -0.119 0.037
0.104 -0.117 0.037
0.107 -0.118 0.037
0.110 -0.120 0.038
0.109 -0.117 0.038
0.106 -0.112 0.037
0.112 -0.117 0.038
0.108 -0.111 0.037
0.121 -0.122 0.041
0.261 -0.256 0.087
0.263 -0.254 0.088
0.265 -0.251 0.088
0.268 -0.250 0.088
0.269 -0.247 0.088
0.270 -0.244 0.088
0.268 -0.239 0.087
0.268 -0.235 0.087
0.268 -0.231 0.087
0.267 -0.227 0.086
0.267 -0.223 0.086
0.269 -0.220 0.086
0.266 -0.215 0.085
0.204 -0.157 0.064
0.199 -0.150 0.062
0.202 -0.150 0.063
0.207 -0.151 0.064
0.203 -0.146 0.063
0.204 -0.144 0.063
0.207 -0.143 0.064
0.208 -0.142 0.064
0.206 -0.138 0.063
0.203 -0.134 0.062
0.201 -0.130 0.061
0.189 -0.120 0.057
0.172 -0.107 0.052
0.171 -0.105 0.052
0.170 -0.102 0.051
0.185 -0.109 0.055
0.206 -0.119 0.062
0.206 -0.117 0.061
0.207 -0.115 0.062
0.205 -0.112 0.061
0.204 -0.109 0.060
0.205 -0.107 0.061
0.207 -0.106 0.061
0.209 -0.105 0.062
0.211 -0.103 0.062
0.209 -0.101 0.061
0.204 -0.096 0.060
0.203 -0.094 0.059
0.209 -0.094 0.061
0.213 -0.094 0.062
0.215 -0.092 0.062
0.197 -0.083 0.057
0.212 -0.087 0.061
0.212 -0.085 0.061
0.211 -0.082 0.061
0.210 -0.080 0.060
0.209 -0.077 0.060
0.212 -0.076 0.061
0.217 -0.076 0.062
0.221 -0.075 0.063
0.219 -0.072 0.062
0.224 -0.072 0.064
0.231 -0.072 0.066
0.194 -0.057 0.055
0.194 -0.055 0.055
0.194 -0.053 0.055
0.195 -0.051 0.055
0.196 -0.050 0.055
0.198 -0.048 0.056
0.199 -0.047 0.056
0.199 -0.045 0.056
0.201 -0.043 0.057
0.207 -0.043 0.058
0.218 -0.043 0.062
0.279 -0.045 0.078
0.279 -0.042 0.078
0.274 -0.039 0.077
0.274 -0.036 0.077
0.278 -0.034 0.078
0.280 -0.032 0.078
0.281 -0.030 0.079
0.281 -0.027 0.079
0.275 -0.024 0.077
0.278 -0.022 0.078
0.283 -0.019 0.079
0.285 -0.017 0.080
0.282 -0.014 0.079
0.280 -0.012 0.078
0.282 -0.009 0.079
0.287 -0.007 0.080
0.284 -0.004 0.079
0.284 -0.001 0.079
0.286 0.001 0.080
0.283 0.004 0.079
0.283 0.006 0.079
0.285 0.009 0.080
0.283 0.012 0.079
0.281 0.014 0.079
0.288 0.017 0.081
0.302 0.021 0.085
0.276 0.024 0.077
0.273 0.026 0.076
0.269 0.028 0.075
0.271 0.031 0.076
0.279 0.035 0.078
0.285 0.038 0.080
0.286 0.041 0.080
0.286 0.043 0.080
0.276 0.044 0.078
0.283 0.048 0.080
0.290 0.052 0.082
0.291 0.055 0.082
0.290 0.057 0.082
0.289 0.060 0.082
0.287 0.062 0.081
0.280 0.063 0.079
0.279 0.066 0.079
0.263 0.065 0.075
0.253 0.065 0.072
0.248 0.066 0.071
0.247 0.068 0.070
0.278 0.079 0.079
0.285 0.084 0.081
0.294 0.089 0.084
0.296 0.093 0.085
0.291 0.094 0.084
0.280 0.093 0.080
0.271 0.093 0.078
0.270 0.095 0.078
0.274 0.099 0.079
0.273 0.102 0.079
0.273 0.105 0.079
0.272 0.107 0.079
0.269 0.108 0.078
0.266 0.110 0.077
0.261 0.110 0.076
0.261 0.113 0.076
0.262 0.116 0.077
0.261 0.119 0.076
0.262 0.122 0.077
0.262 0.125 0.077
0.262 0.128 0.077
0.263 0.131 0.078
0.264 0.134 0.078
0.261 0.135 0.078
0.260 0.138 0.078
0.259 0.140 0.077
0.258 0.142 0.077
0.255 0.144 0.077
0.255 0.147 0.077
0.255 0.150 0.077
0.248 0.148 0.075
0.253 0.154 0.077
0.251 0.156 0.076
0.255 0.162 0.078
0.256 0.165 0.079
0.256 0.168 0.079
0.257 0.172 0.079
0.257 0.175 0.080
0.254 0.176 0.079
0.252 0.178 0.079
0.250 0.180 0.078
0.251 0.184 0.079
0.249 0.186 0.079
0.251 0.190 0.079
0.248 0.192 0.079
0.246 0.194 0.079
0.251 0.201 0.080
0.249 0.203 0.080
0.247 0.205 0.080
0.242 0.204 0.079
0.238 0.204 0.078
0.230 0.201 0.076
0.223 0.197 0.073
0.222 0.201 0.074
0.223 0.204 0.074
0.218 0.203 0.073
0.217 0.206 0.073
0.219 0.211 0.074
0.219 0.215 0.075
0.216 0.215 0.074
0.212 0.215 0.073
0.207 0.214 0.072
0.209 0.220 0.073
0.205 0.219 0.072
0.202 0.220 0.071
0.202 0.223 0.072
0.203 0.228 0.072
0.206 0.235 0.074
0.207 0.241 0.075
0.203 0.239 0.074
0.195 0.234 0.072
0.196 0.238 0.072
0.188 0.233 0.070
0.194 0.244 0.072
0.196 0.251 0.074
0.194 0.252 0.074
0.188 0.248 0.072
0.184 0.246 0.071
0.101 -0.138 0.039
0.102 -0.138 0.039
0.102 -0.136 0.039
0.102 -0.135 0.039
0.102 -0.132 0.039
0.103 -0.132 0.039
0.104 -0.131 0.039
0.104 -0.130 0.039
0.104 -0.129 0.039
0.105 -0.127 0.039
0.105 -0.126 0.039
0.104 -0.123 0.038
0.104 -0.121 0.038
0.105 -0.120 0.038
0.103 -0.116 0.038
0.111 -0.124 0.040
0.109 -0.119 0.039
0.107 -0.115 0.038
0.101 -0.107 0.036
0.109 -0.113 0.038
0.117 -0.120 0.041
0.119 -0.121 0.042
0.121 -0.120 0.042
0.259 -0.250 0.089
0.261 -0.248 0.089
0.263 -0.245 0.090
0.264 -0.243 0.090
0.266 -0.241 0.090
0.266 -0.237 0.089
0.265 -0.232 0.089
0.264 -0.228 0.088
0.264 -0.224 0.088
0.265 -0.221 0.088
0.265 -0.218 0.087
0.257 -0.208 0.084
0.246 -0.196 0.081
0.238 -0.186 0.077
0.201 -0.155 0.065
0.196 -0.148 0.063
0.198 -0.148 0.064
0.202 -0.147 0.065
0.203 -0.146 0.065
0.205 -0.145 0.065
0.207 -0.144 0.066
0.209 -0.142 0.066
0.207 -0.139 0.065
0.204 -0.135 0.064
0.199 -0.129 0.063
0.174 -0.110 0.054
0.173 -0.108 0.054
0.175 -0.107 0.055
0.190 -0.114 0.059
0.202 -0.119 0.063
0.207 -0.120 0.064
0.213 -0.121 0.066
0.211 -0.118 0.065
0.207 -0.113 0.064
0.206 -0.110 0.063
0.205 -0.108 0.063
0.206 -0.106 0.063
0.207 -0.104 0.063
0.208 -0.103 0.063
0.206 -0.099 0.062
0.203 -0.096 0.061
0.204 -0.094 0.061
0.212 -0.095 0.064
0.214 -0.094 0.064
0.212 -0.091 0.064
0.213 -0.089 0.064
0.213 -0.087 0.064
0.214 -0.086 0.064
0.212 -0.083 0.063
0.208 -0.079 0.062
0.207 -0.077 0.062
0.209 -0.075 0.062
0.221 -0.077 0.066
0.222 -0.075 0.066
0.222 -0.073 0.065
0.225 -0.072 0.066
0.232 -0.072 0.068
0.237 -0.072 0.070
0.238 -0.070 0.070
0.241 -0.068 0.071
0.208 -0.055 0.061
0.203 -0.051 0.059
0.198 -0.048 0.058
0.198 -0.047 0.058
0.199 -0.045 0.058
0.199 -0.043 0.058
0.200 -0.041 0.058
0.203 -0.040 0.059
0.205 -0.039 0.060
0.207 -0.037 0.060
0.208 -0.035 0.060
0.211 -0.034 0.061
0.214 -0.032 0.062
0.220 -0.031 0.064
0.268 -0.033 0.078
0.275 -0.032 0.080
0.273 -0.029 0.079
0.271 -0.026 0.078
0.272 -0.024 0.079
0.274 -0.021 0.079
0.279 -0.019 0.081
0.278 -0.017 0.080
0.276 -0.014 0.080
0.277 -0.011 0.080
0.280 -0.009 0.081
0.280 -0.006 0.081
0.279 -0.004 0.081
0.282 -0.001 0.082
0.282 0.001 0.081
0.281 0.004 0.081
0.281 0.006 0.081
0.284 0.009 0.082
0.287 0.012 0.083
0.283 0.014 0.082
0.285 0.017 0.083
0.284 0.019 0.082
0.273 0.021 0.079
0.264 0.023 0.077
0.263 0.025 0.076
0.266 0.028 0.077
0.270 0.031 0.078
0.275 0.034 0.080
0.281 0.037 0.082
0.286 0.041 0.083
0.285 0.043 0.083
0.282 0.045 0.082
0.285 0.049 0.083
0.284 0.051 0.083
0.288 0.054 0.084
0.288 0.057 0.084
0.285 0.059 0.083
0.281 0.061 0.082
0.274 0.062 0.080
0.258 0.061 0.076
0.246 0.061 0.072
0.246 0.063 0.072
0.242 0.064 0.071
0.239 0.066 0.070
0.243 0.069 0.072
0.287 0.084 0.085
0.289 0.088 0.086
0.293 0.092 0.087
0.288 0.093 0.085
0.278 0.093 0.083
0.267 0.092 0.079
0.265 0.094 0.079
0.262 0.095 0.078
0.266 0.099 0.079
0.263 0.101 0.079
0.260 0.102 0.078
0.263 0.106 0.079
0.258 0.107 0.078
0.251 0.107 0.076
0.250 0.109 0.076
0.253 0.113 0.077
0.255 0.116 0.077
0.257 0.120 0.078
0.256 0.122 0.078
0.257 0.125 0.078
0.257 0.128 0.079
0.257 0.131 0.079
0.256 0.133 0.079
0.256 0.136 0.079
0.256 0.139 0.079
0.254 0.141 0.079
0.248 0.140 0.077
0.247 0.142 0.077
0.247 0.145 0.077
0.246 0.148 0.077
0.242 0.148 0.076
0.243 0.151 0.077
0.243 0.154 0.077
0.252 0.163 0.080
0.254 0.167 0.081
0.257 0.173 0.082
0.256 0.175 0.082
0.252 0.175 0.081
0.248 0.176 0.080
0.249 0.179 0.081
0.250 0.183 0.081
0.244 0.182 0.080
0.245 0.186 0.080
0.246 0.191 0.081
0.248 0.196 0.082
0.248 0.199 0.082
0.248 0.203 0.083
0.238 0.198 0.080
0.231 0.195 0.078
0.229 0.196 0.077
0.223 0.195 0.076
0.216 0.192 0.074
0.214 0.194 0.074
0.216 0.199 0.075
0.214 0.200 0.074
0.212 0.202 0.074
0.210 0.203 0.074
0.212 0.209 0.075
0.213 0.213 0.076
0.213 0.217 0.076
0.208 0.215 0.075
0.206 0.217 0.075
0.202 0.216 0.073
0.200 0.217 0.073
0.198 0.220 0.073
0.203 0.228 0.075
0.205 0.234 0.076
0.202 0.235 0.076
0.196 0.232 0.074
0.197 0.237 0.075
0.195 0.238 0.075
0.201 0.249 0.077
0.203 0.256 0.078
0.202 0.258 0.079
0.199 0.259 0.078
0.193 0.255 0.076
0.219 0.292 0.087
0.102 -0.137 0.041
0.102 -0.137 0.041
0.102 -0.135 0.040
0.103 -0.134 0.041
0.104 -0.133 0.041
0.105 -0.133 0.041
0.104 -0.130 0.041
0.104 -0.128 0.040
0.105 -0.127 0.040
0.105 -0.126 0.040
0.105 -0.124 0.040
0.104 -0.121 0.040
0.103 -0.118 0.039
0.108 -0.122 0.041
0.110 -0.122 0.041
0.105 -0.115 0.039
0.104 -0.112 0.038
0.101 -0.108 0.037
0.111 -0.116 0.041
0.121 -0.125 0.044
0.118 -0.120 0.043
0.118 -0.118 0.043
0.118 -0.116 0.042
0.256 -0.243 0.091
0.254 -0.238 0.090
0.258 -0.238 0.091
0.259 -0.235 0.091
0.260 -0.232 0.090
0.261 -0.230 0.090
0.258 -0.223 0.089
0.261 -0.222 0.090
0.263 -0.220 0.090
0.263 -0.216 0.089
0.254 -0.205 0.086
0.247 -0.197 0.083
0.210 -0.161 0.070
0.200 -0.152 0.067
0.198 -0.148 0.066
0.200 -0.146 0.066
0.203 -0.146 0.067
0.204 -0.144 0.067
0.205 -0.143 0.067
0.207 -0.142 0.068
0.206 -0.138 0.067
0.201 -0.133 0.066
0.181 -0.117 0.059
0.177 -0.113 0.057
0.178 -0.111 0.057
0.199 -0.122 0.064
0.204 -0.122 0.065
0.204 -0.121 0.065
0.211 -0.122 0.067
0.212 -0.121 0.068
0.211 -0.117 0.067
0.209 -0.114 0.066
0.208 -0.111 0.066
0.208 -0.109 0.065
0.204 -0.105 0.064
0.207 -0.104 0.065
0.205 -0.101 0.064
0.204 -0.098 0.064
0.203 -0.096 0.063
0.205 -0.095 0.064
0.212 -0.096 0.066
0.211 -0.093 0.065
0.208 -0.090 0.065
0.210 -0.088 0.065
0.204 -0.084 0.063
0.214 -0.085 0.066
0.211 -0.082 0.065
0.208 -0.079 0.064
0.207 -0.077 0.063
0.207 -0.074 0.063
0.218 -0.077 0.067
0.224 -0.076 0.068
0.223 -0.074 0.068
0.223 -0.072 0.068
0.228 -0.071 0.069
0.236 -0.071 0.072
0.239 -0.070 0.073
0.241 -0.068 0.073
0.258 -0.070 0.078
0.276 -0.073 0.083
0.278 -0.071 0.084
0.276 -0.068 0.083
0.262 -0.062 0.079
0.213 -0.044 0.064
0.212 -0.042 0.064
0.210 -0.040 0.063
0.207 -0.037 0.062
0.207 -0.035 0.062
0.206 -0.033 0.062
0.209 -0.032 0.063
0.212 -0.030 0.063
0.214 -0.028 0.064
0.216 -0.027 0.065
0.217 -0.025 0.065
0.226 -0.024 0.068
0.261 -0.025 0.078
0.268 -0.023 0.080
0.270 -0.021 0.081
0.271 -0.019 0.081
0.269 -0.016 0.080
0.272 -0.014 0.081
0.274 -0.011 0.082
0.277 -0.009 0.083
0.273 -0.006 0.081
0.273 -0.004 0.082
0.275 -0.001 0.082
0.279 0.001 0.083
0.278 0.004 0.083
0.279 0.006 0.083
0.289 0.009 0.086
0.291 0.012 0.087
0.286 0.014 0.085
0.277 0.017 0.083
0.271 0.019 0.081
0.268 0.021 0.080
0.264 0.023 0.079
0.262 0.025 0.078
0.264 0.028 0.079
0.268 0.031 0.080
0.271 0.034 0.081
0.277 0.037 0.083
0.283 0.040 0.085
0.282 0.043 0.085
0.278 0.045 0.084
0.279 0.048 0.084
0.278 0.050 0.084
0.278 0.053 0.084
0.281 0.056 0.085
0.276 0.058 0.083
0.260 0.057 0.078
0.265 0.060 0.080
0.243 0.057 0.074
0.241 0.059 0.073
0.246 0.063 0.075
0.244 0.065 0.074
0.235 0.065 0.071
0.238 0.068 0.073
0.277 0.082 0.085
0.284 0.086 0.087
0.279 0.088 0.085
0.276 0.089 0.085
0.271 0.090 0.083
0.254 0.087 0.078
0.244 0.086 0.075
0.251 0.091 0.077
0.253 0.095 0.078
0.253 0.097 0.078
0.252 0.099 0.078
0.249 0.101 0.077
0.246 0.102 0.076
0.249 0.106 0.077
0.247 0.107 0.077
0.247 0.110 0.077
0.249 0.113 0.078
0.251 0.117 0.079
0.251 0.120 0.079
0.251 0.122 0.079
0.249 0.124 0.079
0.246 0.125 0.078
0.249 0.130 0.079
0.247 0.131 0.079
0.247 0.134 0.079
0.245 0.136 0.078
0.245 0.138 0.078
0.245 0.141 0.079
0.246 0.145 0.080
0.246 0.148 0.080
0.243 0.148 0.079
0.241 0.150 0.078
0.243 0.154 0.079
0.243 0.158 0.080
0.243 0.160 0.080
0.252 0.169 0.083
