VERSION .7
FIELDS x y z
SIZE 4 4 4
TYPE F F F
COUNT 1 1 1
WIDTH     2584
HEIGHT 1
VIEWPOINT 0 0 0 1 0 0 0
POINTS     2584
DATA ascii
0.201 -0.155 0.087
0.202 -0.153 0.087
0.205 -0.153 0.088
0.202 -0.148 0.086
0.200 -0.144 0.086
0.199 -0.141 0.085
0.198 -0.138 0.084
0.200 -0.136 0.085
0.203 -0.136 0.086
0.202 -0.133 0.085
0.199 -0.128 0.083
0.200 -0.127 0.083
0.208 -0.129 0.087
0.208 -0.127 0.086
0.207 -0.124 0.086
0.208 -0.122 0.086
0.207 -0.119 0.085
0.205 -0.116 0.084
0.204 -0.113 0.084
0.208 -0.113 0.085
0.207 -0.110 0.085
0.206 -0.107 0.084
0.208 -0.106 0.085
0.206 -0.103 0.084
0.205 -0.100 0.083
0.203 -0.097 0.082
0.200 -0.094 0.081
0.203 -0.093 0.082
0.203 -0.091 0.081
0.203 -0.089 0.081
0.203 -0.087 0.081
0.204 -0.085 0.082
0.206 -0.083 0.082
0.205 -0.081 0.081
0.205 -0.079 0.081
0.203 -0.076 0.081
0.204 -0.074 0.081
0.206 -0.073 0.081
0.208 -0.072 0.082
0.212 -0.071 0.083
0.217 -0.071 0.085
0.220 -0.069 0.087
0.220 -0.067 0.087
0.221 -0.065 0.087
0.221 -0.063 0.087
0.222 -0.061 0.087
0.225 -0.060 0.088
0.229 -0.059 0.089
0.231 -0.057 0.090
0.231 -0.055 0.090
0.229 -0.052 0.089
0.227 -0.050 0.088
0.227 -0.048 0.088
0.226 -0.045 0.088
0.226 -0.043 0.088
0.226 -0.041 0.088
0.226 -0.039 0.088
0.227 -0.037 0.088
0.229 -0.035 0.089
0.229 -0.033 0.089
0.229 -0.031 0.089
0.229 -0.029 0.089
0.227 -0.026 0.088
0.227 -0.024 0.088
0.227 -0.022 0.088
0.234 -0.021 0.090
0.240 -0.019 0.093
0.242 -0.017 0.093
0.252 -0.015 0.097
0.244 -0.012 0.094
0.232 -0.010 0.090
0.233 -0.007 0.090
0.231 -0.005 0.089
0.223 -0.003 0.086
0.216 -0.001 0.083
0.219 0.001 0.085
0.220 0.003 0.085
0.213 0.005 0.082
0.210 0.007 0.081
0.208 0.009 0.080
0.214 0.011 0.083
0.226 0.014 0.087
0.224 0.016 0.087
0.228 0.018 0.088
0.232 0.021 0.090
0.231 0.023 0.089
0.233 0.025 0.090
0.233 0.027 0.090
0.235 0.030 0.091
0.228 0.031 0.088
0.224 0.032 0.087
0.192 0.031 0.074
0.188 0.033 0.073
0.190 0.035 0.074
0.189 0.036 0.074
0.189 0.038 0.074
0.187 0.040 0.073
0.196 0.043 0.076
0.219 0.050 0.086
0.230 0.055 0.090
0.235 0.059 0.092
0.237 0.061 0.093
0.234 0.063 0.092
0.223 0.062 0.088
0.217 0.063 0.086
0.215 0.064 0.085
0.212 0.066 0.084
0.211 0.067 0.083
0.207 0.068 0.082
0.206 0.070 0.082
0.208 0.073 0.083
0.206 0.074 0.082
0.207 0.076 0.082
0.205 0.078 0.082
0.201 0.078 0.081
0.199 0.080 0.080
0.200 0.082 0.080
0.198 0.083 0.080
0.192 0.083 0.078
0.195 0.086 0.079
0.190 0.086 0.077
0.190 0.088 0.077
0.190 0.090 0.077
0.182 0.088 0.074
0.187 0.093 0.076
0.188 0.095 0.077
0.191 0.099 0.078
0.187 0.099 0.077
0.186 0.100 0.077
0.182 0.100 0.075
0.186 0.105 0.077
0.197 0.113 0.082
0.202 0.118 0.084
0.200 0.119 0.084
0.196 0.120 0.082
0.194 0.121 0.082
0.196 0.124 0.083
0.199 0.129 0.085
0.201 0.133 0.086
0.201 0.135 0.086
0.198 0.136 0.085
0.198 0.138 0.085
0.225 0.159 0.097
0.222 0.161 0.096
0.206 0.151 0.089
0.202 0.151 0.088
0.203 0.155 0.089
0.199 0.155 0.088
0.195 0.154 0.086
0.182 0.146 0.081
0.179 0.147 0.080
0.180 0.150 0.081
0.182 0.154 0.082
0.181 0.156 0.082
0.181 0.159 0.082
0.182 0.162 0.083
0.180 0.164 0.083
0.180 0.166 0.083
0.180 0.170 0.084
0.180 0.172 0.084
0.181 0.176 0.085
0.180 0.179 0.085
0.177 0.179 0.084
0.176 0.181 0.084
0.176 0.183 0.084
0.175 0.186 0.085
0.174 0.188 0.085
0.173 0.190 0.085
0.172 0.192 0.085
0.172 0.195 0.085
0.171 0.197 0.085
0.170 0.200 0.085
0.170 0.203 0.086
0.170 0.206 0.086
0.169 0.208 0.086
0.169 0.211 0.087
0.168 0.213 0.087
0.167 0.215 0.087
0.166 0.217 0.087
0.165 0.219 0.087
0.099 -0.131 0.052
0.094 -0.122 0.049
0.094 -0.121 0.049
0.095 -0.121 0.049
0.098 -0.123 0.050
0.101 -0.125 0.052
0.103 -0.126 0.053
0.104 -0.125 0.053
0.103 -0.122 0.052
0.099 -0.116 0.050
0.120 -0.136 0.060
0.119 -0.133 0.059
0.118 -0.130 0.058
0.118 -0.128 0.058
0.114 -0.121 0.055
0.111 -0.116 0.054
0.104 -0.107 0.050
0.103 -0.105 0.049
0.105 -0.105 0.050
0.106 -0.104 0.050
0.107 -0.104 0.051
0.111 -0.106 0.052
0.116 -0.110 0.055
0.181 -0.165 0.084
0.194 -0.174 0.089
0.194 -0.171 0.089
0.195 -0.170 0.089
0.197 -0.168 0.090
0.198 -0.166 0.090
0.200 -0.165 0.090
0.201 -0.163 0.090
0.201 -0.161 0.090
0.202 -0.159 0.090
0.202 -0.156 0.090
0.202 -0.153 0.090
0.200 -0.150 0.089
0.200 -0.147 0.088
0.200 -0.144 0.088
0.198 -0.140 0.086
0.197 -0.137 0.086
0.199 -0.136 0.087
0.201 -0.135 0.087
0.204 -0.134 0.088
0.203 -0.131 0.087
0.200 -0.127 0.086
0.202 -0.126 0.086
0.206 -0.126 0.088
0.205 -0.123 0.087
0.205 -0.121 0.087
0.207 -0.119 0.087
0.203 -0.115 0.086
0.204 -0.113 0.086
0.208 -0.113 0.087
0.203 -0.108 0.085
0.204 -0.107 0.085
0.206 -0.105 0.086
0.207 -0.103 0.086
0.204 -0.100 0.085
0.200 -0.096 0.083
0.198 -0.093 0.082
0.202 -0.093 0.083
0.206 -0.092 0.085
0.205 -0.090 0.084
0.205 -0.088 0.084
0.208 -0.086 0.085
0.208 -0.085 0.085
0.209 -0.083 0.085
0.207 -0.080 0.084
0.206 -0.078 0.084
0.205 -0.075 0.083
0.207 -0.074 0.084
0.209 -0.072 0.085
0.212 -0.071 0.086
0.211 -0.069 0.085
0.217 -0.068 0.087
0.218 -0.067 0.088
0.218 -0.065 0.088
0.217 -0.062 0.087
0.218 -0.060 0.088
0.220 -0.059 0.088
0.223 -0.058 0.089
0.226 -0.056 0.090
0.226 -0.054 0.091
0.225 -0.052 0.090
0.225 -0.049 0.090
0.224 -0.047 0.089
0.223 -0.045 0.089
0.224 -0.043 0.089
0.224 -0.041 0.089
0.222 -0.038 0.088
0.223 -0.036 0.089
0.223 -0.034 0.089
0.224 -0.032 0.089
0.224 -0.030 0.089
0.223 -0.028 0.088
0.222 -0.026 0.088
0.222 -0.024 0.088
0.236 -0.023 0.093
0.243 -0.021 0.096
0.240 -0.019 0.095
0.240 -0.017 0.095
0.219 -0.013 0.087
0.215 -0.011 0.085
0.218 -0.009 0.086
0.220 -0.007 0.087
0.221 -0.005 0.087
0.207 -0.003 0.082
0.202 -0.001 0.080
0.207 0.001 0.082
0.209 0.003 0.083
0.208 0.005 0.082
0.207 0.007 0.082
0.198 0.008 0.078
0.198 0.010 0.079
0.207 0.013 0.082
0.222 0.015 0.088
0.226 0.018 0.090
0.225 0.020 0.089
0.225 0.022 0.089
0.223 0.024 0.088
0.220 0.026 0.087
0.219 0.030 0.087
0.186 0.029 0.074
0.179 0.029 0.071
0.178 0.031 0.071
0.182 0.033 0.073
0.184 0.035 0.073
0.185 0.037 0.074
0.189 0.040 0.076
0.203 0.045 0.081
0.220 0.051 0.088
0.231 0.056 0.093
0.236 0.059 0.095
0.235 0.061 0.095
0.226 0.061 0.091
0.216 0.060 0.087
0.207 0.060 0.084
0.205 0.061 0.083
0.207 0.064 0.084
0.205 0.066 0.083
0.201 0.066 0.082
0.199 0.067 0.081
0.200 0.070 0.081
0.201 0.072 0.082
0.201 0.074 0.082
0.202 0.077 0.083
0.200 0.078 0.082
0.197 0.079 0.081
0.196 0.081 0.081
0.198 0.083 0.082
0.197 0.085 0.081
0.194 0.086 0.081
0.194 0.088 0.081
0.194 0.090 0.081
0.193 0.091 0.080
0.191 0.093 0.080
0.188 0.094 0.079
0.193 0.098 0.081
0.196 0.102 0.083
0.195 0.104 0.082
0.191 0.103 0.081
0.188 0.104 0.080
0.190 0.107 0.081
0.193 0.111 0.082
0.205 0.121 0.088
0.195 0.117 0.084
0.186 0.113 0.080
0.181 0.113 0.078
0.176 0.112 0.076
0.179 0.116 0.078
0.196 0.130 0.086
0.197 0.133 0.086
0.195 0.134 0.086
0.194 0.135 0.086
0.220 0.157 0.098
0.210 0.152 0.093
0.201 0.148 0.089
0.197 0.148 0.088
0.194 0.149 0.087
0.195 0.152 0.088
0.194 0.154 0.088
0.185 0.150 0.084
0.177 0.145 0.081
0.178 0.149 0.082
0.179 0.152 0.083
0.178 0.154 0.083
0.179 0.158 0.083
0.179 0.161 0.084
0.177 0.162 0.084
0.176 0.164 0.084
0.178 0.168 0.085
0.177 0.170 0.085
0.176 0.172 0.085
0.175 0.174 0.085
0.175 0.177 0.085
0.174 0.179 0.085
0.174 0.182 0.086
0.174 0.185 0.086
0.173 0.187 0.086
0.171 0.188 0.086
0.171 0.191 0.086
0.171 0.194 0.087
0.170 0.196 0.087
0.169 0.198 0.087
0.169 0.202 0.087
0.168 0.203 0.087
0.167 0.206 0.088
0.167 0.209 0.088
0.166 0.211 0.088
0.165 0.212 0.088
0.163 0.214 0.087
0.097 -0.126 0.052
0.104 -0.134 0.055
0.102 -0.130 0.054
0.100 -0.126 0.053
0.100 -0.124 0.053
0.104 -0.128 0.055
0.104 -0.125 0.054
0.104 -0.124 0.054
0.120 -0.140 0.062
0.124 -0.144 0.064
0.123 -0.139 0.063
0.121 -0.135 0.061
0.120 -0.132 0.060
0.118 -0.128 0.059
0.115 -0.123 0.058
0.113 -0.119 0.056
0.109 -0.113 0.054
0.104 -0.106 0.051
0.104 -0.105 0.051
0.106 -0.105 0.052
0.109 -0.107 0.053
0.112 -0.107 0.054
0.116 -0.109 0.056
0.126 -0.117 0.060
0.194 -0.174 0.092
0.195 -0.173 0.092
0.196 -0.171 0.092
0.196 -0.168 0.092
0.197 -0.166 0.092
0.199 -0.164 0.092
0.200 -0.162 0.092
0.200 -0.160 0.092
0.198 -0.156 0.091
0.200 -0.155 0.091
0.200 -0.152 0.091
0.199 -0.149 0.090
0.198 -0.145 0.089
0.198 -0.143 0.089
0.199 -0.141 0.089
0.199 -0.139 0.089
0.199 -0.136 0.089
0.199 -0.134 0.088
0.199 -0.131 0.088
0.200 -0.130 0.088
0.200 -0.127 0.088
0.201 -0.125 0.088
0.200 -0.123 0.088
0.198 -0.119 0.087
0.198 -0.117 0.086
0.198 -0.115 0.086
0.199 -0.113 0.086
0.199 -0.111 0.086
0.199 -0.108 0.086
0.199 -0.106 0.086
0.200 -0.105 0.086
0.202 -0.103 0.086
0.202 -0.101 0.086
0.202 -0.099 0.086
0.203 -0.097 0.086
0.204 -0.096 0.087
0.206 -0.095 0.087
0.206 -0.092 0.087
0.206 -0.090 0.087
0.205 -0.088 0.086
0.206 -0.086 0.087
0.208 -0.085 0.087
0.208 -0.082 0.087
0.207 -0.080 0.087
0.206 -0.078 0.086
0.206 -0.075 0.086
0.207 -0.074 0.086
0.211 -0.073 0.088
0.209 -0.070 0.087
0.210 -0.068 0.087
0.212 -0.067 0.088
0.215 -0.066 0.089
0.213 -0.063 0.088
0.213 -0.061 0.088
0.214 -0.060 0.088
0.216 -0.058 0.089
0.218 -0.056 0.089
0.220 -0.055 0.090
0.221 -0.053 0.091
0.222 -0.051 0.091
0.222 -0.049 0.091
0.219 -0.046 0.090
0.219 -0.044 0.089
0.219 -0.042 0.090
0.218 -0.040 0.089
0.218 -0.038 0.089
0.218 -0.036 0.089
0.219 -0.034 0.089
0.217 -0.031 0.088
0.218 -0.029 0.089
0.219 -0.027 0.089
0.220 -0.026 0.089
0.232 -0.025 0.094
0.240 -0.023 0.098
0.240 -0.021 0.097
0.229 -0.018 0.093
0.209 -0.014 0.085
0.207 -0.012 0.084
0.203 -0.010 0.082
0.204 -0.008 0.083
0.206 -0.007 0.084
0.201 -0.005 0.081
0.192 -0.003 0.078
0.187 -0.001 0.076
0.188 0.001 0.076
0.184 0.003 0.075
0.178 0.004 0.072
0.183 0.008 0.074
0.186 0.010 0.075
0.193 0.012 0.079
0.187 0.013 0.076
0.185 0.015 0.075
0.194 0.023 0.079
0.172 0.027 0.070
0.169 0.028 0.069
0.168 0.029 0.069
0.170 0.031 0.070
0.173 0.033 0.071
0.181 0.037 0.074
0.192 0.041 0.079
0.207 0.046 0.085
0.216 0.050 0.089
0.222 0.054 0.092
0.234 0.059 0.097
0.236 0.061 0.097
0.224 0.061 0.093
0.212 0.059 0.088
0.203 0.059 0.084
0.200 0.060 0.083
0.202 0.062 0.084
0.201 0.064 0.084
0.200 0.066 0.083
0.197 0.067 0.082
0.197 0.069 0.082
0.197 0.071 0.082
0.198 0.073 0.083
0.199 0.076 0.084
0.199 0.078 0.084
0.198 0.079 0.083
0.197 0.081 0.083
0.197 0.083 0.083
0.198 0.086 0.084
0.196 0.087 0.083
0.196 0.089 0.083
0.196 0.091 0.084
0.195 0.093 0.084
0.193 0.094 0.083
0.192 0.096 0.083
0.193 0.098 0.083
0.196 0.102 0.085
0.194 0.103 0.084
0.185 0.100 0.080
0.180 0.099 0.078
0.178 0.101 0.078
0.173 0.100 0.076
0.171 0.101 0.075
0.158 0.095 0.070
0.167 0.103 0.074
0.169 0.105 0.075
0.174 0.111 0.077
0.177 0.115 0.079
0.192 0.127 0.086
0.192 0.129 0.086
0.191 0.131 0.086
0.190 0.133 0.086
0.205 0.146 0.093
0.202 0.147 0.092
0.198 0.147 0.091
0.191 0.144 0.088
0.187 0.143 0.086
0.188 0.147 0.087
0.191 0.152 0.089
0.190 0.153 0.089
0.182 0.150 0.085
0.178 0.149 0.084
0.176 0.150 0.084
0.175 0.152 0.083
0.177 0.156 0.085
0.176 0.159 0.085
0.174 0.159 0.084
0.173 0.161 0.084
0.174 0.165 0.085
0.174 0.167 0.085
0.173 0.169 0.085
0.172 0.172 0.086
0.172 0.174 0.086
0.172 0.177 0.086
0.172 0.180 0.087
0.171 0.183 0.087
0.171 0.185 0.087
0.170 0.187 0.087
0.167 0.187 0.087
0.167 0.190 0.087
0.167 0.193 0.087
0.167 0.197 0.088
0.167 0.200 0.089
0.166 0.202 0.089
0.165 0.204 0.089
0.165 0.207 0.089
0.164 0.208 0.089
0.162 0.209 0.088
0.162 0.212 0.089
0.103 -0.135 0.056
0.103 -0.133 0.056
0.102 -0.131 0.056
0.101 -0.127 0.055
0.101 -0.126 0.054
0.106 -0.130 0.057
0.117 -0.142 0.063
0.122 -0.145 0.065
0.126 -0.147 0.066
0.125 -0.145 0.066
0.124 -0.141 0.065
0.121 -0.136 0.063
0.117 -0.130 0.061
0.118 -0.129 0.061
0.118 -0.127 0.061
0.114 -0.121 0.058
0.113 -0.118 0.057
0.109 -0.111 0.055
0.104 -0.105 0.052
0.105 -0.104 0.052
0.109 -0.106 0.054
0.111 -0.106 0.055
0.113 -0.107 0.056
0.119 -0.110 0.058
0.130 -0.119 0.064
0.193 -0.171 0.093
0.194 -0.169 0.093
0.194 -0.167 0.093
0.196 -0.165 0.093
0.196 -0.163 0.093
0.197 -0.160 0.093
0.195 -0.157 0.092
0.195 -0.154 0.092
0.196 -0.152 0.092
0.197 -0.150 0.092
0.196 -0.147 0.091
0.196 -0.145 0.091
0.196 -0.142 0.091
0.198 -0.141 0.091
0.198 -0.139 0.091
0.198 -0.136 0.090
0.197 -0.133 0.090
0.197 -0.131 0.089
0.198 -0.129 0.090
0.199 -0.127 0.090
0.199 -0.125 0.089
0.200 -0.123 0.089
0.199 -0.120 0.089
0.197 -0.117 0.088
0.199 -0.115 0.088
0.199 -0.113 0.088
0.199 -0.111 0.088
0.199 -0.108 0.088
0.199 -0.106 0.087
0.200 -0.105 0.088
0.200 -0.103 0.088
0.201 -0.101 0.088
0.201 -0.099 0.088
0.201 -0.097 0.088
0.202 -0.095 0.088
0.201 -0.092 0.087
0.203 -0.091 0.088
0.202 -0.088 0.087
0.201 -0.086 0.087
0.202 -0.084 0.087
0.201 -0.082 0.086
0.200 -0.080 0.086
0.201 -0.078 0.086
0.204 -0.077 0.087
0.204 -0.075 0.087
0.204 -0.073 0.087
0.206 -0.071 0.088
0.207 -0.070 0.088
0.208 -0.068 0.088
0.209 -0.066 0.089
0.210 -0.064 0.089
0.209 -0.062 0.088
0.210 -0.060 0.089
0.211 -0.059 0.089
0.213 -0.057 0.090
0.214 -0.055 0.090
0.214 -0.053 0.090
0.216 -0.052 0.091
0.217 -0.050 0.091
0.216 -0.048 0.091
0.215 -0.045 0.090
0.215 -0.043 0.090
0.216 -0.041 0.090
0.215 -0.039 0.090
0.212 -0.037 0.089
0.214 -0.035 0.089
0.214 -0.033 0.089
0.214 -0.031 0.089
0.212 -0.029 0.088
0.217 -0.027 0.090
0.229 -0.027 0.095
0.234 -0.025 0.098
0.239 -0.023 0.099
0.202 -0.016 0.084
0.197 -0.014 0.082
0.190 -0.010 0.079
0.189 -0.008 0.078
0.188 -0.006 0.078
0.184 -0.004 0.077
0.177 -0.002 0.074
0.175 -0.001 0.073
0.176 0.001 0.073
0.169 0.002 0.070
0.169 0.004 0.070
0.166 0.005 0.069
0.170 0.007 0.071
0.176 0.009 0.073
0.174 0.011 0.072
0.175 0.012 0.073
0.171 0.014 0.071
0.177 0.016 0.074
0.185 0.018 0.077
0.182 0.020 0.076
0.178 0.021 0.074
0.156 0.023 0.065
0.157 0.024 0.066
0.161 0.026 0.067
0.160 0.028 0.067
0.161 0.030 0.068
0.168 0.032 0.071
0.183 0.037 0.077
0.198 0.042 0.083
0.209 0.046 0.088
0.212 0.049 0.089
0.211 0.051 0.089
0.217 0.054 0.091
0.224 0.058 0.095
0.217 0.059 0.092
0.207 0.058 0.088
0.202 0.059 0.086
0.200 0.060 0.085
0.199 0.062 0.084
0.199 0.064 0.085
0.197 0.065 0.084
0.197 0.067 0.084
0.198 0.069 0.085
0.197 0.071 0.084
0.195 0.072 0.084
0.196 0.075 0.084
0.196 0.077 0.085
0.195 0.078 0.084
0.193 0.080 0.084
0.194 0.082 0.084
0.192 0.083 0.083
0.192 0.085 0.084
0.193 0.088 0.084
0.194 0.090 0.085
0.194 0.092 0.085
0.190 0.093 0.084
0.189 0.094 0.083
0.196 0.100 0.086
0.193 0.101 0.085
0.180 0.096 0.080
0.166 0.090 0.074
0.168 0.093 0.075
0.168 0.095 0.075
0.167 0.097 0.075
0.162 0.095 0.073
0.158 0.095 0.071
0.162 0.099 0.073
0.169 0.106 0.077
0.183 0.117 0.083
0.187 0.122 0.085
0.188 0.125 0.086
0.188 0.127 0.087
0.186 0.128 0.086
0.184 0.129 0.085
0.206 0.147 0.096
0.202 0.147 0.094
0.194 0.144 0.091
0.184 0.139 0.087
0.177 0.136 0.084
0.176 0.138 0.084
0.181 0.144 0.086
0.185 0.150 0.089
0.187 0.154 0.090
0.182 0.153 0.088
0.175 0.150 0.085
0.173 0.151 0.085
0.172 0.152 0.085
0.171 0.154 0.085
0.171 0.157 0.085
0.171 0.159 0.085
0.170 0.161 0.085
0.171 0.165 0.086
0.170 0.167 0.086
0.169 0.169 0.086
0.169 0.172 0.087
0.168 0.174 0.087
0.169 0.177 0.088
0.169 0.181 0.088
0.167 0.182 0.088
0.166 0.183 0.088
0.164 0.185 0.087
0.164 0.188 0.088
0.163 0.190 0.088
0.163 0.192 0.088
0.164 0.197 0.089
0.164 0.200 0.090
0.162 0.201 0.089
0.161 0.202 0.089
0.159 0.203 0.088
0.158 0.205 0.089
0.160 0.210 0.090
0.103 -0.135 0.058
0.102 -0.133 0.057
0.101 -0.129 0.056
0.103 -0.130 0.057
0.120 -0.150 0.066
0.123 -0.150 0.067
0.127 -0.153 0.069
0.130 -0.155 0.071
0.128 -0.151 0.069
0.126 -0.146 0.068
0.124 -0.142 0.066
0.125 -0.141 0.067
0.121 -0.134 0.064
0.119 -0.129 0.063
0.118 -0.127 0.062
0.117 -0.124 0.061
0.116 -0.120 0.060
0.112 -0.115 0.058
0.105 -0.106 0.054
0.105 -0.104 0.054
0.109 -0.107 0.055
0.110 -0.106 0.056
0.112 -0.106 0.057
0.116 -0.109 0.058
0.129 -0.119 0.065
0.190 -0.168 0.094
0.192 -0.167 0.095
0.193 -0.166 0.095
0.194 -0.164 0.095
0.195 -0.162 0.095
0.193 -0.158 0.094
0.193 -0.155 0.093
0.193 -0.153 0.093
0.194 -0.151 0.093
0.194 -0.148 0.093
0.194 -0.146 0.092
0.194 -0.143 0.092
0.194 -0.141 0.092
0.195 -0.139 0.092
0.196 -0.137 0.092
0.196 -0.135 0.092
0.194 -0.131 0.090
0.195 -0.129 0.091
0.197 -0.128 0.091
0.197 -0.126 0.091
0.197 -0.124 0.091
0.198 -0.122 0.091
0.198 -0.120 0.091
0.197 -0.117 0.090
0.196 -0.114 0.089
0.199 -0.113 0.090
0.198 -0.111 0.090
0.197 -0.108 0.089
0.197 -0.106 0.089
0.198 -0.104 0.089
0.199 -0.102 0.089
0.200 -0.101 0.090
0.200 -0.098 0.089
0.199 -0.096 0.089
0.199 -0.094 0.089
0.200 -0.092 0.089
0.199 -0.090 0.088
0.200 -0.088 0.088
0.199 -0.086 0.088
0.199 -0.084 0.088
0.200 -0.082 0.088
0.201 -0.080 0.088
0.201 -0.078 0.088
0.202 -0.076 0.088
0.202 -0.074 0.088
0.202 -0.072 0.088
0.203 -0.071 0.089
0.205 -0.069 0.089
0.206 -0.067 0.090
0.206 -0.065 0.090
0.206 -0.063 0.089
0.206 -0.062 0.089
0.206 -0.059 0.089
0.207 -0.058 0.090
0.207 -0.056 0.089
0.209 -0.054 0.090
0.210 -0.052 0.091
0.211 -0.051 0.091
0.210 -0.048 0.091
0.210 -0.046 0.090
0.211 -0.044 0.091
0.209 -0.042 0.090
0.208 -0.040 0.089
0.208 -0.038 0.089
0.207 -0.036 0.089
0.207 -0.034 0.089
0.208 -0.032 0.089
0.207 -0.030 0.089
0.216 -0.029 0.092
0.233 -0.029 0.100
0.233 -0.027 0.099
0.236 -0.025 0.101
0.234 -0.023 0.100
0.191 -0.015 0.082
0.177 -0.012 0.075
0.170 -0.010 0.073
0.173 -0.009 0.074
0.176 -0.007 0.075
0.180 -0.006 0.077
0.175 -0.004 0.075
0.174 -0.002 0.074
0.166 -0.001 0.071
0.167 0.001 0.071
0.171 0.002 0.073
0.167 0.004 0.071
0.163 0.005 0.069
0.162 0.007 0.069
0.164 0.008 0.070
0.167 0.010 0.071
0.158 0.011 0.067
0.163 0.013 0.070
0.167 0.015 0.071
0.169 0.017 0.072
0.168 0.018 0.072
0.166 0.020 0.071
0.153 0.019 0.065
0.147 0.020 0.063
0.141 0.021 0.060
0.138 0.021 0.059
0.153 0.025 0.066
0.151 0.026 0.065
0.156 0.029 0.067
0.171 0.033 0.074
0.191 0.039 0.082
0.205 0.044 0.088
0.208 0.046 0.090
0.209 0.048 0.090
0.208 0.050 0.090
0.208 0.052 0.090
0.210 0.055 0.091
0.206 0.056 0.089
0.201 0.057 0.087
0.198 0.058 0.086
0.197 0.059 0.086
0.198 0.062 0.086
0.196 0.063 0.085
0.195 0.065 0.085
0.195 0.067 0.085
0.195 0.069 0.086
0.196 0.071 0.086
0.193 0.072 0.085
0.192 0.074 0.085
0.193 0.076 0.085
0.192 0.077 0.085
0.191 0.079 0.085
0.190 0.080 0.084
0.189 0.082 0.084
0.189 0.084 0.084
0.189 0.086 0.084
0.189 0.088 0.085
0.189 0.090 0.085
0.191 0.093 0.086
0.192 0.096 0.087
0.190 0.097 0.086
0.191 0.100 0.087
0.175 0.093 0.079
0.164 0.089 0.075
0.165 0.094 0.076
0.165 0.095 0.076
0.163 0.097 0.075
0.172 0.104 0.080
0.181 0.111 0.084
0.184 0.116 0.086
0.185 0.119 0.086
0.186 0.121 0.087
0.185 0.123 0.087
0.184 0.125 0.087
0.183 0.126 0.087
0.182 0.128 0.086
0.197 0.141 0.094
0.200 0.146 0.096
0.187 0.139 0.090
0.173 0.131 0.083
0.174 0.134 0.084
0.171 0.134 0.083
0.171 0.137 0.084
0.176 0.143 0.086
0.181 0.150 0.089
0.186 0.157 0.092
0.177 0.152 0.088
0.172 0.150 0.086
0.169 0.150 0.085
0.168 0.152 0.085
0.169 0.155 0.086
0.169 0.158 0.086
0.168 0.160 0.086
0.167 0.162 0.086
0.168 0.165 0.087
0.167 0.167 0.087
0.166 0.169 0.087
0.166 0.172 0.088
0.164 0.174 0.088
0.165 0.177 0.088
0.164 0.179 0.089
0.162 0.179 0.088
0.163 0.183 0.089
0.162 0.185 0.089
0.161 0.187 0.089
0.160 0.190 0.089
0.160 0.192 0.089
0.159 0.195 0.089
0.159 0.198 0.090
0.158 0.199 0.090
0.156 0.200 0.089
0.156 0.203 0.090
0.105 -0.136 0.060
0.113 -0.144 0.064
0.120 -0.151 0.068
0.123 -0.153 0.069
0.125 -0.154 0.070
0.129 -0.156 0.072
0.131 -0.156 0.073
0.128 -0.151 0.071
0.124 -0.144 0.068
0.128 -0.146 0.070
0.125 -0.141 0.068
0.124 -0.138 0.067
0.120 -0.131 0.065
0.118 -0.128 0.064
0.118 -0.126 0.063
0.119 -0.124 0.063
0.119 -0.122 0.063
0.110 -0.112 0.058
0.108 -0.108 0.057
0.109 -0.107 0.057
0.110 -0.107 0.057
0.111 -0.106 0.058
0.116 -0.108 0.059
0.121 -0.112 0.062
0.183 -0.163 0.093
0.184 -0.161 0.093
0.189 -0.163 0.095
0.191 -0.162 0.096
0.192 -0.160 0.096
0.191 -0.157 0.095
0.191 -0.154 0.094
0.191 -0.152 0.094
0.192 -0.149 0.094
0.192 -0.147 0.094
0.191 -0.144 0.093
0.192 -0.142 0.093
0.191 -0.139 0.092
0.192 -0.137 0.092
0.192 -0.135 0.092
0.191 -0.132 0.092
0.191 -0.130 0.091
0.192 -0.128 0.092
0.192 -0.126 0.091
0.194 -0.125 0.092
0.195 -0.123 0.092
0.195 -0.120 0.092
0.195 -0.118 0.092
0.194 -0.115 0.091
0.192 -0.112 0.090
0.193 -0.110 0.090
0.194 -0.108 0.090
0.196 -0.107 0.091
0.195 -0.105 0.090
0.195 -0.103 0.090
0.197 -0.101 0.090
0.197 -0.100 0.091
0.198 -0.098 0.090
0.197 -0.095 0.090
0.196 -0.093 0.089
0.197 -0.091 0.090
0.198 -0.089 0.090
0.198 -0.087 0.090
0.198 -0.085 0.089
0.198 -0.083 0.089
0.198 -0.081 0.089
0.199 -0.080 0.090
0.199 -0.078 0.090
0.199 -0.075 0.089
0.200 -0.074 0.090
0.200 -0.072 0.090
0.200 -0.070 0.089
0.201 -0.068 0.089
0.202 -0.066 0.090
0.202 -0.064 0.090
0.202 -0.062 0.090
0.203 -0.061 0.090
0.201 -0.058 0.089
0.202 -0.056 0.089
0.204 -0.055 0.090
0.204 -0.053 0.090
0.206 -0.051 0.091
0.206 -0.050 0.091
0.207 -0.048 0.091
0.208 -0.046 0.091
0.209 -0.044 0.092
0.210 -0.042 0.092
0.207 -0.040 0.091
0.203 -0.037 0.089
0.202 -0.035 0.089
0.203 -0.033 0.089
0.202 -0.031 0.089
0.202 -0.029 0.088
0.226 -0.031 0.099
0.230 -0.029 0.101
0.235 -0.027 0.103
0.233 -0.025 0.102
0.218 -0.021 0.095
0.179 -0.016 0.078
0.175 -0.014 0.077
0.172 -0.012 0.075
0.165 -0.010 0.072
0.164 -0.008 0.071
0.174 -0.007 0.076
0.178 -0.006 0.078
0.178 -0.004 0.077
0.173 -0.002 0.075
0.168 -0.001 0.073
0.156 0.001 0.068
0.168 0.002 0.073
0.167 0.004 0.073
0.164 0.005 0.072
0.165 0.007 0.072
0.164 0.009 0.072
0.155 0.009 0.068
0.157 0.011 0.069
0.159 0.013 0.070
0.165 0.015 0.072
0.163 0.016 0.071
0.163 0.018 0.071
0.160 0.019 0.070
0.154 0.020 0.067
0.146 0.020 0.064
0.141 0.021 0.062
0.135 0.021 0.059
0.145 0.024 0.064
0.146 0.026 0.064
0.149 0.027 0.065
0.200 0.041 0.088
0.202 0.043 0.089
0.204 0.045 0.090
0.206 0.048 0.091
0.202 0.049 0.089
0.202 0.051 0.089
0.199 0.052 0.088
0.199 0.054 0.088
0.195 0.055 0.087
0.193 0.056 0.086
0.194 0.058 0.086
0.193 0.060 0.086
0.193 0.062 0.086
0.192 0.064 0.086
0.190 0.065 0.085
0.190 0.067 0.085
0.190 0.069 0.086
0.190 0.071 0.085
0.189 0.072 0.085
0.189 0.075 0.086
0.190 0.077 0.086
0.188 0.078 0.085
0.186 0.079 0.085
0.186 0.081 0.085
0.186 0.083 0.085
0.185 0.085 0.085
0.185 0.087 0.085
0.185 0.089 0.085
0.188 0.092 0.087
0.185 0.093 0.086
0.184 0.094 0.085
0.172 0.090 0.080
0.162 0.087 0.075
0.150 0.082 0.070
0.145 0.081 0.068
0.165 0.094 0.077
0.168 0.097 0.079
0.175 0.104 0.083
0.178 0.108 0.084
0.182 0.112 0.087
0.183 0.115 0.087
0.182 0.117 0.087
0.183 0.120 0.088
0.182 0.121 0.087
0.181 0.123 0.087
0.180 0.124 0.087
0.179 0.126 0.087
0.179 0.129 0.088
0.178 0.133 0.088
0.176 0.133 0.087
0.172 0.133 0.085
0.168 0.132 0.084
0.166 0.133 0.083
0.168 0.137 0.085
0.172 0.143 0.087
0.177 0.149 0.090
0.179 0.154 0.092
0.174 0.152 0.089
0.169 0.150 0.087
0.165 0.150 0.086
0.166 0.153 0.087
0.167 0.156 0.087
0.166 0.158 0.087
0.165 0.160 0.087
0.164 0.162 0.087
0.163 0.164 0.087
0.162 0.166 0.087
0.163 0.169 0.088
0.163 0.172 0.089
0.161 0.173 0.088
0.160 0.175 0.088
0.159 0.177 0.088
0.159 0.180 0.089
0.159 0.183 0.089
0.159 0.185 0.090
0.158 0.188 0.090
0.157 0.189 0.090
0.156 0.192 0.090
0.156 0.194 0.090
0.155 0.196 0.090
0.156 0.200 0.091
0.153 0.199 0.090
0.113 -0.147 0.066
0.118 -0.151 0.069
0.122 -0.154 0.071
0.125 -0.156 0.072
0.125 -0.154 0.072
0.127 -0.154 0.072
0.128 -0.153 0.073
0.127 -0.150 0.072
0.124 -0.144 0.070
0.123 -0.142 0.069
0.125 -0.141 0.070
0.123 -0.137 0.069
0.123 -0.135 0.068
0.121 -0.130 0.066
0.120 -0.128 0.066
0.120 -0.126 0.065
0.120 -0.123 0.065
0.117 -0.118 0.063
0.109 -0.109 0.058
0.110 -0.108 0.059
0.110 -0.106 0.058
0.112 -0.106 0.059
0.114 -0.107 0.060
0.120 -0.111 0.063
0.176 -0.159 0.092
0.181 -0.162 0.094
0.184 -0.162 0.095
0.185 -0.160 0.095
0.187 -0.159 0.096
0.187 -0.157 0.096
0.188 -0.154 0.096
0.188 -0.152 0.096
0.188 -0.150 0.095
0.189 -0.148 0.095
0.190 -0.146 0.095
0.190 -0.143 0.095
0.188 -0.139 0.094
0.188 -0.137 0.093
0.189 -0.135 0.093
0.189 -0.133 0.093
0.189 -0.131 0.093
0.189 -0.128 0.093
0.188 -0.126 0.092
0.190 -0.124 0.092
0.191 -0.122 0.092
0.191 -0.120 0.092
0.190 -0.118 0.092
0.190 -0.116 0.091
0.190 -0.113 0.091
0.190 -0.111 0.091
0.191 -0.109 0.091
0.192 -0.108 0.091
0.193 -0.106 0.091
0.192 -0.103 0.091
0.192 -0.101 0.090
0.193 -0.100 0.091
0.195 -0.099 0.092
0.194 -0.096 0.091
0.193 -0.093 0.090
0.193 -0.091 0.090
0.193 -0.089 0.090
0.194 -0.088 0.090
0.196 -0.086 0.091
0.195 -0.084 0.090
0.194 -0.082 0.090
0.195 -0.080 0.090
0.197 -0.079 0.091
0.196 -0.076 0.090
0.196 -0.074 0.090
0.197 -0.073 0.090
0.198 -0.071 0.090
0.197 -0.069 0.090
0.197 -0.067 0.090
0.198 -0.065 0.090
0.198 -0.063 0.090
0.198 -0.061 0.090
0.198 -0.059 0.090
0.198 -0.057 0.090
0.199 -0.056 0.090
0.200 -0.054 0.090
0.201 -0.052 0.091
0.202 -0.050 0.091
0.203 -0.049 0.092
0.204 -0.047 0.092
0.215 -0.047 0.097
0.210 -0.044 0.094
0.206 -0.042 0.093
0.204 -0.039 0.092
0.198 -0.036 0.089
0.194 -0.034 0.087
0.194 -0.032 0.087
0.196 -0.030 0.088
0.202 -0.029 0.090
0.223 -0.030 0.100
0.231 -0.029 0.103
0.229 -0.027 0.102
0.227 -0.024 0.101
0.182 -0.018 0.081
0.173 -0.015 0.077
0.171 -0.014 0.077
0.171 -0.012 0.076
0.166 -0.010 0.074
0.168 -0.009 0.075
0.172 -0.007 0.077
0.180 -0.006 0.080
0.181 -0.004 0.081
0.175 -0.002 0.078
0.168 -0.001 0.075
0.174 0.001 0.078
0.163 0.002 0.073
0.161 0.004 0.072
0.163 0.005 0.073
0.166 0.007 0.074
0.163 0.008 0.073
0.163 0.010 0.073
0.164 0.013 0.073
0.162 0.015 0.073
0.160 0.016 0.071
0.161 0.017 0.072
0.159 0.019 0.071
0.158 0.020 0.071
0.155 0.021 0.070
0.154 0.022 0.069
0.151 0.024 0.068
0.144 0.025 0.065
0.148 0.027 0.067
0.157 0.031 0.071
0.188 0.038 0.085
0.196 0.042 0.088
0.200 0.045 0.090
0.194 0.045 0.088
0.191 0.046 0.087
0.188 0.047 0.085
0.192 0.050 0.087
0.191 0.052 0.087
0.188 0.053 0.086
0.187 0.055 0.085
0.186 0.056 0.085
0.189 0.059 0.087
0.189 0.061 0.086
0.188 0.062 0.086
0.188 0.064 0.086
0.187 0.066 0.086
0.187 0.068 0.086
0.186 0.069 0.086
0.184 0.071 0.085
0.185 0.073 0.085
0.185 0.075 0.086
0.184 0.076 0.086
0.184 0.078 0.086
0.182 0.080 0.085
0.182 0.081 0.085
0.181 0.083 0.085
0.179 0.084 0.084
0.181 0.087 0.085
0.183 0.090 0.086
0.182 0.091 0.086
0.168 0.086 0.080
0.160 0.084 0.076
0.153 0.082 0.073
0.154 0.084 0.073
0.164 0.092 0.079
0.172 0.098 0.083
0.176 0.102 0.085
0.176 0.105 0.085
0.178 0.108 0.086
0.179 0.111 0.087
0.180 0.113 0.088
0.179 0.115 0.088
0.179 0.117 0.088
0.178 0.119 0.088
0.177 0.120 0.088
0.176 0.122 0.087
0.175 0.124 0.087
0.175 0.126 0.087
0.187 0.137 0.094
0.177 0.132 0.089
0.173 0.132 0.088
0.171 0.133 0.087
0.166 0.131 0.085
0.164 0.132 0.084
0.162 0.133 0.084
0.166 0.139 0.086
0.168 0.143 0.088
0.171 0.147 0.089
0.170 0.149 0.089
0.169 0.151 0.089
0.168 0.153 0.089
0.163 0.151 0.087
0.163 0.153 0.088
0.162 0.155 0.088
0.162 0.158 0.088
0.161 0.160 0.088
0.161 0.162 0.088
0.160 0.164 0.088
0.159 0.166 0.089
0.160 0.170 0.089
0.158 0.171 0.089
0.158 0.173 0.089
0.157 0.176 0.090
0.157 0.179 0.090
0.157 0.181 0.090
0.157 0.183 0.091
0.155 0.184 0.090
0.154 0.186 0.090
0.154 0.189 0.091
0.153 0.191 0.091
0.151 0.192 0.090
0.152 0.195 0.091
0.120 -0.155 0.072
0.124 -0.157 0.073
0.125 -0.157 0.074
0.126 -0.155 0.074
0.124 -0.152 0.073
0.125 -0.151 0.073
0.126 -0.149 0.073
0.125 -0.146 0.072
0.126 -0.145 0.073
0.125 -0.142 0.072
0.123 -0.138 0.070
0.124 -0.136 0.070
0.124 -0.134 0.070
0.121 -0.129 0.068
0.120 -0.126 0.067
0.119 -0.123 0.066
0.118 -0.120 0.065
0.109 -0.109 0.060
0.108 -0.107 0.059
0.110 -0.107 0.060
0.112 -0.107 0.061
0.113 -0.106 0.061
0.174 -0.158 0.093
0.181 -0.162 0.096
0.182 -0.160 0.096
0.183 -0.159 0.097
0.184 -0.156 0.096
0.184 -0.155 0.096
0.186 -0.153 0.097
0.186 -0.151 0.097
0.186 -0.148 0.096
0.187 -0.146 0.096
0.187 -0.144 0.096
0.185 -0.140 0.095
0.185 -0.138 0.094
0.186 -0.136 0.094
0.184 -0.132 0.093
0.186 -0.131 0.093
0.187 -0.129 0.094
0.185 -0.126 0.093
0.186 -0.124 0.093
0.186 -0.122 0.092
0.187 -0.120 0.093
0.187 -0.118 0.093
0.188 -0.116 0.093
0.186 -0.113 0.092
0.187 -0.112 0.092
0.188 -0.110 0.092
0.189 -0.108 0.092
0.189 -0.106 0.092
0.188 -0.103 0.091
0.188 -0.101 0.091
0.189 -0.100 0.091
0.189 -0.098 0.091
0.189 -0.096 0.091
0.191 -0.095 0.091
0.189 -0.092 0.090
0.190 -0.090 0.091
0.191 -0.089 0.091
0.192 -0.087 0.091
0.193 -0.085 0.091
0.191 -0.083 0.091
0.192 -0.081 0.091
0.193 -0.079 0.091
0.192 -0.077 0.091
0.193 -0.075 0.091
0.193 -0.073 0.091
0.195 -0.072 0.091
0.193 -0.069 0.090
0.192 -0.067 0.090
0.194 -0.066 0.091
0.195 -0.064 0.091
0.194 -0.062 0.090
0.195 -0.060 0.091
0.196 -0.059 0.091
0.196 -0.057 0.091
0.196 -0.055 0.091
0.196 -0.053 0.091
0.198 -0.052 0.091
0.200 -0.050 0.092
0.203 -0.049 0.094
0.217 -0.050 0.100
0.200 -0.044 0.092
0.191 -0.041 0.088
0.194 -0.039 0.089
0.201 -0.039 0.092
0.200 -0.037 0.092
0.194 -0.034 0.089
0.195 -0.032 0.090
0.193 -0.030 0.089
0.193 -0.028 0.088
0.229 -0.029 0.105
0.229 -0.027 0.105
0.178 -0.018 0.082
0.171 -0.015 0.078
0.166 -0.013 0.076
0.166 -0.012 0.076
0.164 -0.010 0.075
0.165 -0.008 0.075
0.171 -0.007 0.078
0.177 -0.006 0.081
0.175 -0.004 0.080
0.168 -0.002 0.077
0.171 -0.001 0.078
0.172 0.001 0.079
0.170 0.002 0.078
0.158 0.004 0.072
0.155 0.005 0.071
0.161 0.007 0.073
0.171 0.009 0.078
0.167 0.010 0.076
0.166 0.012 0.076
0.160 0.013 0.073
0.155 0.014 0.071
0.156 0.016 0.072
0.157 0.017 0.072
0.160 0.019 0.073
0.161 0.021 0.074
0.159 0.022 0.073
0.157 0.023 0.072
0.156 0.024 0.072
0.151 0.025 0.069
0.145 0.027 0.067
0.149 0.029 0.069
0.186 0.038 0.086
0.191 0.041 0.088
0.189 0.042 0.087
0.189 0.044 0.088
0.184 0.045 0.085
0.182 0.046 0.084
0.184 0.048 0.085
0.185 0.050 0.086
0.178 0.050 0.083
0.183 0.054 0.085
0.185 0.056 0.086
0.185 0.058 0.087
0.187 0.060 0.087
0.185 0.062 0.087
0.182 0.062 0.085
0.183 0.065 0.086
0.183 0.067 0.086
0.181 0.068 0.086
0.181 0.070 0.085
0.183 0.072 0.087
0.181 0.073 0.086
0.179 0.075 0.085
0.169 0.072 0.080
0.169 0.074 0.081
0.169 0.076 0.081
0.172 0.079 0.083
0.173 0.081 0.083
0.173 0.083 0.084
0.181 0.089 0.087
0.174 0.088 0.084
0.162 0.084 0.079
0.156 0.082 0.076
0.156 0.084 0.076
0.170 0.093 0.083
0.173 0.097 0.085
0.174 0.100 0.086
0.174 0.102 0.086
0.176 0.105 0.087
0.176 0.107 0.087
0.175 0.109 0.087
0.176 0.111 0.088
0.174 0.112 0.087
0.176 0.116 0.088
0.175 0.118 0.089
0.173 0.118 0.088
0.172 0.120 0.088
0.172 0.122 0.088
0.170 0.123 0.087
0.182 0.134 0.094
0.175 0.131 0.090
0.169 0.129 0.088
0.166 0.129 0.087
0.164 0.130 0.086
0.162 0.130 0.085
0.162 0.133 0.086
0.157 0.131 0.083
0.156 0.133 0.083
0.158 0.137 0.085
0.162 0.143 0.087
0.165 0.148 0.089
0.169 0.154 0.092
0.168 0.156 0.092
0.164 0.155 0.090
0.160 0.154 0.089
0.159 0.156 0.089
0.159 0.158 0.089
0.158 0.160 0.089
0.157 0.162 0.089
0.157 0.164 0.089
0.156 0.166 0.089
0.156 0.169 0.090
0.156 0.171 0.090
0.156 0.174 0.091
0.155 0.177 0.091
0.155 0.179 0.091
0.153 0.180 0.091
0.153 0.182 0.091
0.152 0.184 0.091
0.151 0.186 0.091
0.150 0.188 0.091
0.150 0.190 0.091
0.150 0.193 0.091
0.122 -0.157 0.074
0.125 -0.159 0.076
0.126 -0.159 0.076
0.126 -0.156 0.076
0.125 -0.152 0.075
0.125 -0.150 0.075
0.125 -0.148 0.074
0.126 -0.148 0.075
0.130 -0.150 0.077
0.129 -0.146 0.075
0.123 -0.138 0.072
0.123 -0.135 0.071
0.124 -0.135 0.072
0.123 -0.131 0.070
0.121 -0.127 0.069
0.121 -0.125 0.069
0.120 -0.123 0.068
0.116 -0.116 0.065
0.109 -0.107 0.061
0.110 -0.107 0.061
0.111 -0.106 0.062
0.119 -0.112 0.066
0.177 -0.162 0.097
0.177 -0.159 0.097
0.180 -0.159 0.098
0.180 -0.157 0.097
0.181 -0.154 0.097
0.182 -0.153 0.097
0.183 -0.151 0.098
0.184 -0.149 0.098
0.184 -0.147 0.097
0.184 -0.144 0.097
0.184 -0.142 0.096
0.183 -0.139 0.096
0.183 -0.136 0.095
0.183 -0.134 0.095
0.183 -0.131 0.094
0.182 -0.129 0.094
0.182 -0.126 0.094
0.182 -0.124 0.093
0.182 -0.122 0.093
0.182 -0.120 0.093
0.183 -0.118 0.093
0.184 -0.117 0.093
0.184 -0.114 0.093
0.183 -0.111 0.092
0.183 -0.110 0.092
0.185 -0.109 0.093
0.185 -0.107 0.092
0.185 -0.104 0.092
0.185 -0.102 0.092
0.187 -0.101 0.092
0.188 -0.099 0.093
0.188 -0.097 0.093
0.187 -0.095 0.092
0.186 -0.092 0.091
0.185 -0.090 0.090
0.187 -0.089 0.091
0.189 -0.088 0.092
0.190 -0.086 0.092
0.189 -0.084 0.092
0.188 -0.081 0.091
0.189 -0.080 0.091
0.189 -0.078 0.091
0.190 -0.076 0.091
0.189 -0.074 0.091
0.190 -0.073 0.091
0.190 -0.070 0.091
0.190 -0.068 0.091
0.191 -0.067 0.091
0.190 -0.065 0.091
0.190 -0.063 0.091
0.192 -0.061 0.091
0.193 -0.060 0.092
0.193 -0.058 0.092
0.193 -0.056 0.092
0.193 -0.054 0.091
0.192 -0.052 0.091
0.194 -0.051 0.092
0.200 -0.050 0.095
0.207 -0.050 0.097
0.183 -0.041 0.086
0.189 -0.040 0.089
0.193 -0.039 0.091
0.190 -0.037 0.089
0.191 -0.035 0.090
0.200 -0.035 0.094
0.203 -0.033 0.095
0.194 -0.030 0.091
0.189 -0.028 0.089
0.195 -0.026 0.091
0.213 -0.027 0.099
0.219 -0.026 0.102
0.193 -0.021 0.090
0.178 -0.017 0.083
0.162 -0.014 0.076
0.166 -0.013 0.078
0.170 -0.012 0.079
0.162 -0.010 0.076
0.161 -0.008 0.075
0.169 -0.007 0.079
0.169 -0.005 0.079
0.163 -0.004 0.076
0.163 -0.002 0.076
0.169 -0.001 0.079
0.170 0.001 0.079
0.166 0.002 0.077
0.160 0.004 0.074
0.159 0.005 0.074
0.164 0.007 0.077
0.163 0.009 0.076
0.168 0.010 0.079
0.166 0.012 0.078
0.158 0.013 0.074
0.154 0.014 0.072
0.151 0.015 0.071
0.156 0.017 0.073
0.159 0.019 0.074
0.161 0.021 0.076
0.158 0.022 0.074
0.155 0.023 0.073
0.154 0.024 0.073
0.151 0.025 0.071
0.145 0.026 0.068
0.140 0.026 0.066
0.147 0.029 0.069
0.157 0.032 0.074
0.183 0.039 0.086
0.184 0.041 0.087
0.182 0.043 0.086
0.182 0.044 0.086
0.179 0.045 0.085
0.182 0.048 0.086
0.179 0.049 0.085
0.174 0.049 0.083
0.175 0.051 0.083
0.169 0.051 0.081
0.166 0.052 0.079
0.170 0.055 0.081
0.176 0.059 0.084
0.175 0.060 0.084
0.171 0.061 0.082
0.173 0.063 0.083
0.177 0.066 0.086
0.177 0.068 0.086
0.176 0.070 0.085
0.179 0.073 0.087
0.175 0.073 0.085
0.170 0.073 0.083
0.171 0.075 0.084
0.169 0.076 0.083
0.169 0.078 0.083
0.168 0.079 0.083
0.169 0.082 0.083
0.150 0.074 0.074
0.147 0.074 0.073
0.155 0.080 0.077
0.159 0.084 0.079
0.167 0.090 0.084
0.172 0.095 0.086
0.173 0.097 0.087
0.172 0.099 0.087
0.172 0.101 0.087
0.172 0.103 0.087
0.172 0.105 0.087
0.171 0.107 0.087
0.171 0.109 0.087
0.172 0.111 0.088
0.170 0.112 0.088
0.170 0.114 0.088
0.169 0.116 0.088
0.169 0.118 0.088
0.169 0.120 0.088
0.168 0.122 0.088
0.168 0.124 0.089
0.177 0.133 0.094
0.166 0.127 0.088
0.164 0.128 0.087
0.162 0.129 0.087
0.163 0.132 0.088
0.159 0.131 0.086
0.156 0.130 0.084
0.151 0.129 0.082
0.152 0.132 0.084
0.153 0.135 0.085
0.158 0.142 0.088
0.163 0.150 0.091
0.165 0.154 0.093
0.164 0.156 0.093
0.163 0.157 0.092
0.159 0.156 0.091
0.158 0.158 0.090
0.156 0.159 0.090
0.155 0.160 0.090
0.155 0.162 0.090
0.154 0.165 0.090
0.154 0.167 0.091
0.154 0.170 0.091
0.154 0.172 0.092
0.153 0.175 0.092
0.152 0.176 0.091
0.151 0.178 0.092
0.150 0.180 0.092
0.150 0.182 0.092
0.148 0.183 0.091
0.148 0.186 0.092
0.150 0.190 0.093
0.126 -0.160 0.078
0.127 -0.160 0.078
0.127 -0.158 0.078
0.127 -0.155 0.078
0.127 -0.153 0.077
0.126 -0.150 0.077
0.127 -0.148 0.077
0.128 -0.148 0.077
0.129 -0.147 0.077
0.124 -0.139 0.074
0.119 -0.132 0.071
0.124 -0.135 0.073
0.126 -0.135 0.074
0.125 -0.131 0.073
0.122 -0.127 0.071
0.120 -0.123 0.070
0.119 -0.120 0.068
0.116 -0.115 0.066
0.110 -0.107 0.062
0.112 -0.108 0.064
0.169 -0.158 0.095
0.174 -0.159 0.097
0.176 -0.158 0.098
0.177 -0.157 0.098
0.178 -0.155 0.098
0.178 -0.153 0.098
0.179 -0.151 0.098
0.180 -0.149 0.098
0.181 -0.148 0.098
0.181 -0.145 0.098
0.181 -0.142 0.098
0.180 -0.140 0.097
0.180 -0.137 0.096
0.180 -0.135 0.096
0.181 -0.133 0.096
0.180 -0.130 0.095
0.179 -0.127 0.094
0.179 -0.125 0.094
0.180 -0.123 0.094
0.180 -0.121 0.094
0.180 -0.119 0.094
0.181 -0.117 0.094
0.181 -0.115 0.094
0.181 -0.113 0.093
0.180 -0.110 0.093
0.180 -0.108 0.093
0.182 -0.107 0.093
0.183 -0.105 0.093
0.183 -0.103 0.093
0.183 -0.101 0.093
0.185 -0.100 0.094
0.186 -0.099 0.094
0.186 -0.097 0.094
0.184 -0.094 0.093
0.185 -0.092 0.093
0.185 -0.090 0.093
0.184 -0.088 0.092
0.185 -0.086 0.092
0.185 -0.084 0.092
0.186 -0.082 0.092
0.186 -0.081 0.092
0.186 -0.079 0.092
0.186 -0.077 0.092
0.187 -0.075 0.092
0.187 -0.073 0.092
0.185 -0.071 0.091
0.185 -0.069 0.091
0.187 -0.067 0.091
0.187 -0.066 0.091
0.187 -0.064 0.091
0.188 -0.062 0.092
0.189 -0.061 0.092
0.189 -0.059 0.092
0.189 -0.057 0.092
0.190 -0.055 0.092
0.187 -0.053 0.091
0.187 -0.051 0.091
0.191 -0.050 0.093
0.204 -0.051 0.098
0.172 -0.040 0.083
0.186 -0.041 0.090
0.189 -0.040 0.091
0.190 -0.039 0.091
0.190 -0.037 0.091
0.190 -0.035 0.091
0.204 -0.036 0.098
0.205 -0.034 0.098
0.198 -0.031 0.095
0.189 -0.028 0.090
0.193 -0.026 0.092
0.205 -0.026 0.098
0.211 -0.025 0.101
0.208 -0.022 0.100
0.164 -0.016 0.078
0.155 -0.014 0.074
0.168 -0.013 0.080
0.167 -0.012 0.080
0.164 -0.010 0.078
0.161 -0.008 0.077
0.169 -0.007 0.080
0.168 -0.005 0.080
0.159 -0.004 0.076
0.158 -0.002 0.075
0.163 -0.001 0.078
0.163 0.001 0.078
0.163 0.002 0.078
0.161 0.004 0.077
0.159 0.005 0.076
0.160 0.007 0.076
0.160 0.008 0.076
0.163 0.010 0.078
0.164 0.012 0.079
0.160 0.013 0.076
0.153 0.014 0.073
0.154 0.015 0.074
0.153 0.017 0.073
0.156 0.019 0.075
0.158 0.020 0.076
0.158 0.022 0.076
0.155 0.023 0.075
0.153 0.024 0.073
0.150 0.025 0.072
0.146 0.026 0.070
0.142 0.026 0.068
0.144 0.028 0.069
0.163 0.033 0.079
0.174 0.037 0.084
0.176 0.039 0.085
0.178 0.042 0.086
0.178 0.044 0.086
0.180 0.046 0.087
0.179 0.047 0.087
0.180 0.049 0.087
0.176 0.050 0.086
0.175 0.052 0.086
0.177 0.054 0.086
0.176 0.055 0.086
0.173 0.056 0.085
0.174 0.058 0.085
0.172 0.059 0.085
0.170 0.060 0.084
0.171 0.062 0.084
0.175 0.066 0.086
0.175 0.068 0.087
0.172 0.068 0.085
0.172 0.070 0.085
0.174 0.073 0.087
0.175 0.075 0.087
0.172 0.076 0.086
0.169 0.076 0.085
0.165 0.076 0.083
0.168 0.079 0.084
0.148 0.072 0.075
0.150 0.074 0.076
0.151 0.076 0.076
0.157 0.081 0.080
0.165 0.087 0.084
0.167 0.090 0.085
0.171 0.094 0.088
0.170 0.096 0.087
0.170 0.098 0.087
0.168 0.099 0.087
0.169 0.101 0.087
0.169 0.103 0.088
0.169 0.105 0.088
0.168 0.107 0.088
0.168 0.109 0.088
0.168 0.111 0.088
0.167 0.113 0.088
0.167 0.114 0.088
0.165 0.116 0.088
0.164 0.117 0.088
0.165 0.120 0.089
0.164 0.122 0.089
0.170 0.128 0.092
0.165 0.127 0.090
0.162 0.127 0.088
0.161 0.128 0.088
0.160 0.130 0.088
0.158 0.130 0.087
0.157 0.132 0.087
0.157 0.134 0.088
0.150 0.131 0.084
0.152 0.135 0.086
0.154 0.139 0.088
0.156 0.143 0.089
0.157 0.147 0.090
0.158 0.150 0.091
0.162 0.157 0.094
0.162 0.159 0.094
0.160 0.160 0.094
0.156 0.159 0.092
0.154 0.159 0.091
0.153 0.161 0.091
0.152 0.163 0.091
0.152 0.166 0.092
0.152 0.169 0.092
0.151 0.170 0.092
0.149 0.171 0.092
0.149 0.173 0.092
0.149 0.176 0.092
0.149 0.178 0.093
0.146 0.179 0.092
0.146 0.180 0.092
0.147 0.185 0.093
0.149 0.189 0.095
0.126 -0.161 0.080
0.127 -0.160 0.080
0.128 -0.159 0.080
0.128 -0.157 0.080
0.127 -0.153 0.079
0.126 -0.150 0.078
0.126 -0.148 0.078
0.126 -0.146 0.078
0.129 -0.147 0.079
0.128 -0.144 0.078
0.125 -0.139 0.076
0.124 -0.136 0.075
0.127 -0.136 0.076
0.127 -0.134 0.076
0.125 -0.130 0.074
0.124 -0.128 0.074
0.122 -0.124 0.072
0.120 -0.119 0.070
0.119 -0.116 0.069
0.170 -0.158 0.098
0.172 -0.158 0.098
0.174 -0.157 0.099
0.175 -0.155 0.099
0.174 -0.152 0.098
0.175 -0.150 0.099
0.177 -0.149 0.099
0.177 -0.147 0.099
0.176 -0.144 0.098
0.178 -0.143 0.098
0.178 -0.141 0.098
0.178 -0.138 0.098
0.177 -0.135 0.097
0.178 -0.133 0.097
0.180 -0.132 0.098
0.176 -0.127 0.095
0.177 -0.125 0.095
0.177 -0.124 0.095
0.177 -0.122 0.095
0.178 -0.120 0.095
0.179 -0.118 0.095
0.179 -0.116 0.095
0.179 -0.114 0.094
0.178 -0.111 0.094
0.178 -0.109 0.094
0.178 -0.107 0.094
0.179 -0.105 0.094
0.180 -0.104 0.094
0.180 -0.102 0.094
0.179 -0.099 0.093
0.178 -0.097 0.092
0.182 -0.097 0.094
0.182 -0.095 0.094
0.180 -0.092 0.092
0.183 -0.091 0.094
0.183 -0.089 0.093
0.182 -0.087 0.093
0.181 -0.084 0.092
0.183 -0.083 0.093
0.184 -0.082 0.093
0.182 -0.079 0.092
0.182 -0.077 0.092
0.185 -0.076 0.093
0.184 -0.074 0.092
0.183 -0.072 0.092
0.183 -0.070 0.092
0.182 -0.068 0.091
0.183 -0.066 0.092
0.184 -0.065 0.092
0.184 -0.063 0.092
0.184 -0.061 0.092
0.186 -0.060 0.092
0.186 -0.058 0.092
0.186 -0.056 0.092
0.185 -0.054 0.092
0.184 -0.052 0.091
0.185 -0.050 0.092
0.196 -0.051 0.097
0.186 -0.047 0.092
0.185 -0.043 0.091
0.185 -0.041 0.091
0.186 -0.040 0.091
0.188 -0.038 0.092
0.188 -0.037 0.092
0.188 -0.035 0.092
0.190 -0.033 0.093
0.209 -0.035 0.103
0.206 -0.032 0.101
0.187 -0.027 0.092
0.192 -0.026 0.094
0.201 -0.026 0.098
0.211 -0.025 0.103
0.210 -0.023 0.102
0.161 -0.016 0.078
0.155 -0.014 0.076
0.157 -0.013 0.077
0.166 -0.012 0.081
0.168 -0.010 0.082
0.172 -0.009 0.084
0.173 -0.007 0.085
0.169 -0.005 0.082
0.164 -0.004 0.080
0.156 -0.002 0.076
0.155 -0.001 0.076
0.157 0.001 0.077
0.159 0.002 0.077
0.158 0.004 0.077
0.156 0.005 0.076
0.156 0.007 0.076
0.154 0.008 0.075
0.157 0.010 0.077
0.161 0.011 0.078
0.160 0.013 0.078
0.155 0.014 0.076
0.156 0.016 0.076
0.154 0.017 0.075
0.153 0.018 0.075
0.158 0.020 0.077
0.157 0.022 0.077
0.153 0.023 0.075
0.149 0.023 0.073
0.147 0.024 0.072
0.147 0.026 0.072
0.144 0.027 0.071
0.143 0.028 0.070
0.154 0.032 0.076
0.170 0.037 0.084
0.175 0.039 0.087
0.174 0.041 0.086
0.176 0.043 0.087
0.176 0.045 0.087
0.174 0.046 0.086
0.173 0.048 0.086
0.174 0.050 0.087
0.175 0.051 0.087
0.174 0.053 0.087
0.173 0.055 0.086
0.172 0.056 0.086
0.173 0.058 0.086
0.172 0.059 0.086
0.170 0.061 0.086
0.170 0.062 0.086
0.170 0.064 0.086
0.173 0.067 0.088
0.170 0.068 0.086
0.172 0.070 0.087
0.171 0.072 0.087
0.170 0.073 0.087
0.171 0.075 0.087
0.166 0.075 0.085
0.157 0.072 0.080
0.144 0.068 0.074
0.146 0.071 0.075
0.156 0.077 0.081
0.162 0.082 0.084
0.165 0.085 0.086
0.166 0.088 0.086
0.166 0.090 0.087
0.166 0.092 0.087
0.167 0.095 0.088
0.166 0.096 0.088
0.166 0.098 0.087
0.166 0.099 0.088
0.166 0.102 0.088
0.165 0.103 0.088
0.165 0.105 0.088
0.165 0.107 0.089
0.165 0.109 0.089
0.164 0.111 0.089
0.164 0.113 0.089
0.162 0.114 0.088
0.161 0.115 0.088
0.162 0.118 0.089
0.162 0.120 0.089
0.161 0.122 0.089
0.168 0.129 0.093
0.160 0.126 0.090
0.159 0.127 0.089
0.157 0.128 0.089
0.155 0.128 0.088
0.157 0.132 0.089
0.156 0.134 0.089
0.154 0.135 0.089
0.154 0.137 0.089
0.152 0.137 0.088
0.151 0.139 0.088
0.151 0.141 0.088
0.151 0.144 0.089
0.155 0.150 0.092
0.159 0.157 0.095
0.157 0.158 0.094
0.154 0.157 0.093
0.152 0.158 0.092
0.152 0.161 0.093
0.149 0.161 0.092
0.149 0.163 0.092
0.150 0.167 0.093
0.149 0.168 0.093
0.147 0.169 0.092
0.147 0.172 0.093
0.147 0.174 0.093
0.143 0.172 0.091
0.142 0.174 0.091
0.145 0.179 0.093
0.145 0.183 0.094
0.125 -0.158 0.081
0.127 -0.158 0.081
0.128 -0.158 0.082
0.128 -0.155 0.081
0.126 -0.151 0.080
0.126 -0.148 0.079
0.128 -0.149 0.081
0.129 -0.148 0.081
0.129 -0.146 0.080
0.127 -0.141 0.079
0.127 -0.139 0.078
0.126 -0.136 0.077
0.126 -0.134 0.077
0.127 -0.133 0.077
0.128 -0.132 0.078
0.127 -0.129 0.076
0.164 -0.159 0.097
0.167 -0.158 0.098
0.169 -0.159 0.100
0.171 -0.157 0.100
0.172 -0.156 0.100
0.172 -0.153 0.100
0.172 -0.151 0.099
0.172 -0.148 0.099
0.173 -0.147 0.099
0.174 -0.145 0.099
0.174 -0.143 0.099
0.175 -0.141 0.099
0.176 -0.139 0.099
0.175 -0.136 0.098
0.174 -0.133 0.097
0.174 -0.131 0.097
0.174 -0.128 0.097
0.173 -0.126 0.096
0.174 -0.124 0.096
0.175 -0.122 0.096
0.175 -0.120 0.096
0.175 -0.118 0.096
0.176 -0.117 0.096
0.176 -0.115 0.096
0.176 -0.112 0.095
0.176 -0.110 0.095
0.175 -0.108 0.094
0.176 -0.106 0.094
0.177 -0.105 0.095
0.177 -0.102 0.094
0.176 -0.100 0.094
0.176 -0.098 0.093
0.176 -0.096 0.093
0.178 -0.095 0.094
0.179 -0.093 0.094
0.178 -0.091 0.093
0.178 -0.089 0.093
0.178 -0.087 0.093
0.178 -0.085 0.093
0.179 -0.084 0.093
0.180 -0.082 0.094
0.180 -0.080 0.093
0.180 -0.078 0.093
0.180 -0.076 0.093
0.180 -0.075 0.093
0.180 -0.073 0.092
0.180 -0.071 0.093
0.181 -0.069 0.093
0.180 -0.067 0.092
0.180 -0.065 0.092
0.181 -0.064 0.092
0.182 -0.062 0.093
0.182 -0.060 0.092
0.182 -0.059 0.092
0.183 -0.057 0.093
0.182 -0.055 0.092
0.181 -0.053 0.092
0.183 -0.052 0.093
0.190 -0.052 0.096
0.190 -0.050 0.096
0.172 -0.043 0.087
0.180 -0.044 0.091
0.183 -0.043 0.092
0.183 -0.041 0.092
0.183 -0.039 0.092
0.185 -0.038 0.093
0.185 -0.036 0.093
0.185 -0.034 0.093
0.183 -0.032 0.091
0.206 -0.034 0.103
0.203 -0.032 0.101
0.188 -0.027 0.094
0.185 -0.025 0.092
0.196 -0.025 0.098
0.209 -0.025 0.104
0.203 -0.022 0.101
0.166 -0.016 0.083
0.159 -0.014 0.079
0.160 -0.013 0.080
0.164 -0.012 0.082
0.170 -0.010 0.085
0.172 -0.009 0.086
0.169 -0.007 0.084
0.165 -0.005 0.082
0.162 -0.004 0.081
0.154 -0.002 0.077
0.149 -0.001 0.074
0.151 0.001 0.075
0.157 0.002 0.078
0.157 0.004 0.078
0.154 0.005 0.077
0.151 0.007 0.075
0.149 0.008 0.074
0.149 0.009 0.074
0.154 0.011 0.077
0.157 0.013 0.078
0.160 0.014 0.080
0.157 0.016 0.079
0.156 0.017 0.078
0.156 0.019 0.078
0.156 0.020 0.078
0.157 0.022 0.079
0.150 0.022 0.075
0.146 0.023 0.073
0.147 0.025 0.074
0.150 0.027 0.076
0.149 0.028 0.075
0.145 0.029 0.073
0.151 0.031 0.076
0.164 0.035 0.082
0.172 0.039 0.087
0.175 0.041 0.088
0.173 0.042 0.087
0.173 0.044 0.088
0.165 0.044 0.084
0.172 0.047 0.087
0.173 0.049 0.088
0.173 0.051 0.088
0.173 0.053 0.088
0.171 0.054 0.087
0.171 0.056 0.087
0.170 0.057 0.087
0.170 0.059 0.087
0.170 0.061 0.087
0.168 0.062 0.087
0.168 0.063 0.086
0.168 0.065 0.087
0.173 0.069 0.090
0.170 0.070 0.088
0.167 0.070 0.087
0.167 0.072 0.087
0.166 0.073 0.086
0.164 0.074 0.086
0.147 0.068 0.077
0.144 0.068 0.075
0.150 0.073 0.079
0.156 0.077 0.082
0.163 0.083 0.086
0.164 0.085 0.087
0.165 0.088 0.088
0.164 0.089 0.088
0.164 0.091 0.088
0.164 0.093 0.088
0.164 0.095 0.088
0.164 0.097 0.088
0.163 0.098 0.088
0.163 0.100 0.089
0.163 0.102 0.089
0.162 0.104 0.089
0.161 0.105 0.089
0.161 0.107 0.088
0.160 0.109 0.089
0.161 0.111 0.089
0.160 0.113 0.089
0.159 0.114 0.089
0.159 0.116 0.089
0.159 0.119 0.090
0.158 0.120 0.089
0.158 0.122 0.090
0.160 0.126 0.091
0.158 0.126 0.090
0.155 0.127 0.090
0.153 0.127 0.089
0.153 0.130 0.089
0.153 0.132 0.089
0.151 0.132 0.088
0.150 0.134 0.089
0.152 0.138 0.090
0.149 0.137 0.089
0.147 0.138 0.088
0.146 0.139 0.088
0.149 0.145 0.090
0.152 0.150 0.093
0.151 0.153 0.093
0.149 0.153 0.092
0.148 0.154 0.091
0.146 0.154 0.091
0.150 0.161 0.094
0.147 0.162 0.093
0.147 0.164 0.093
0.147 0.167 0.094
0.141 0.162 0.090
0.140 0.164 0.090
0.144 0.171 0.093
0.144 0.174 0.094
0.145 0.177 0.095
0.144 0.179 0.095
0.142 0.179 0.094
0.124 -0.156 0.081
0.125 -0.156 0.082
0.128 -0.158 0.084
0.127 -0.154 0.083
0.127 -0.152 0.082
0.127 -0.150 0.082
0.128 -0.149 0.082
0.129 -0.148 0.082
0.128 -0.145 0.081
0.128 -0.142 0.081
0.126 -0.139 0.080
0.127 -0.137 0.079
0.127 -0.135 0.079
0.128 -0.135 0.080
0.131 -0.135 0.081
0.136 -0.138 0.083
0.161 -0.159 0.098
0.164 -0.159 0.099
0.166 -0.159 0.100
0.168 -0.158 0.101
0.170 -0.157 0.102
0.170 -0.154 0.101
0.170 -0.152 0.101
0.171 -0.150 0.101
0.171 -0.148 0.100
0.171 -0.146 0.100
0.172 -0.144 0.100
0.173 -0.142 0.100
0.173 -0.140 0.100
0.173 -0.137 0.100
0.171 -0.134 0.098
0.171 -0.131 0.098
0.172 -0.129 0.098
0.172 -0.127 0.097
0.172 -0.125 0.097
0.172 -0.123 0.097
0.170 -0.119 0.095
0.171 -0.117 0.095
0.172 -0.116 0.096
0.173 -0.115 0.096
0.173 -0.113 0.096
0.173 -0.111 0.096
0.172 -0.108 0.095
0.173 -0.106 0.095
0.174 -0.105 0.095
0.174 -0.103 0.095
0.175 -0.101 0.095
0.174 -0.099 0.095
0.174 -0.097 0.094
0.174 -0.095 0.094
0.174 -0.093 0.094
0.174 -0.091 0.094
0.174 -0.089 0.093
0.174 -0.087 0.093
0.175 -0.086 0.093
0.175 -0.084 0.093
0.177 -0.083 0.094
0.178 -0.081 0.094
0.177 -0.079 0.094
0.176 -0.077 0.093
0.178 -0.076 0.094
0.177 -0.074 0.093
0.177 -0.072 0.093
0.178 -0.070 0.093
0.178 -0.068 0.093
0.178 -0.067 0.093
0.178 -0.065 0.093
0.177 -0.063 0.092
0.180 -0.062 0.094
0.180 -0.060 0.093
0.179 -0.058 0.093
0.179 -0.056 0.093
0.180 -0.054 0.093
0.180 -0.053 0.093
0.181 -0.051 0.093
0.188 -0.051 0.097
0.181 -0.048 0.093
0.176 -0.045 0.090
0.177 -0.043 0.091
0.179 -0.042 0.092
0.180 -0.040 0.092
0.180 -0.039 0.092
0.182 -0.037 0.093
0.182 -0.035 0.093
0.181 -0.034 0.093
0.180 -0.032 0.092
0.196 -0.032 0.100
0.202 -0.032 0.103
0.194 -0.028 0.099
0.182 -0.025 0.093
0.185 -0.024 0.094
0.200 -0.024 0.102
0.196 -0.021 0.100
0.180 -0.018 0.092
0.168 -0.015 0.085
0.163 -0.013 0.083
0.165 -0.012 0.084
0.167 -0.010 0.085
0.166 -0.009 0.084
0.160 -0.007 0.081
0.157 -0.005 0.080
0.155 -0.004 0.079
0.154 -0.002 0.078
0.150 -0.001 0.076
0.151 0.001 0.077
0.159 0.002 0.081
0.159 0.004 0.081
0.152 0.005 0.077
0.148 0.006 0.075
0.147 0.008 0.075
0.147 0.009 0.075
0.150 0.011 0.076
0.157 0.013 0.080
0.157 0.014 0.080
0.159 0.016 0.081
0.158 0.017 0.081
0.152 0.018 0.078
0.153 0.020 0.078
0.156 0.022 0.080
0.151 0.022 0.077
0.148 0.023 0.076
0.151 0.025 0.077
0.152 0.027 0.078
