VERSION .7
FIELDS x y z
SIZE 4 4 4
TYPE F F F
COUNT 1 1 1
WIDTH     2435
HEIGHT 1
VIEWPOINT 0 0 0 1 0 0 0
POINTS     2435
DATA ascii
0.308 -0.030 -0.091
0.302 -0.026 -0.089
0.301 -0.023 -0.089
0.311 -0.021 -0.092
0.329 -0.020 -0.097
0.343 -0.017 -0.101
0.347 -0.014 -0.102
0.334 -0.011 -0.099
0.337 -0.008 -0.100
0.327 -0.004 -0.097
0.320 -0.001 -0.095
0.320 0.001 -0.094
0.322 0.004 -0.095
0.323 0.007 -0.095
0.328 0.010 -0.097
0.327 0.013 -0.097
0.329 0.017 -0.097
0.330 0.020 -0.098
0.319 0.022 -0.094
0.308 0.024 -0.091
0.306 0.027 -0.091
0.306 0.029 -0.090
0.306 0.032 -0.091
0.305 0.035 -0.090
0.306 0.038 -0.091
0.308 0.041 -0.091
0.310 0.044 -0.092
0.318 0.048 -0.095
0.322 0.052 -0.096
0.324 0.055 -0.096
0.325 0.058 -0.097
0.326 0.061 -0.097
0.332 0.066 -0.099
0.328 0.068 -0.098
0.314 0.068 -0.094
0.338 0.077 -0.101
0.327 0.077 -0.098
0.326 0.080 -0.098
0.331 0.084 -0.099
0.323 0.085 -0.097
0.328 0.090 -0.099
0.321 0.091 -0.097
0.326 0.096 -0.098
0.330 0.100 -0.099
0.329 0.103 -0.099
0.322 0.104 -0.097
0.326 0.109 -0.099
0.338 0.116 -0.102
0.349 0.123 -0.106
0.349 0.126 -0.106
0.353 0.132 -0.108
0.339 0.151 -0.105
0.345 0.157 -0.107
0.358 0.182 -0.112
0.351 0.186 -0.110
0.387 0.214 -0.122
0.397 0.224 -0.125
0.397 0.228 -0.126
0.399 0.238 -0.127
0.324 -0.441 -0.121
0.322 -0.433 -0.120
0.317 -0.421 -0.118
0.318 -0.416 -0.117
0.318 -0.411 -0.117
0.319 -0.406 -0.117
0.318 -0.400 -0.116
0.319 -0.396 -0.116
0.322 -0.393 -0.116
0.320 -0.386 -0.115
0.323 -0.384 -0.116
0.316 -0.370 -0.113
0.316 -0.364 -0.112
0.317 -0.360 -0.112
0.317 -0.355 -0.112
0.319 -0.352 -0.112
0.321 -0.348 -0.112
0.317 -0.339 -0.110
0.318 -0.335 -0.110
0.317 -0.329 -0.109
0.313 -0.320 -0.107
0.312 -0.314 -0.106
0.312 -0.309 -0.106
0.314 -0.306 -0.106
0.315 -0.302 -0.106
0.309 -0.292 -0.103
0.308 -0.286 -0.102
0.308 -0.282 -0.102
0.308 -0.277 -0.102
0.306 -0.272 -0.101
0.305 -0.266 -0.100
0.305 -0.262 -0.099
0.303 -0.257 -0.099
0.302 -0.252 -0.098
0.303 -0.248 -0.098
0.305 -0.245 -0.098
0.304 -0.240 -0.097
0.297 -0.232 -0.095
0.297 -0.228 -0.095
0.301 -0.227 -0.095
0.294 -0.218 -0.093
0.292 -0.212 -0.092
0.290 -0.208 -0.091
0.214 -0.145 -0.066
0.209 -0.140 -0.065
0.209 -0.137 -0.065
0.210 -0.135 -0.065
0.218 -0.138 -0.067
0.223 -0.139 -0.068
0.227 -0.138 -0.069
0.229 -0.137 -0.070
0.217 -0.127 -0.066
0.208 -0.120 -0.063
0.207 -0.117 -0.063
0.211 -0.117 -0.064
0.229 -0.124 -0.069
0.242 -0.129 -0.073
0.244 -0.128 -0.073
0.245 -0.125 -0.073
0.246 -0.123 -0.074
0.249 -0.122 -0.074
0.310 -0.149 -0.092
0.313 -0.147 -0.093
0.315 -0.145 -0.094
0.318 -0.143 -0.094
0.321 -0.141 -0.095
0.350 -0.150 -0.104
0.316 -0.129 -0.093
0.310 -0.123 -0.091
0.305 -0.118 -0.090
0.278 -0.105 -0.081
0.273 -0.101 -0.080
0.354 -0.127 -0.104
0.353 -0.123 -0.103
0.368 -0.125 -0.107
0.375 -0.124 -0.109
0.381 -0.122 -0.111
0.391 -0.121 -0.114
0.399 -0.120 -0.116
0.409 -0.119 -0.119
0.417 -0.117 -0.121
0.424 -0.116 -0.123
0.431 -0.113 -0.125
0.445 -0.113 -0.129
0.440 -0.107 -0.127
0.432 -0.101 -0.125
0.423 -0.091 -0.122
0.416 -0.086 -0.120
0.402 -0.079 -0.116
0.300 -0.054 -0.086
0.297 -0.050 -0.085
0.294 -0.047 -0.084
0.291 -0.044 -0.083
0.292 -0.041 -0.084
0.295 -0.039 -0.085
0.301 -0.037 -0.086
0.310 -0.035 -0.089
0.326 -0.034 -0.093
0.314 -0.030 -0.090
0.308 -0.027 -0.088
0.307 -0.024 -0.088
0.313 -0.021 -0.090
0.335 -0.020 -0.096
0.345 -0.017 -0.099
0.347 -0.014 -0.099
0.343 -0.011 -0.098
0.327 -0.007 -0.093
0.321 -0.004 -0.092
0.317 -0.001 -0.091
0.320 0.001 -0.092
0.324 0.004 -0.093
0.332 0.008 -0.095
0.329 0.011 -0.094
0.325 0.013 -0.093
0.310 0.016 -0.089
0.304 0.018 -0.087
0.305 0.021 -0.087
0.306 0.024 -0.088
0.307 0.027 -0.088
0.307 0.029 -0.088
0.307 0.032 -0.088
0.308 0.035 -0.089
0.309 0.038 -0.089
0.310 0.041 -0.089
0.310 0.044 -0.089
0.310 0.047 -0.089
0.309 0.050 -0.089
0.309 0.053 -0.089
0.325 0.058 -0.094
0.328 0.062 -0.095
0.337 0.067 -0.097
0.328 0.068 -0.095
0.321 0.070 -0.093
0.316 0.072 -0.092
0.323 0.076 -0.093
0.323 0.079 -0.094
0.329 0.084 -0.095
0.327 0.086 -0.095
0.313 0.086 -0.091
0.319 0.090 -0.093
0.322 0.094 -0.094
0.323 0.098 -0.094
0.320 0.100 -0.094
0.333 0.107 -0.098
0.326 0.108 -0.095
0.326 0.112 -0.096
0.344 0.121 -0.101
0.352 0.127 -0.104
0.340 0.126 -0.100
0.339 0.129 -0.100
0.341 0.151 -0.102
0.345 0.157 -0.103
0.329 0.160 -0.099
0.349 0.181 -0.106
0.392 0.212 -0.119
0.382 0.211 -0.117
0.397 0.233 -0.122
0.389 0.237 -0.120
0.393 0.263 -0.123
0.319 -0.439 -0.116
0.321 -0.437 -0.116
0.321 -0.431 -0.116
0.317 -0.421 -0.114
0.317 -0.414 -0.113
0.318 -0.411 -0.113
0.319 -0.406 -0.113
0.319 -0.400 -0.112
0.318 -0.393 -0.112
0.318 -0.388 -0.111
0.319 -0.384 -0.111
0.316 -0.374 -0.109
0.315 -0.368 -0.109
0.315 -0.363 -0.108
0.315 -0.358 -0.108
0.316 -0.353 -0.107
0.316 -0.348 -0.107
0.315 -0.342 -0.106
0.315 -0.337 -0.106
0.315 -0.331 -0.105
0.314 -0.325 -0.104
0.311 -0.317 -0.103
0.311 -0.312 -0.102
0.312 -0.309 -0.102
0.314 -0.306 -0.102
0.308 -0.295 -0.100
0.308 -0.290 -0.099
0.308 -0.286 -0.099
0.308 -0.282 -0.099
0.308 -0.277 -0.098
0.306 -0.271 -0.097
0.304 -0.265 -0.096
0.302 -0.259 -0.095
0.303 -0.256 -0.095
0.302 -0.251 -0.095
0.298 -0.243 -0.093
0.300 -0.241 -0.093
0.297 -0.235 -0.092
0.294 -0.229 -0.091
0.294 -0.225 -0.090
0.290 -0.219 -0.089
0.284 -0.210 -0.087
0.280 -0.203 -0.085
0.237 -0.166 -0.072
0.237 -0.164 -0.071
0.214 -0.145 -0.064
0.208 -0.138 -0.062
0.209 -0.137 -0.062
0.210 -0.135 -0.063
0.214 -0.135 -0.064
0.226 -0.140 -0.067
0.226 -0.138 -0.067
0.227 -0.136 -0.067
0.220 -0.129 -0.065
0.208 -0.120 -0.061
0.209 -0.118 -0.061
0.210 -0.116 -0.061
0.222 -0.121 -0.065
0.244 -0.130 -0.071
0.245 -0.128 -0.071
0.244 -0.125 -0.071
0.244 -0.122 -0.071
0.249 -0.122 -0.072
0.312 -0.146 -0.090
0.315 -0.144 -0.090
0.317 -0.142 -0.091
0.321 -0.141 -0.092
0.314 -0.128 -0.089
0.315 -0.125 -0.090
0.304 -0.118 -0.086
0.278 -0.105 -0.079
0.264 -0.097 -0.075
0.347 -0.124 -0.098
0.356 -0.124 -0.101
0.370 -0.126 -0.104
0.376 -0.124 -0.106
0.381 -0.122 -0.107
0.388 -0.120 -0.109
0.400 -0.120 -0.112
0.407 -0.119 -0.114
0.413 -0.116 -0.116
0.417 -0.114 -0.117
0.435 -0.114 -0.122
0.443 -0.112 -0.124
0.442 -0.108 -0.124
0.439 -0.103 -0.123
0.436 -0.098 -0.122
0.424 -0.091 -0.118
0.413 -0.085 -0.115
0.298 -0.053 -0.083
0.297 -0.050 -0.083
0.291 -0.047 -0.081
0.287 -0.043 -0.080
0.289 -0.041 -0.080
0.296 -0.039 -0.082
0.305 -0.038 -0.084
0.310 -0.035 -0.086
0.312 -0.033 -0.086
0.321 -0.031 -0.089
0.310 -0.027 -0.086
0.315 -0.024 -0.087
0.332 -0.023 -0.092
0.328 -0.019 -0.091
0.351 -0.018 -0.097
0.349 -0.014 -0.097
0.335 -0.011 -0.093
0.321 -0.007 -0.089
0.314 -0.004 -0.087
0.317 -0.001 -0.088
0.325 0.001 -0.090
0.333 0.005 -0.092
0.329 0.007 -0.091
0.312 0.010 -0.086
0.303 0.012 -0.084
0.304 0.015 -0.084
0.306 0.018 -0.085
0.307 0.021 -0.085
0.308 0.024 -0.085
0.308 0.027 -0.085
0.309 0.030 -0.086
0.310 0.033 -0.086
0.310 0.035 -0.086
0.311 0.038 -0.086
0.311 0.041 -0.086
0.312 0.044 -0.087
0.312 0.047 -0.087
0.311 0.050 -0.087
0.311 0.053 -0.087
0.311 0.056 -0.087
0.312 0.059 -0.087
0.325 0.064 -0.091
0.336 0.070 -0.094
0.326 0.071 -0.091
0.320 0.072 -0.090
0.318 0.075 -0.089
0.327 0.080 -0.092
0.328 0.084 -0.092
0.326 0.086 -0.092
0.327 0.090 -0.092
0.319 0.090 -0.090
0.316 0.093 -0.089
0.313 0.095 -0.088
0.314 0.098 -0.089
0.328 0.106 -0.093
0.346 0.115 -0.098
0.340 0.116 -0.096
0.335 0.118 -0.095
0.341 0.123 -0.097
0.334 0.124 -0.095
0.325 0.124 -0.093
1.256 0.505 -0.360
0.341 0.151 -0.098
0.352 0.159 -0.102
0.370 0.191 -0.108
0.390 0.206 -0.114
0.398 0.215 -0.117
0.389 0.214 -0.115
0.390 0.228 -0.116
0.395 0.236 -0.118
0.391 0.238 -0.117
0.365 0.235 -0.110
0.402 0.315 -0.126
0.313 -0.431 -0.110
0.317 -0.431 -0.111
0.318 -0.427 -0.111
0.317 -0.420 -0.110
0.316 -0.413 -0.109
0.319 -0.411 -0.110
0.320 -0.407 -0.109
0.316 -0.396 -0.108
0.316 -0.391 -0.107
0.317 -0.386 -0.107
0.316 -0.380 -0.106
0.316 -0.375 -0.106
0.316 -0.369 -0.105
0.316 -0.364 -0.105
0.316 -0.358 -0.104
0.316 -0.352 -0.104
0.316 -0.347 -0.103
0.315 -0.341 -0.102
0.309 -0.329 -0.100
0.310 -0.325 -0.100
0.313 -0.324 -0.100
0.313 -0.319 -0.100
0.309 -0.310 -0.098
0.312 -0.308 -0.099
0.309 -0.301 -0.097
0.307 -0.294 -0.096
0.307 -0.289 -0.096
0.308 -0.286 -0.096
0.308 -0.281 -0.095
0.308 -0.277 -0.095
0.306 -0.271 -0.094
0.302 -0.263 -0.092
0.302 -0.258 -0.092
0.303 -0.255 -0.092
0.300 -0.249 -0.091
0.296 -0.242 -0.089
0.295 -0.236 -0.088
0.295 -0.233 -0.088
0.293 -0.228 -0.087
0.289 -0.221 -0.086
0.283 -0.213 -0.084
0.276 -0.204 -0.081
0.256 -0.186 -0.075
0.243 -0.174 -0.071
0.233 -0.163 -0.068
0.215 -0.149 -0.063
0.214 -0.145 -0.062
0.208 -0.139 -0.060
0.208 -0.136 -0.060
0.211 -0.136 -0.061
0.217 -0.137 -0.062
0.218 -0.135 -0.063
0.218 -0.133 -0.062
0.220 -0.131 -0.063
0.224 -0.131 -0.064
0.208 -0.120 -0.059
0.209 -0.118 -0.059
0.210 -0.116 -0.059
0.213 -0.116 -0.060
0.242 -0.129 -0.068
0.244 -0.127 -0.069
0.244 -0.124 -0.068
0.243 -0.121 -0.068
0.246 -0.120 -0.069
0.312 -0.146 -0.087
0.314 -0.144 -0.087
0.316 -0.142 -0.088
0.319 -0.140 -0.088
0.333 -0.143 -0.092
0.326 -0.136 -0.090
0.302 -0.123 -0.083
0.301 -0.120 -0.083
0.299 -0.116 -0.082
0.276 -0.104 -0.076
0.262 -0.096 -0.072
0.365 -0.127 -0.100
0.370 -0.125 -0.101
0.376 -0.124 -0.103
0.383 -0.122 -0.104
0.388 -0.120 -0.105
0.402 -0.121 -0.109
0.406 -0.118 -0.110
0.409 -0.115 -0.111
0.417 -0.113 -0.113
0.437 -0.115 -0.118
0.442 -0.112 -0.119
0.451 -0.110 -0.122
0.451 -0.106 -0.122
0.418 -0.090 -0.113
0.403 -0.083 -0.108
0.388 -0.076 -0.104
0.299 -0.053 -0.080
0.295 -0.050 -0.079
0.292 -0.047 -0.078
0.286 -0.043 -0.077
0.287 -0.041 -0.077
0.296 -0.039 -0.079
0.307 -0.038 -0.082
0.308 -0.035 -0.083
0.305 -0.032 -0.082
0.306 -0.029 -0.082
0.315 -0.027 -0.084
0.321 -0.025 -0.086
0.335 -0.023 -0.089
0.349 -0.017 -0.093
0.343 -0.014 -0.092
0.325 -0.010 -0.087
0.313 -0.007 -0.084
0.315 -0.004 -0.084
0.324 -0.001 -0.086
0.328 0.001 -0.088
0.327 0.004 -0.087
0.302 0.007 -0.081
0.304 0.010 -0.081
0.306 0.013 -0.082
0.307 0.015 -0.082
0.308 0.018 -0.082
0.310 0.021 -0.083
0.310 0.024 -0.083
0.310 0.027 -0.083
0.312 0.030 -0.083
0.312 0.033 -0.084
0.313 0.036 -0.084
0.313 0.039 -0.084
0.313 0.042 -0.084
0.313 0.044 -0.084
0.313 0.047 -0.084
0.313 0.050 -0.084
0.313 0.053 -0.084
0.313 0.056 -0.084
0.313 0.059 -0.084
0.312 0.062 -0.084
0.311 0.064 -0.084
0.335 0.072 -0.090
0.321 0.072 -0.087
0.326 0.077 -0.088
0.335 0.082 -0.091
0.334 0.085 -0.091
0.332 0.088 -0.090
0.335 0.092 -0.091
0.323 0.091 -0.088
0.311 0.091 -0.085
0.313 0.095 -0.085
0.318 0.099 -0.087
0.331 0.106 -0.090
0.350 0.116 -0.096
0.347 0.118 -0.095
0.336 0.118 -0.092
0.326 0.118 -0.090
0.332 0.123 -0.092
0.324 0.124 -0.089
0.346 0.157 -0.097
0.387 0.205 -0.110
0.389 0.210 -0.110
0.357 0.205 -0.102
0.389 0.231 -0.112
0.386 0.234 -0.111
0.310 -0.426 -0.105
0.312 -0.424 -0.105
0.313 -0.420 -0.105
0.315 -0.417 -0.105
0.317 -0.414 -0.106
0.319 -0.411 -0.106
0.318 -0.404 -0.105
0.309 -0.388 -0.102
0.312 -0.385 -0.102
0.314 -0.383 -0.102
0.317 -0.380 -0.103
0.318 -0.376 -0.102
0.317 -0.369 -0.102
0.315 -0.362 -0.101
0.315 -0.357 -0.100
0.314 -0.350 -0.099
0.315 -0.346 -0.099
0.314 -0.340 -0.098
0.309 -0.329 -0.096
0.309 -0.324 -0.096
0.313 -0.323 -0.097
0.309 -0.314 -0.095
0.310 -0.310 -0.095
0.309 -0.304 -0.094
0.309 -0.300 -0.094
0.308 -0.295 -0.093
0.306 -0.288 -0.092
0.304 -0.282 -0.091
0.305 -0.278 -0.091
0.306 -0.275 -0.091
0.305 -0.269 -0.090
0.302 -0.262 -0.089
0.302 -0.258 -0.089
0.300 -0.253 -0.088
0.296 -0.246 -0.086
0.293 -0.239 -0.085
0.291 -0.233 -0.084
0.283 -0.223 -0.082
0.251 -0.182 -0.071
0.244 -0.174 -0.069
0.233 -0.164 -0.066
0.215 -0.148 -0.060
0.216 -0.146 -0.061
0.209 -0.139 -0.058
0.211 -0.138 -0.059
0.217 -0.139 -0.060
0.220 -0.139 -0.061
0.221 -0.137 -0.061
0.221 -0.134 -0.061
0.222 -0.132 -0.061
0.223 -0.131 -0.061
0.208 -0.120 -0.057
0.208 -0.117 -0.057
0.210 -0.116 -0.057
0.211 -0.115 -0.058
0.237 -0.126 -0.064
0.244 -0.127 -0.066
0.244 -0.124 -0.066
0.244 -0.122 -0.066
0.246 -0.120 -0.066
0.311 -0.146 -0.084
0.313 -0.143 -0.084
0.315 -0.141 -0.084
0.317 -0.139 -0.085
0.336 -0.144 -0.090
0.330 -0.138 -0.088
0.301 -0.123 -0.080
0.293 -0.117 -0.078
0.287 -0.111 -0.076
0.273 -0.103 -0.072
0.346 -0.124 -0.091
0.363 -0.126 -0.096
0.369 -0.125 -0.097
0.376 -0.124 -0.099
0.384 -0.123 -0.101
0.386 -0.120 -0.101
0.398 -0.119 -0.104
0.405 -0.118 -0.106
0.410 -0.115 -0.107
0.416 -0.113 -0.109
0.433 -0.113 -0.113
0.442 -0.112 -0.115
0.451 -0.110 -0.118
0.455 -0.107 -0.119
0.418 -0.094 -0.109
0.402 -0.086 -0.104
0.398 -0.082 -0.103
0.388 -0.076 -0.101
0.299 -0.053 -0.078
0.294 -0.050 -0.076
0.291 -0.046 -0.075
0.289 -0.043 -0.075
0.291 -0.041 -0.075
0.295 -0.039 -0.076
0.313 -0.039 -0.081
0.311 -0.035 -0.080
0.308 -0.032 -0.080
0.314 -0.030 -0.081
0.328 -0.028 -0.085
0.332 -0.026 -0.086
0.327 -0.022 -0.084
0.328 -0.016 -0.085
0.327 -0.013 -0.084
0.314 -0.010 -0.081
0.310 -0.007 -0.080
0.321 -0.004 -0.083
0.325 -0.002 -0.084
0.323 0.001 -0.083
0.301 0.004 -0.078
0.303 0.007 -0.078
0.306 0.010 -0.079
0.307 0.013 -0.079
0.309 0.015 -0.080
0.311 0.018 -0.080
0.311 0.021 -0.080
0.312 0.024 -0.081
0.312 0.027 -0.081
0.313 0.030 -0.081
0.314 0.033 -0.081
0.315 0.036 -0.081
0.315 0.039 -0.081
0.314 0.042 -0.081
0.314 0.045 -0.081
0.314 0.047 -0.081
0.315 0.050 -0.082
0.315 0.053 -0.082
0.314 0.056 -0.082
0.314 0.059 -0.082
0.313 0.062 -0.082
0.313 0.065 -0.081
0.312 0.067 -0.081
0.325 0.073 -0.085
0.329 0.077 -0.086
0.330 0.081 -0.086
0.334 0.085 -0.087
0.339 0.089 -0.089
0.331 0.090 -0.087
0.325 0.092 -0.085
0.319 0.093 -0.084
0.314 0.095 -0.083
0.332 0.104 -0.088
0.344 0.111 -0.091
0.343 0.114 -0.091
0.335 0.114 -0.089
0.340 0.123 -0.090
0.323 0.120 -0.086
0.338 0.129 -0.090
0.330 0.129 -0.088
1.236 0.496 -0.330
0.353 0.160 -0.095
0.344 0.159 -0.093
0.354 0.183 -0.097
0.376 0.198 -0.103
0.375 0.202 -0.103
0.349 0.196 -0.096
0.358 0.204 -0.099
0.362 0.211 -0.100
0.360 0.214 -0.100
0.381 0.231 -0.106
0.381 0.235 -0.106
0.385 0.266 -0.110
0.392 0.280 -0.112
0.310 -0.426 -0.101
0.309 -0.419 -0.100
0.309 -0.413 -0.100
0.312 -0.413 -0.101
0.315 -0.411 -0.101
0.317 -0.408 -0.101
0.309 -0.392 -0.098
0.308 -0.385 -0.097
0.310 -0.383 -0.098
0.315 -0.383 -0.099
0.317 -0.380 -0.099
0.318 -0.375 -0.099
0.314 -0.366 -0.097
0.313 -0.359 -0.096
0.312 -0.352 -0.095
0.312 -0.347 -0.095
0.313 -0.343 -0.095
0.313 -0.338 -0.095
0.312 -0.332 -0.094
0.310 -0.324 -0.093
0.307 -0.317 -0.091
0.307 -0.312 -0.091
0.307 -0.307 -0.091
0.308 -0.304 -0.091
0.307 -0.298 -0.090
0.306 -0.292 -0.089
0.305 -0.287 -0.088
0.305 -0.282 -0.088
0.303 -0.276 -0.087
0.303 -0.272 -0.087
0.304 -0.268 -0.087
0.302 -0.262 -0.086
0.300 -0.256 -0.085
0.298 -0.250 -0.084
0.297 -0.246 -0.083
0.298 -0.243 -0.083
0.289 -0.231 -0.080
0.211 -0.161 -0.058
0.220 -0.165 -0.060
0.243 -0.176 -0.066
0.239 -0.170 -0.065
0.237 -0.166 -0.064
0.216 -0.149 -0.058
0.224 -0.151 -0.060
0.217 -0.144 -0.058
0.217 -0.139 -0.058
0.221 -0.139 -0.059
0.222 -0.137 -0.059
0.220 -0.134 -0.058
0.220 -0.131 -0.058
0.221 -0.129 -0.058
0.210 -0.120 -0.055
0.208 -0.117 -0.055
0.209 -0.115 -0.055
0.211 -0.114 -0.055
0.236 -0.125 -0.062
0.243 -0.127 -0.064
0.247 -0.126 -0.064
0.244 -0.122 -0.063
0.244 -0.119 -0.063
0.308 -0.144 -0.080
0.315 -0.144 -0.081
0.314 -0.140 -0.081
0.326 -0.142 -0.084
0.295 -0.117 -0.075
0.286 -0.111 -0.073
0.352 -0.126 -0.090
0.362 -0.126 -0.092
0.369 -0.125 -0.094
0.374 -0.123 -0.095
0.381 -0.122 -0.096
0.387 -0.120 -0.098
0.390 -0.117 -0.099
0.400 -0.116 -0.101
0.409 -0.115 -0.103
0.416 -0.113 -0.105
0.426 -0.112 -0.107
0.440 -0.111 -0.110
0.450 -0.109 -0.113
0.455 -0.106 -0.114
0.412 -0.093 -0.103
0.400 -0.086 -0.100
0.401 -0.083 -0.100
0.396 -0.078 -0.099
0.392 -0.073 -0.098
0.294 -0.052 -0.073
0.293 -0.049 -0.073
0.292 -0.047 -0.073
0.294 -0.044 -0.073
0.294 -0.042 -0.073
0.307 -0.041 -0.077
0.313 -0.038 -0.078
0.315 -0.036 -0.078
0.314 -0.033 -0.078
0.323 -0.031 -0.080
0.334 -0.029 -0.083
0.335 -0.026 -0.083
0.317 -0.022 -0.079
0.309 -0.018 -0.077
0.315 -0.016 -0.078
0.314 -0.013 -0.078
0.311 -0.010 -0.077
0.319 -0.007 -0.079
0.326 -0.004 -0.081
0.320 -0.001 -0.080
0.302 0.001 -0.075
0.303 0.004 -0.075
0.304 0.007 -0.076
0.307 0.010 -0.076
0.309 0.013 -0.077
0.310 0.015 -0.077
0.311 0.018 -0.077
0.314 0.021 -0.078
0.313 0.024 -0.078
0.314 0.027 -0.078
0.314 0.030 -0.078
0.315 0.033 -0.079
0.315 0.036 -0.079
0.316 0.039 -0.079
0.316 0.042 -0.079
0.315 0.045 -0.079
0.316 0.048 -0.079
0.316 0.051 -0.079
0.316 0.053 -0.079
0.315 0.056 -0.079
0.315 0.059 -0.079
0.315 0.062 -0.079
0.314 0.065 -0.079
0.313 0.068 -0.079
0.312 0.070 -0.079
0.324 0.076 -0.081
0.325 0.079 -0.082
0.323 0.082 -0.082
0.325 0.085 -0.082
0.333 0.091 -0.084
0.333 0.094 -0.084
0.328 0.096 -0.083
0.318 0.096 -0.081
0.325 0.101 -0.082
0.343 0.110 -0.087
0.341 0.113 -0.087
0.326 0.111 -0.083
0.334 0.117 -0.085
0.332 0.119 -0.085
0.344 0.127 -0.088
0.358 0.162 -0.093
0.353 0.163 -0.092
0.355 0.171 -0.093
0.354 0.183 -0.093
0.367 0.193 -0.097
0.377 0.203 -0.099
0.376 0.206 -0.099
0.368 0.206 -0.098
0.362 0.207 -0.096
0.356 0.207 -0.095
0.351 0.208 -0.094
0.365 0.221 -0.098
0.375 0.231 -0.101
0.372 0.234 -0.100
0.380 0.243 -0.103
0.385 0.251 -0.104
0.383 0.255 -0.104
0.373 0.252 -0.102
0.376 0.288 -0.105
0.316 -0.439 -0.099
0.310 -0.425 -0.097
0.308 -0.417 -0.096
0.307 -0.411 -0.095
0.307 -0.406 -0.095
0.311 -0.405 -0.096
0.311 -0.399 -0.095
0.310 -0.393 -0.095
0.311 -0.389 -0.095
0.313 -0.386 -0.095
0.315 -0.383 -0.095
0.317 -0.380 -0.095
0.314 -0.370 -0.094
0.312 -0.363 -0.093
0.311 -0.356 -0.092
0.311 -0.351 -0.092
0.311 -0.346 -0.091
0.311 -0.341 -0.091
0.311 -0.336 -0.090
0.307 -0.326 -0.089
0.307 -0.321 -0.088
0.308 -0.317 -0.088
0.306 -0.310 -0.087
0.306 -0.306 -0.087
0.306 -0.301 -0.086
0.306 -0.296 -0.086
0.305 -0.291 -0.085
0.306 -0.287 -0.085
0.303 -0.280 -0.084
0.303 -0.276 -0.084
0.303 -0.271 -0.083
0.301 -0.265 -0.083
0.301 -0.261 -0.082
0.300 -0.256 -0.082
0.296 -0.249 -0.080
0.297 -0.245 -0.080
0.300 -0.244 -0.081
0.290 -0.232 -0.078
0.209 -0.159 -0.055
0.219 -0.164 -0.058
0.214 -0.157 -0.056
0.234 -0.169 -0.061
0.242 -0.172 -0.063
0.234 -0.164 -0.061
0.216 -0.149 -0.056
0.227 -0.153 -0.059
0.226 -0.150 -0.059
0.210 -0.137 -0.054
0.214 -0.137 -0.055
0.220 -0.139 -0.057
0.222 -0.137 -0.057
0.221 -0.134 -0.057
0.220 -0.131 -0.056
0.220 -0.128 -0.056
0.218 -0.125 -0.055
0.208 -0.117 -0.053
0.209 -0.115 -0.053
0.211 -0.114 -0.053
0.230 -0.122 -0.058
0.243 -0.126 -0.061
0.246 -0.125 -0.062
0.243 -0.121 -0.061
0.244 -0.119 -0.061
0.311 -0.145 -0.077
0.311 -0.142 -0.077
0.321 -0.143 -0.080
0.322 -0.141 -0.080
0.336 -0.143 -0.083
0.333 -0.139 -0.082
0.305 -0.124 -0.075
0.300 -0.119 -0.074
0.290 -0.112 -0.071
0.279 -0.105 -0.068
0.362 -0.126 -0.088
0.369 -0.125 -0.090
0.375 -0.123 -0.091
0.378 -0.121 -0.092
0.385 -0.119 -0.094
0.391 -0.117 -0.095
0.398 -0.115 -0.097
0.404 -0.113 -0.098
0.416 -0.113 -0.101
0.425 -0.111 -0.103
0.434 -0.110 -0.105
0.449 -0.109 -0.108
0.453 -0.106 -0.109
0.411 -0.088 -0.099
0.399 -0.082 -0.096
0.396 -0.078 -0.095
0.398 -0.074 -0.096
0.290 -0.052 -0.070
0.291 -0.049 -0.070
0.292 -0.047 -0.070
0.293 -0.044 -0.070
0.302 -0.043 -0.072
0.305 -0.040 -0.073
0.305 -0.037 -0.073
0.313 -0.036 -0.075
0.317 -0.033 -0.076
0.324 -0.031 -0.077
0.335 -0.029 -0.080
0.330 -0.026 -0.079
0.310 -0.018 -0.074
0.308 -0.015 -0.074
0.309 -0.013 -0.074
0.316 -0.010 -0.076
0.322 -0.007 -0.077
0.322 -0.004 -0.077
0.303 -0.001 -0.072
0.303 0.001 -0.073
0.306 0.004 -0.073
0.308 0.007 -0.074
0.310 0.010 -0.074
0.310 0.013 -0.074
0.312 0.016 -0.075
0.312 0.018 -0.075
0.313 0.021 -0.075
0.315 0.024 -0.075
0.315 0.027 -0.075
0.315 0.030 -0.076
0.315 0.033 -0.076
0.317 0.036 -0.076
0.317 0.039 -0.076
0.317 0.042 -0.076
0.318 0.045 -0.076
0.317 0.048 -0.076
0.317 0.051 -0.076
0.317 0.054 -0.076
0.317 0.057 -0.076
0.317 0.059 -0.076
0.316 0.062 -0.076
0.316 0.065 -0.076
0.314 0.068 -0.076
0.313 0.071 -0.076
0.313 0.073 -0.076
0.320 0.078 -0.078
0.319 0.081 -0.077
0.318 0.084 -0.077
0.327 0.089 -0.079
0.335 0.095 -0.082
0.336 0.098 -0.082
0.327 0.098 -0.080
0.316 0.098 -0.077
0.330 0.106 -0.081
0.340 0.112 -0.083
0.343 0.120 -0.084
0.346 0.124 -0.085
0.337 0.125 -0.083
0.341 0.130 -0.084
0.336 0.131 -0.083
0.371 0.168 -0.093
0.361 0.167 -0.090
0.344 0.177 -0.087
0.363 0.191 -0.092
0.375 0.201 -0.095
0.385 0.211 -0.098
0.379 0.212 -0.097
0.384 0.219 -0.098
0.373 0.217 -0.096
0.360 0.213 -0.093
0.362 0.219 -0.093
0.366 0.226 -0.095
0.361 0.227 -0.094
0.370 0.237 -0.096
0.392 0.255 -0.102
0.380 0.252 -0.099
0.378 0.256 -0.099
0.386 0.271 -0.102
0.388 0.287 -0.103
0.405 0.327 -0.110
0.319 -0.442 -0.096
0.310 -0.425 -0.093
0.308 -0.417 -0.092
0.305 -0.408 -0.091
0.306 -0.404 -0.091
0.308 -0.400 -0.091
0.309 -0.397 -0.091
0.311 -0.394 -0.091
0.312 -0.390 -0.091
0.313 -0.386 -0.091
0.315 -0.382 -0.091
0.313 -0.374 -0.090
0.310 -0.365 -0.089
0.310 -0.360 -0.089
0.312 -0.357 -0.089
0.313 -0.352 -0.088
0.311 -0.345 -0.088
0.310 -0.339 -0.087
0.309 -0.333 -0.086
0.308 -0.327 -0.085
0.307 -0.320 -0.085
0.308 -0.317 -0.085
0.307 -0.311 -0.084
0.305 -0.304 -0.083
0.304 -0.299 -0.083
0.304 -0.294 -0.082
0.306 -0.291 -0.082
0.302 -0.283 -0.081
0.299 -0.276 -0.080
0.302 -0.274 -0.080
0.303 -0.271 -0.080
0.301 -0.265 -0.079
0.300 -0.260 -0.079
0.301 -0.256 -0.079
0.296 -0.249 -0.077
0.295 -0.244 -0.077
0.296 -0.240 -0.077
0.222 -0.163 -0.056
0.230 -0.167 -0.058
0.238 -0.169 -0.060
0.228 -0.159 -0.057
0.217 -0.149 -0.054
0.227 -0.153 -0.057
0.228 -0.151 -0.057
0.219 -0.143 -0.054
0.214 -0.137 -0.053
0.219 -0.138 -0.054
0.220 -0.136 -0.054
0.213 -0.129 -0.052
0.218 -0.129 -0.053
0.219 -0.128 -0.054
0.220 -0.126 -0.054
0.208 -0.117 -0.051
0.209 -0.115 -0.051
0.210 -0.114 -0.051
0.215 -0.114 -0.052
0.243 -0.126 -0.059
0.246 -0.125 -0.059
0.244 -0.122 -0.059
0.245 -0.119 -0.059
0.245 -0.117 -0.059
0.313 -0.146 -0.075
0.314 -0.143 -0.075
0.315 -0.141 -0.075
0.313 -0.136 -0.074
0.322 -0.137 -0.077
0.312 -0.130 -0.074
0.307 -0.125 -0.073
0.296 -0.117 -0.070
0.295 -0.114 -0.070
0.364 -0.126 -0.085
0.370 -0.125 -0.087
0.375 -0.123 -0.088
0.379 -0.121 -0.089
0.384 -0.119 -0.090
0.392 -0.117 -0.092
0.397 -0.115 -0.093
0.402 -0.113 -0.094
0.413 -0.112 -0.096
0.422 -0.110 -0.098
0.434 -0.109 -0.101
0.438 -0.106 -0.102
0.447 -0.104 -0.104
0.442 -0.099 -0.102
0.402 -0.083 -0.093
0.387 -0.076 -0.089
0.385 -0.072 -0.089
0.289 -0.051 -0.067
0.291 -0.049 -0.067
0.290 -0.046 -0.067
0.290 -0.044 -0.067
0.297 -0.042 -0.068
0.303 -0.040 -0.070
0.290 -0.036 -0.067
0.296 -0.034 -0.068
0.314 -0.033 -0.072
0.321 -0.031 -0.074
0.339 -0.029 -0.078
0.327 -0.025 -0.075
0.317 -0.022 -0.073
0.311 -0.018 -0.071
0.309 -0.015 -0.071
0.310 -0.013 -0.071
0.316 -0.010 -0.073
0.317 -0.007 -0.073
0.311 -0.004 -0.072
0.303 -0.001 -0.070
0.306 0.001 -0.070
0.308 0.004 -0.071
0.310 0.007 -0.071
0.310 0.010 -0.071
0.311 0.013 -0.072
0.314 0.016 -0.072
0.314 0.018 -0.072
0.315 0.021 -0.072
0.316 0.024 -0.073
0.317 0.027 -0.073
0.317 0.030 -0.073
0.316 0.033 -0.073
0.317 0.036 -0.073
0.318 0.039 -0.073
0.318 0.042 -0.074
0.319 0.045 -0.074
0.318 0.048 -0.073
0.316 0.050 -0.073
0.319 0.054 -0.074
0.318 0.057 -0.074
0.318 0.060 -0.074
0.317 0.062 -0.074
0.316 0.065 -0.074
0.315 0.068 -0.073
0.314 0.071 -0.073
0.314 0.073 -0.073
0.313 0.076 -0.073
0.326 0.083 -0.076
0.321 0.084 -0.075
0.318 0.087 -0.074
0.326 0.092 -0.076
0.340 0.099 -0.080
0.332 0.100 -0.078
0.321 0.100 -0.075
0.315 0.101 -0.074
0.348 0.115 -0.082
0.341 0.123 -0.081
0.334 0.124 -0.079
0.329 0.125 -0.078
0.369 0.166 -0.089
0.375 0.173 -0.090
0.348 0.168 -0.084
0.351 0.173 -0.085
0.353 0.182 -0.086
0.358 0.188 -0.087
0.370 0.199 -0.090
0.366 0.200 -0.090
0.386 0.216 -0.095
0.386 0.220 -0.095
0.378 0.220 -0.093
0.367 0.218 -0.091
0.367 0.222 -0.091
0.364 0.224 -0.090
0.374 0.239 -0.093
0.383 0.249 -0.096
0.382 0.253 -0.096
0.388 0.262 -0.098
0.391 0.269 -0.099
0.371 0.264 -0.094
0.304 -0.421 -0.088
0.310 -0.424 -0.089
0.303 -0.409 -0.087
0.305 -0.408 -0.088
0.307 -0.405 -0.088
0.308 -0.400 -0.087
0.310 -0.397 -0.088
0.310 -0.392 -0.087
0.309 -0.385 -0.087
0.311 -0.383 -0.087
0.313 -0.379 -0.087
0.312 -0.373 -0.086
0.308 -0.362 -0.085
0.309 -0.358 -0.085
0.311 -0.356 -0.085
0.311 -0.350 -0.084
0.309 -0.343 -0.083
0.309 -0.337 -0.083
0.307 -0.330 -0.082
0.305 -0.323 -0.081
0.308 -0.322 -0.082
0.307 -0.315 -0.081
0.306 -0.309 -0.080
0.304 -0.303 -0.080
0.303 -0.297 -0.079
0.303 -0.293 -0.078
0.303 -0.288 -0.078
0.303 -0.284 -0.078
0.299 -0.276 -0.077
0.300 -0.272 -0.076
0.301 -0.269 -0.076
0.300 -0.263 -0.076
0.300 -0.260 -0.076
0.299 -0.254 -0.075
0.296 -0.248 -0.074
0.295 -0.243 -0.073
0.295 -0.240 -0.073
0.279 -0.223 -0.069
0.272 -0.214 -0.067
0.228 -0.167 -0.055
0.228 -0.165 -0.055
0.231 -0.164 -0.056
0.229 -0.160 -0.055
0.228 -0.156 -0.055
0.231 -0.156 -0.055
0.233 -0.154 -0.056
0.221 -0.144 -0.053
0.220 -0.141 -0.052
0.220 -0.138 -0.052
0.213 -0.131 -0.050
0.210 -0.127 -0.049
0.212 -0.126 -0.050
0.219 -0.128 -0.051
0.221 -0.127 -0.052
0.208 -0.117 -0.049
0.208 -0.115 -0.049
0.210 -0.113 -0.049
0.212 -0.112 -0.049
0.242 -0.126 -0.056
0.246 -0.125 -0.057
0.246 -0.123 -0.057
0.245 -0.119 -0.056
0.245 -0.117 -0.056
0.307 -0.143 -0.070
0.316 -0.144 -0.072
0.312 -0.139 -0.071
0.313 -0.136 -0.072
0.326 -0.139 -0.074
0.328 -0.136 -0.075
0.283 -0.115 -0.064
0.296 -0.117 -0.067
0.284 -0.110 -0.064
0.360 -0.125 -0.081
0.367 -0.124 -0.083
0.373 -0.122 -0.084
0.377 -0.120 -0.085
0.382 -0.118 -0.086
0.392 -0.117 -0.088
0.397 -0.115 -0.089
0.402 -0.113 -0.090
0.409 -0.111 -0.091
0.417 -0.109 -0.093
0.423 -0.107 -0.094
0.437 -0.106 -0.097
0.448 -0.104 -0.100
0.438 -0.098 -0.097
0.418 -0.090 -0.093
0.405 -0.083 -0.090
0.393 -0.077 -0.087
0.296 -0.052 -0.066
0.292 -0.049 -0.065
0.293 -0.047 -0.065
0.286 -0.043 -0.063
0.297 -0.042 -0.066
0.286 -0.035 -0.063
0.291 -0.033 -0.064
0.304 -0.032 -0.067
0.324 -0.031 -0.072
0.326 -0.028 -0.072
0.332 -0.026 -0.073
0.326 -0.022 -0.072
0.316 -0.019 -0.070
0.312 -0.016 -0.069
0.313 -0.013 -0.069
0.313 -0.010 -0.069
0.311 -0.007 -0.069
0.303 -0.004 -0.067
0.305 -0.001 -0.067
0.306 0.001 -0.068
0.308 0.004 -0.068
0.310 0.007 -0.069
0.310 0.010 -0.069
0.312 0.013 -0.069
0.314 0.016 -0.069
0.316 0.019 -0.070
0.316 0.021 -0.070
0.318 0.024 -0.070
0.319 0.027 -0.071
0.319 0.030 -0.071
0.318 0.033 -0.070
0.318 0.036 -0.070
0.320 0.039 -0.071
0.319 0.042 -0.071
0.319 0.045 -0.071
0.319 0.048 -0.071
0.319 0.051 -0.071
0.319 0.054 -0.071
0.319 0.057 -0.071
0.319 0.060 -0.071
0.318 0.063 -0.071
0.318 0.065 -0.071
0.316 0.068 -0.071
0.315 0.071 -0.070
0.314 0.074 -0.070
0.313 0.076 -0.070
0.313 0.079 -0.070
0.324 0.085 -0.073
0.315 0.086 -0.071
0.314 0.088 -0.071
0.328 0.096 -0.074
0.337 0.101 -0.076
0.325 0.101 -0.073
0.312 0.100 -0.070
0.373 0.127 -0.084
0.366 0.128 -0.083
0.338 0.121 -0.077
0.323 0.119 -0.073
0.324 0.123 -0.074
0.321 0.125 -0.073
0.358 0.161 -0.082
0.359 0.166 -0.083
0.379 0.199 -0.089
0.363 0.194 -0.085
0.365 0.199 -0.086
0.365 0.204 -0.086
0.367 0.209 -0.087
0.368 0.214 -0.087
0.369 0.218 -0.087
0.373 0.225 -0.089
0.374 0.235 -0.090
0.377 0.240 -0.090
0.386 0.261 -0.093
0.379 0.260 -0.092
0.374 0.262 -0.091
0.374 0.266 -0.091
0.377 0.273 -0.092
0.365 0.274 -0.090
0.378 0.294 -0.094
0.307 -0.425 -0.085
0.305 -0.418 -0.084
0.303 -0.409 -0.083
0.304 -0.406 -0.084
0.307 -0.404 -0.084
0.307 -0.399 -0.084
0.308 -0.395 -0.084
0.310 -0.391 -0.084
0.306 -0.382 -0.082
0.309 -0.379 -0.083
0.311 -0.376 -0.083
0.309 -0.369 -0.082
0.308 -0.363 -0.081
0.309 -0.358 -0.081
0.309 -0.352 -0.081
0.307 -0.345 -0.080
0.307 -0.340 -0.079
0.306 -0.334 -0.079
0.307 -0.330 -0.079
0.308 -0.326 -0.078
0.307 -0.319 -0.078
0.305 -0.313 -0.077
0.304 -0.307 -0.076
0.303 -0.302 -0.076
0.303 -0.297 -0.075
0.301 -0.290 -0.075
0.302 -0.287 -0.075
0.302 -0.282 -0.074
0.301 -0.277 -0.074
0.300 -0.272 -0.073
0.299 -0.267 -0.073
0.301 -0.264 -0.073
0.296 -0.256 -0.071
0.296 -0.252 -0.071
0.300 -0.251 -0.072
0.299 -0.246 -0.071
0.302 -0.244 -0.072
0.294 -0.234 -0.070
0.233 -0.171 -0.054
0.228 -0.165 -0.053
0.226 -0.161 -0.052
0.238 -0.166 -0.055
0.243 -0.166 -0.056
0.243 -0.164 -0.056
0.244 -0.161 -0.056
0.232 -0.151 -0.053
0.222 -0.142 -0.050
0.223 -0.140 -0.051
0.210 -0.129 -0.047
0.207 -0.125 -0.047
0.206 -0.123 -0.047
0.218 -0.127 -0.049
0.223 -0.127 -0.050
0.208 -0.117 -0.047
0.207 -0.114 -0.046
0.209 -0.113 -0.047
0.211 -0.112 -0.047
0.238 -0.123 -0.053
0.246 -0.125 -0.055
0.248 -0.124 -0.055
0.244 -0.119 -0.054
0.243 -0.116 -0.054
0.314 -0.143 -0.069
0.318 -0.142 -0.070
0.322 -0.140 -0.071
0.334 -0.142 -0.073
0.282 -0.115 -0.062
0.283 -0.112 -0.062
0.292 -0.113 -0.063
0.361 -0.125 -0.078
0.363 -0.122 -0.078
0.368 -0.120 -0.079
0.375 -0.119 -0.081
0.380 -0.117 -0.082
0.387 -0.116 -0.083
0.394 -0.114 -0.085
0.399 -0.112 -0.086
0.407 -0.110 -0.087
0.415 -0.108 -0.089
0.421 -0.106 -0.090
0.437 -0.106 -0.093
0.446 -0.104 -0.095
0.417 -0.093 -0.089
0.413 -0.089 -0.088
0.407 -0.084 -0.087
0.303 -0.054 -0.064
0.296 -0.050 -0.063
0.289 -0.046 -0.061
0.293 -0.044 -0.062
0.302 -0.043 -0.064
0.299 -0.039 -0.063
0.298 -0.037 -0.063
0.295 -0.033 -0.063
0.306 -0.032 -0.065
0.311 -0.030 -0.066
0.316 -0.027 -0.067
0.322 -0.025 -0.068
0.328 -0.022 -0.070
0.320 -0.019 -0.068
0.316 -0.016 -0.067
0.312 -0.013 -0.066
0.311 -0.010 -0.066
0.303 -0.007 -0.064
0.303 -0.004 -0.064
0.305 -0.001 -0.065
0.307 0.001 -0.065
0.309 0.004 -0.065
0.311 0.007 -0.066
0.311 0.010 -0.066
0.314 0.013 -0.066
0.315 0.016 -0.067
0.317 0.019 -0.067
0.318 0.022 -0.067
0.317 0.024 -0.067
0.320 0.027 -0.068
0.321 0.031 -0.068
0.320 0.033 -0.068
0.320 0.036 -0.068
0.321 0.039 -0.068
0.321 0.042 -0.068
0.323 0.045 -0.069
0.321 0.048 -0.068
0.320 0.051 -0.068
0.320 0.054 -0.068
0.320 0.057 -0.068
0.319 0.060 -0.068
0.319 0.063 -0.068
0.318 0.066 -0.068
0.318 0.068 -0.068
0.316 0.071 -0.068
0.315 0.074 -0.067
0.314 0.076 -0.067
0.313 0.079 -0.067
0.320 0.084 -0.069
0.317 0.086 -0.068
0.314 0.088 -0.068
0.322 0.094 -0.069
0.335 0.101 -0.072
0.334 0.104 -0.072
0.316 0.101 -0.068
0.315 0.104 -0.068
0.366 0.128 -0.079
0.342 0.123 -0.074
0.325 0.120 -0.071
0.335 0.127 -0.073
0.344 0.134 -0.075
0.354 0.159 -0.078
0.354 0.163 -0.078
0.380 0.187 -0.085
0.395 0.203 -0.088
0.386 0.202 -0.086
0.374 0.200 -0.084
0.361 0.197 -0.081
0.358 0.200 -0.081
0.358 0.204 -0.081
0.359 0.208 -0.081
0.363 0.215 -0.083
0.382 0.239 -0.088
0.372 0.242 -0.086
0.365 0.246 -0.085
0.371 0.255 -0.086
0.375 0.262 -0.088
0.386 0.299 -0.092
0.386 0.305 -0.092
0.388 0.323 -0.094
0.297 -0.411 -0.079
0.303 -0.415 -0.080
0.302 -0.408 -0.080
0.305 -0.407 -0.080
0.302 -0.397 -0.079
0.303 -0.393 -0.079
0.306 -0.391 -0.079
0.306 -0.386 -0.079
0.308 -0.383 -0.079
0.308 -0.377 -0.079
0.309 -0.374 -0.079
0.309 -0.369 -0.078
0.310 -0.364 -0.078
0.309 -0.357 -0.077
0.307 -0.350 -0.076
0.306 -0.344 -0.076
0.305 -0.338 -0.075
0.306 -0.334 -0.075
0.307 -0.330 -0.075
0.308 -0.325 -0.075
0.306 -0.319 -0.074
0.303 -0.311 -0.073
0.304 -0.307 -0.073
0.305 -0.303 -0.073
0.301 -0.294 -0.072
0.300 -0.289 -0.071
0.300 -0.285 -0.071
0.302 -0.282 -0.071
0.302 -0.278 -0.071
0.302 -0.274 -0.070
0.302 -0.269 -0.070
0.302 -0.265 -0.070
0.304 -0.262 -0.070
0.303 -0.258 -0.070
0.302 -0.252 -0.069
0.306 -0.251 -0.070
0.306 -0.247 -0.069
0.308 -0.245 -0.070
0.314 -0.246 -0.071
0.310 -0.239 -0.070
0.236 -0.173 -0.052
0.229 -0.165 -0.051
0.230 -0.163 -0.051
0.235 -0.163 -0.052
0.242 -0.166 -0.053
0.247 -0.166 -0.054
0.244 -0.161 -0.053
0.236 -0.153 -0.051
0.223 -0.142 -0.049
0.224 -0.140 -0.049
0.214 -0.132 -0.046
0.206 -0.125 -0.045
0.206 -0.122 -0.044
0.209 -0.122 -0.045
0.221 -0.126 -0.047
0.210 -0.118 -0.045
0.207 -0.114 -0.044
0.208 -0.112 -0.044
0.210 -0.111 -0.045
0.233 -0.121 -0.050
0.245 -0.124 -0.052
0.248 -0.123 -0.052
0.243 -0.118 -0.051
0.243 -0.115 -0.051
0.257 -0.120 -0.054
0.314 -0.143 -0.066
0.319 -0.142 -0.067
0.326 -0.142 -0.068
0.329 -0.140 -0.069
0.289 -0.117 -0.060
0.293 -0.116 -0.061
0.294 -0.113 -0.061
0.360 -0.125 -0.074
0.363 -0.122 -0.075
0.369 -0.121 -0.076
0.374 -0.119 -0.077
0.383 -0.118 -0.079
0.386 -0.115 -0.079
0.389 -0.113 -0.080
0.396 -0.111 -0.081
0.404 -0.109 -0.083
0.414 -0.108 -0.085
0.424 -0.107 -0.087
0.432 -0.105 -0.088
0.440 -0.102 -0.090
0.423 -0.095 -0.086
0.407 -0.087 -0.083
0.400 -0.082 -0.081
0.386 -0.075 -0.079
0.296 -0.052 -0.060
0.294 -0.049 -0.060
0.292 -0.046 -0.059
0.292 -0.044 -0.059
0.297 -0.042 -0.060
0.301 -0.040 -0.061
0.301 -0.037 -0.061
0.306 -0.035 -0.062
0.318 -0.033 -0.065
0.325 -0.031 -0.066
0.310 -0.024 -0.063
0.321 -0.022 -0.065
0.320 -0.019 -0.065
0.320 -0.016 -0.065
0.319 -0.013 -0.065
0.308 -0.010 -0.062
0.302 -0.007 -0.061
0.304 -0.004 -0.061
0.306 -0.001 -0.062
0.307 0.001 -0.062
0.311 0.004 -0.063
0.312 0.007 -0.063
0.313 0.010 -0.063
0.314 0.013 -0.064
0.317 0.016 -0.064
0.318 0.019 -0.065
0.319 0.022 -0.065
0.317 0.024 -0.064
0.317 0.027 -0.064
0.321 0.031 -0.065
0.321 0.033 -0.065
0.322 0.036 -0.065
0.321 0.039 -0.065
0.322 0.042 -0.066
0.323 0.046 -0.066
0.323 0.048 -0.066
0.322 0.051 -0.066
0.322 0.054 -0.066
0.321 0.057 -0.066
0.320 0.060 -0.065
0.319 0.063 -0.065
0.319 0.066 -0.065
0.318 0.068 -0.065
0.318 0.071 -0.065
0.317 0.074 -0.065
0.315 0.077 -0.065
0.315 0.080 -0.065
0.314 0.082 -0.065
0.325 0.088 -0.067
0.319 0.090 -0.066
0.321 0.093 -0.066
0.334 0.100 -0.069
0.336 0.104 -0.069
0.321 0.103 -0.066
0.308 0.102 -0.064
0.322 0.109 -0.067
0.337 0.121 -0.070
0.348 0.132 -0.073
0.337 0.131 -0.070
0.352 0.162 -0.075
0.355 0.175 -0.076
0.388 0.203 -0.083
0.373 0.200 -0.080
0.362 0.197 -0.078
0.356 0.198 -0.077
0.360 0.205 -0.078
0.358 0.207 -0.078
0.358 0.211 -0.078
0.365 0.220 -0.079
0.376 0.231 -0.082
0.389 0.243 -0.085
0.368 0.239 -0.081
0.367 0.242 -0.081
0.383 0.277 -0.086
0.383 0.297 -0.087
0.401 0.333 -0.093
0.237 -0.328 -0.060
0.297 -0.386 -0.074
0.301 -0.385 -0.074
0.303 -0.383 -0.075
0.304 -0.378 -0.074
0.307 -0.376 -0.075
0.306 -0.370 -0.074
0.309 -0.368 -0.075
0.310 -0.363 -0.074
0.308 -0.356 -0.074
0.307 -0.350 -0.073
0.307 -0.344 -0.073
0.307 -0.339 -0.072
0.306 -0.333 -0.072
0.305 -0.328 -0.071
0.305 -0.322 -0.071
0.305 -0.318 -0.071
0.304 -0.311 -0.070
0.304 -0.307 -0.070
0.306 -0.303 -0.070
0.305 -0.298 -0.069
0.301 -0.289 -0.068
0.302 -0.286 -0.068
0.304 -0.283 -0.068
0.305 -0.280 -0.068
0.305 -0.276 -0.068
0.306 -0.272 -0.068
0.304 -0.267 -0.067
0.308 -0.266 -0.068
0.307 -0.260 -0.067
0.307 -0.256 -0.067
0.306 -0.252 -0.067
0.307 -0.248 -0.066
0.308 -0.245 -0.067
0.321 -0.251 -0.069
0.322 -0.248 -0.069
0.236 -0.170 -0.050
0.227 -0.161 -0.048
0.232 -0.161 -0.049
0.241 -0.165 -0.051
0.241 -0.162 -0.050
0.245 -0.162 -0.051
0.235 -0.153 -0.049
0.224 -0.143 -0.046
0.224 -0.140 -0.046
0.208 -0.128 -0.043
0.207 -0.125 -0.043
0.207 -0.123 -0.043
0.207 -0.120 -0.042
0.214 -0.122 -0.044
0.215 -0.120 -0.044
0.207 -0.114 -0.042
0.206 -0.111 -0.042
0.208 -0.110 -0.042
0.223 -0.116 -0.045
0.243 -0.123 -0.049
0.247 -0.123 -0.050
0.248 -0.121 -0.050
0.241 -0.114 -0.048
0.251 -0.117 -0.050
0.315 -0.144 -0.063
0.315 -0.140 -0.063
0.318 -0.138 -0.064
0.316 -0.134 -0.063
0.294 -0.119 -0.059
0.301 -0.119 -0.060
0.290 -0.112 -0.057
0.264 -0.099 -0.052
0.248 -0.091 -0.049
0.359 -0.124 -0.071
0.361 -0.122 -0.071
0.367 -0.120 -0.072
0.380 -0.121 -0.075
0.384 -0.118 -0.075
0.386 -0.115 -0.076
0.390 -0.113 -0.076
0.396 -0.111 -0.078
0.404 -0.109 -0.079
0.415 -0.108 -0.081
0.422 -0.106 -0.082
0.431 -0.104 -0.084
0.433 -0.101 -0.084
0.430 -0.096 -0.084
0.413 -0.088 -0.080
0.399 -0.082 -0.078
0.387 -0.076 -0.075
0.371 -0.069 -0.072
0.294 -0.052 -0.057
0.292 -0.049 -0.057
0.290 -0.046 -0.056
0.294 -0.044 -0.057
0.298 -0.042 -0.058
0.296 -0.039 -0.057
0.300 -0.037 -0.058
0.306 -0.035 -0.059
0.326 -0.034 -0.063
0.325 -0.031 -0.063
0.322 -0.028 -0.062
0.315 -0.024 -0.061
0.312 -0.021 -0.060
0.318 -0.019 -0.061
0.325 -0.016 -0.063
0.330 -0.013 -0.064
0.302 -0.010 -0.058
0.303 -0.007 -0.058
0.305 -0.004 -0.059
0.307 -0.001 -0.059
0.309 0.001 -0.060
0.311 0.004 -0.060
0.312 0.007 -0.060
0.314 0.010 -0.061
0.316 0.013 -0.061
0.319 0.016 -0.062
0.319 0.019 -0.062
0.321 0.022 -0.062
0.327 0.025 -0.063
0.327 0.028 -0.063
0.319 0.030 -0.062
0.322 0.034 -0.062
0.322 0.036 -0.062
0.322 0.039 -0.062
0.329 0.043 -0.064
0.323 0.045 -0.063
0.323 0.048 -0.063
0.322 0.051 -0.063
0.323 0.054 -0.063
0.322 0.057 -0.063
0.321 0.060 -0.063
0.320 0.063 -0.062
0.320 0.066 -0.062
0.319 0.068 -0.062
0.318 0.071 -0.062
0.317 0.074 -0.062
0.316 0.077 -0.062
0.315 0.080 -0.062
0.314 0.082 -0.062
0.332 0.090 -0.065
0.324 0.091 -0.064
0.322 0.094 -0.063
0.344 0.103 -0.068
0.327 0.101 -0.065
0.319 0.102 -0.063
0.307 0.101 -0.061
0.317 0.107 -0.063
0.317 0.111 -0.063
0.344 0.123 -0.068
0.352 0.129 -0.070
0.335 0.127 -0.067
0.350 0.161 -0.071
0.357 0.168 -0.072
0.355 0.174 -0.072
0.373 0.195 -0.076
0.371 0.198 -0.076
0.361 0.197 -0.074
0.359 0.200 -0.074
0.364 0.207 -0.075
0.358 0.207 -0.074
0.353 0.208 -0.073
0.358 0.215 -0.074
0.379 0.232 -0.079
0.392 0.245 -0.082
0.382 0.243 -0.080
0.377 0.244 -0.079
0.381 0.252 -0.080
0.371 0.254 -0.079
0.401 0.332 -0.088
0.242 -0.334 -0.058
0.257 -0.351 -0.062
0.259 -0.350 -0.062
0.282 -0.361 -0.066
0.284 -0.358 -0.067
0.297 -0.364 -0.069
0.302 -0.365 -0.070
0.301 -0.358 -0.069
0.304 -0.356 -0.070
0.306 -0.353 -0.070
0.304 -0.346 -0.069
0.306 -0.344 -0.069
0.307 -0.339 -0.069
0.303 -0.330 -0.068
0.304 -0.326 -0.068
0.306 -0.323 -0.068
0.306 -0.318 -0.067
0.306 -0.314 -0.067
0.306 -0.308 -0.067
0.307 -0.304 -0.067
0.308 -0.301 -0.067
0.307 -0.295 -0.066
0.307 -0.291 -0.066
0.309 -0.288 -0.066
0.309 -0.284 -0.066
0.309 -0.279 -0.065
0.311 -0.276 -0.066
0.311 -0.272 -0.065
0.313 -0.269 -0.065
0.311 -0.264 -0.065
0.310 -0.259 -0.064
0.309 -0.254 -0.064
0.308 -0.249 -0.064
0.309 -0.246 -0.064
0.315 -0.246 -0.065
0.324 -0.249 -0.066
0.316 -0.239 -0.064
0.242 -0.174 -0.049
0.232 -0.164 -0.047
0.222 -0.154 -0.044
0.235 -0.161 -0.047
0.239 -0.161 -0.048
0.233 -0.154 -0.046
0.231 -0.150 -0.046
0.223 -0.142 -0.044
0.215 -0.135 -0.043
0.204 -0.126 -0.040
0.205 -0.124 -0.040
0.205 -0.122 -0.040
0.206 -0.120 -0.040
0.209 -0.119 -0.041
0.216 -0.121 -0.042
0.206 -0.113 -0.040
0.208 -0.112 -0.040
0.206 -0.109 -0.040
0.212 -0.109 -0.041
0.242 -0.122 -0.047
0.246 -0.122 -0.047
0.248 -0.120 -0.048
0.242 -0.115 -0.046
0.247 -0.115 -0.047
0.313 -0.143 -0.060
0.314 -0.140 -0.060
0.312 -0.135 -0.059
0.269 -0.101 -0.051
0.359 -0.124 -0.067
0.360 -0.121 -0.068
0.363 -0.119 -0.068
0.374 -0.119 -0.070
0.381 -0.117 -0.071
0.385 -0.115 -0.072
0.393 -0.113 -0.073
0.398 -0.111 -0.074
0.407 -0.110 -0.076
0.414 -0.108 -0.077
0.420 -0.105 -0.078
0.429 -0.104 -0.080
0.434 -0.101 -0.081
0.432 -0.096 -0.080
0.422 -0.090 -0.078
0.295 -0.052 -0.055
0.292 -0.049 -0.054
0.293 -0.047 -0.054
0.297 -0.044 -0.055
0.299 -0.042 -0.055
0.296 -0.039 -0.055
0.293 -0.036 -0.054
0.299 -0.034 -0.055
0.313 -0.033 -0.058
0.323 -0.031 -0.059
0.325 -0.028 -0.060
0.322 -0.025 -0.059
0.314 -0.021 -0.058
0.315 -0.019 -0.058
0.329 -0.016 -0.061
0.335 -0.014 -0.062
0.302 -0.010 -0.056
0.304 -0.007 -0.056
0.306 -0.004 -0.056
0.308 -0.001 -0.057
0.310 0.001 -0.057
0.311 0.004 -0.057
0.312 0.007 -0.057
0.314 0.010 -0.058
0.318 0.013 -0.059
0.318 0.016 -0.059
0.321 0.019 -0.059
0.322 0.022 -0.059
0.319 0.024 -0.059
0.319 0.027 -0.059
0.320 0.030 -0.059
0.320 0.033 -0.059
0.322 0.036 -0.059
0.321 0.039 -0.059
0.322 0.042 -0.060
0.323 0.045 -0.060
0.340 0.051 -0.063
0.321 0.051 -0.059
0.323 0.054 -0.060
0.323 0.057 -0.060
0.322 0.060 -0.060
0.322 0.063 -0.060
0.321 0.066 -0.060
0.320 0.069 -0.059
0.318 0.071 -0.059
0.317 0.074 -0.059
0.316 0.077 -0.059
0.316 0.080 -0.059
0.315 0.082 -0.059
0.315 0.085 -0.059
0.326 0.091 -0.061
0.324 0.094 -0.061
0.326 0.098 -0.061
0.329 0.102 -0.062
0.325 0.104 -0.061
0.307 0.101 -0.058
0.306 0.104 -0.058
0.323 0.112 -0.061
0.334 0.120 -0.063
0.318 0.123 -0.060
0.346 0.159 -0.067
0.347 0.163 -0.067
0.358 0.175 -0.069
0.366 0.184 -0.071
0.367 0.192 -0.071
0.357 0.191 -0.070
0.346 0.189 -0.068
0.356 0.198 -0.070
0.357 0.203 -0.070
0.352 0.204 -0.069
0.352 0.208 -0.070
0.359 0.216 -0.071
0.382 0.234 -0.076
0.391 0.244 -0.078
0.383 0.243 -0.076
0.382 0.247 -0.076
0.387 0.256 -0.078
0.377 0.253 -0.076
0.361 0.247 -0.073
0.362 0.257 -0.074
0.372 0.268 -0.076
0.375 0.275 -0.077
0.372 0.278 -0.077
0.348 0.264 -0.072
0.357 0.276 -0.074
0.367 0.348 -0.080
0.279 -0.386 -0.064
0.254 -0.346 -0.058
0.256 -0.345 -0.058
0.256 -0.341 -0.058
0.261 -0.343 -0.059
0.268 -0.347 -0.060
0.275 -0.351 -0.061
0.277 -0.348 -0.061
0.276 -0.342 -0.061
0.270 -0.331 -0.059
0.278 -0.336 -0.061
0.289 -0.344 -0.063
0.289 -0.333 -0.062
0.296 -0.337 -0.064
0.297 -0.333 -0.064
0.298 -0.329 -0.064
0.300 -0.326 -0.064
0.303 -0.325 -0.064
0.305 -0.322 -0.064
0.307 -0.318 -0.064
0.308 -0.315 -0.064
0.307 -0.309 -0.064
0.309 -0.306 -0.064
0.309 -0.301 -0.063
0.309 -0.297 -0.063
0.310 -0.294 -0.063
0.312 -0.291 -0.063
0.312 -0.286 -0.063
0.312 -0.282 -0.063
0.313 -0.278 -0.063
0.315 -0.276 -0.063
0.315 -0.271 -0.063
0.315 -0.267 -0.062
0.314 -0.262 -0.062
0.315 -0.258 -0.062
0.314 -0.254 -0.062
0.311 -0.247 -0.061
0.313 -0.244 -0.061
0.323 -0.248 -0.063
0.320 -0.242 -0.062
0.217 -0.151 -0.041
0.218 -0.149 -0.041
0.225 -0.151 -0.043
0.209 -0.138 -0.039
0.202 -0.131 -0.038
0.203 -0.129 -0.038
0.204 -0.128 -0.038
0.205 -0.126 -0.038
0.205 -0.124 -0.038
0.205 -0.121 -0.038
0.202 -0.118 -0.038
0.206 -0.118 -0.038
0.215 -0.120 -0.040
0.208 -0.114 -0.038
0.204 -0.110 -0.038
0.205 -0.108 -0.038
0.207 -0.107 -0.038
0.235 -0.119 -0.043
0.245 -0.122 -0.045
0.246 -0.119 -0.045
0.247 -0.117 -0.045
0.242 -0.113 -0.044
0.239 -0.099 -0.043
0.229 -0.093 -0.041
0.225 -0.089 -0.040
0.216 -0.083 -0.039
0.271 -0.099 -0.048
0.276 -0.098 -0.049
0.358 -0.124 -0.064
0.361 -0.121 -0.064
0.368 -0.120 -0.066
0.373 -0.118 -0.066
0.377 -0.116 -0.067
0.381 -0.114 -0.068
0.388 -0.112 -0.069
0.399 -0.111 -0.071
0.409 -0.110 -0.072
0.414 -0.108 -0.073
0.422 -0.106 -0.075
0.428 -0.103 -0.076
0.433 -0.101 -0.076
0.435 -0.097 -0.077
0.426 -0.091 -0.075
0.295 -0.052 -0.052
0.293 -0.049 -0.052
0.296 -0.047 -0.052
0.295 -0.044 -0.052
0.295 -0.041 -0.052
0.287 -0.038 -0.050
0.291 -0.036 -0.051
0.304 -0.034 -0.053
0.313 -0.033 -0.055
0.323 -0.031 -0.057
0.332 -0.029 -0.058
0.321 -0.025 -0.056
0.314 -0.021 -0.055
0.316 -0.019 -0.055
0.308 -0.013 -0.054
0.303 -0.010 -0.053
0.305 -0.007 -0.053
0.307 -0.004 -0.054
0.309 -0.001 -0.054
0.311 0.001 -0.054
0.312 0.004 -0.055
0.314 0.007 -0.055
0.316 0.010 -0.055
0.318 0.013 -0.056
0.320 0.016 -0.056
0.321 0.019 -0.056
0.319 0.022 -0.056
0.320 0.025 -0.056
0.319 0.027 -0.056
0.320 0.030 -0.056
0.320 0.033 -0.056
0.320 0.036 -0.056
0.321 0.039 -0.056
0.322 0.042 -0.056
0.324 0.045 -0.057
0.321 0.048 -0.056
0.323 0.054 -0.057
0.323 0.057 -0.057
0.323 0.060 -0.057
0.322 0.063 -0.057
0.322 0.066 -0.057
0.321 0.069 -0.057
0.320 0.071 -0.057
0.318 0.074 -0.056
0.317 0.077 -0.056
0.316 0.080 -0.056
0.315 0.082 -0.056
0.314 0.085 -0.056
0.328 0.092 -0.058
0.323 0.094 -0.058
0.325 0.097 -0.058
0.330 0.102 -0.059
0.335 0.107 -0.060
0.341 0.112 -0.061
0.332 0.125 -0.060
0.324 0.126 -0.058
0.349 0.153 -0.064
0.339 0.156 -0.062
0.334 0.157 -0.061
0.325 0.159 -0.060
0.377 0.197 -0.070
0.367 0.196 -0.068
0.360 0.196 -0.067
0.353 0.196 -0.066
0.358 0.203 -0.067
0.365 0.219 -0.069
0.368 0.225 -0.069
0.388 0.242 -0.073
0.386 0.245 -0.073
0.378 0.245 -0.072
0.367 0.246 -0.070
0.372 0.273 -0.072
0.365 0.287 -0.072
0.370 0.317 -0.074
0.380 0.331 -0.077
0.362 0.336 -0.074
0.248 -0.342 -0.054
0.255 -0.348 -0.055
0.254 -0.343 -0.055
0.254 -0.337 -0.054
0.257 -0.337 -0.055
0.266 -0.345 -0.057
0.274 -0.349 -0.058
0.275 -0.346 -0.058
0.269 -0.333 -0.056
0.267 -0.327 -0.056
0.272 -0.328 -0.056
0.282 -0.335 -0.058
0.279 -0.326 -0.057
0.278 -0.320 -0.057
0.287 -0.307 -0.057
0.293 -0.309 -0.058
0.298 -0.309 -0.059
0.300 -0.306 -0.059
0.309 -0.311 -0.061
0.309 -0.306 -0.060
0.308 -0.301 -0.060
0.309 -0.297 -0.060
0.313 -0.296 -0.060
0.315 -0.293 -0.060
0.315 -0.288 -0.060
0.313 -0.282 -0.060
0.313 -0.278 -0.059
0.316 -0.276 -0.060
0.316 -0.272 -0.060
0.316 -0.268 -0.059
0.317 -0.264 -0.059
0.319 -0.261 -0.059
0.318 -0.257 -0.059
0.307 -0.244 -0.057
0.311 -0.243 -0.057
0.320 -0.246 -0.059
0.326 -0.247 -0.060
0.227 -0.160 -0.041
0.216 -0.150 -0.039
0.213 -0.146 -0.038
0.218 -0.146 -0.039
0.215 -0.142 -0.038
0.202 -0.131 -0.036
0.203 -0.129 -0.036
0.205 -0.128 -0.036
0.206 -0.126 -0.036
0.218 -0.131 -0.039
0.220 -0.130 -0.039
0.222 -0.129 -0.039
0.221 -0.126 -0.039
0.226 -0.126 -0.040
0.225 -0.123 -0.039
0.228 -0.123 -0.040
0.238 -0.125 -0.041
0.239 -0.123 -0.042
0.231 -0.117 -0.040
0.231 -0.114 -0.040
0.233 -0.113 -0.040
0.241 -0.115 -0.042
0.226 -0.105 -0.039
0.224 -0.102 -0.038
0.219 -0.097 -0.038
0.225 -0.098 -0.039
0.226 -0.096 -0.039
0.227 -0.094 -0.039
0.222 -0.090 -0.038
0.216 -0.085 -0.037
0.209 -0.080 -0.036
0.211 -0.079 -0.036
0.308 -0.110 -0.052
0.320 -0.111 -0.054
0.359 -0.121 -0.061
0.366 -0.120 -0.062
0.371 -0.117 -0.063
0.376 -0.115 -0.063
0.381 -0.113 -0.064
0.387 -0.112 -0.065
0.395 -0.110 -0.066
0.405 -0.109 -0.068
0.416 -0.108 -0.070
0.423 -0.106 -0.071
0.428 -0.103 -0.072
0.433 -0.101 -0.072
0.432 -0.096 -0.072
0.422 -0.090 -0.070
0.387 -0.076 -0.065
0.377 -0.070 -0.063
0.290 -0.051 -0.048
0.292 -0.049 -0.049
0.295 -0.047 -0.049
0.296 -0.044 -0.049
0.290 -0.041 -0.048
0.285 -0.037 -0.047
0.289 -0.035 -0.048
0.304 -0.034 -0.050
0.322 -0.034 -0.053
0.330 -0.031 -0.055
0.328 -0.028 -0.054
0.314 -0.024 -0.052
0.306 -0.021 -0.051
0.310 -0.018 -0.051
0.318 -0.016 -0.053
0.305 -0.012 -0.050
0.304 -0.010 -0.050
0.305 -0.007 -0.051
0.307 -0.004 -0.051
0.310 -0.001 -0.051
0.311 0.001 -0.052
0.313 0.004 -0.052
0.316 0.007 -0.052
0.318 0.010 -0.053
0.319 0.013 -0.053
0.320 0.016 -0.053
0.319 0.019 -0.053
0.319 0.022 -0.053
0.318 0.024 -0.053
0.319 0.027 -0.053
0.318 0.030 -0.053
0.319 0.033 -0.053
0.319 0.036 -0.053
0.320 0.039 -0.053
0.319 0.042 -0.053
0.322 0.045 -0.054
0.324 0.048 -0.054
0.322 0.051 -0.054
0.335 0.056 -0.056
0.324 0.057 -0.054
0.324 0.060 -0.054
0.323 0.063 -0.054
0.323 0.066 -0.054
0.321 0.069 -0.054
0.320 0.072 -0.054
0.319 0.074 -0.054
0.318 0.077 -0.053
0.316 0.080 -0.053
0.315 0.082 -0.053
0.314 0.085 -0.053
0.315 0.088 -0.053
0.322 0.093 -0.054
0.329 0.099 -0.056
0.333 0.103 -0.056
0.343 0.109 -0.058
0.352 0.116 -0.060
0.308 0.104 -0.052
0.316 0.110 -0.054
0.327 0.117 -0.056
0.333 0.122 -0.057
0.338 0.131 -0.058
0.350 0.160 -0.061
0.333 0.156 -0.058
0.338 0.166 -0.059
0.363 0.205 -0.064
0.364 0.240 -0.066
0.373 0.250 -0.068
0.359 0.317 -0.069
0.246 -0.340 -0.050
0.255 -0.347 -0.052
0.257 -0.346 -0.052
0.257 -0.342 -0.052
0.260 -0.340 -0.052
0.268 -0.347 -0.054
0.278 -0.354 -0.055
0.273 -0.343 -0.054
0.273 -0.338 -0.054
0.275 -0.336 -0.054
0.277 -0.334 -0.054
0.273 -0.324 -0.053
0.275 -0.322 -0.053
0.268 -0.308 -0.052
0.281 -0.300 -0.053
0.286 -0.301 -0.054
0.287 -0.298 -0.054
0.292 -0.298 -0.054
0.302 -0.303 -0.056
0.308 -0.304 -0.057
0.305 -0.297 -0.056
0.306 -0.294 -0.056
0.311 -0.293 -0.057
0.314 -0.292 -0.057
0.315 -0.288 -0.057
0.313 -0.282 -0.056
0.313 -0.278 -0.056
0.316 -0.276 -0.056
0.317 -0.272 -0.056
0.316 -0.268 -0.056
0.319 -0.265 -0.056
0.319 -0.261 -0.056
0.300 -0.242 -0.053
0.298 -0.236 -0.052
0.302 -0.236 -0.053
0.316 -0.243 -0.055
0.246 -0.182 -0.042
0.242 -0.177 -0.042
0.233 -0.167 -0.040
0.226 -0.160 -0.039
0.218 -0.151 -0.037
0.218 -0.149 -0.037
0.222 -0.149 -0.038
0.225 -0.148 -0.038
0.230 -0.149 -0.039
0.235 -0.149 -0.040
0.231 -0.144 -0.039
0.226 -0.138 -0.038
0.224 -0.135 -0.037
0.223 -0.132 -0.037
0.224 -0.130 -0.037
0.225 -0.128 -0.037
0.220 -0.123 -0.036
0.225 -0.123 -0.037
0.228 -0.122 -0.038
0.233 -0.123 -0.038
0.233 -0.120 -0.038
0.228 -0.115 -0.037
0.225 -0.111 -0.037
0.221 -0.107 -0.036
0.219 -0.104 -0.036
0.225 -0.105 -0.037
0.218 -0.099 -0.035
0.218 -0.097 -0.035
0.216 -0.094 -0.035
0.222 -0.094 -0.036
0.224 -0.093 -0.036
0.223 -0.090 -0.036
0.216 -0.085 -0.035
0.212 -0.082 -0.034
0.210 -0.079 -0.034
0.291 -0.106 -0.047
0.307 -0.109 -0.049
0.312 -0.108 -0.050
0.351 -0.115 -0.056
0.364 -0.115 -0.058
0.374 -0.115 -0.060
0.381 -0.114 -0.061
0.389 -0.112 -0.062
0.396 -0.110 -0.063
0.402 -0.108 -0.064
0.412 -0.107 -0.065
0.421 -0.106 -0.067
0.428 -0.103 -0.068
0.439 -0.102 -0.069
0.439 -0.098 -0.069
0.426 -0.091 -0.067
0.403 -0.082 -0.063
0.393 -0.077 -0.062
0.387 -0.072 -0.061
0.287 -0.051 -0.045
0.287 -0.048 -0.045
