VERSION .7
FIELDS x y z
SIZE 4 4 4
TYPE F F F
COUNT 1 1 1
WIDTH     2581
HEIGHT 1
VIEWPOINT 0 0 0 1 0 0 0
POINTS     2581
DATA ascii
0.221 -0.098 0.003
0.224 -0.097 0.003
0.225 -0.095 0.003
0.220 -0.091 0.003
0.226 -0.091 0.003
0.216 -0.085 0.003
0.217 -0.083 0.003
0.220 -0.082 0.003
0.225 -0.082 0.003
0.238 -0.084 0.004
0.248 -0.085 0.004
0.254 -0.085 0.004
0.253 -0.082 0.004
0.258 -0.081 0.004
0.269 -0.082 0.004
0.274 -0.081 0.004
0.277 -0.079 0.004
0.399 -0.107 0.006
0.402 -0.104 0.006
0.409 -0.102 0.006
0.418 -0.100 0.006
0.422 -0.098 0.006
0.411 -0.091 0.006
0.394 -0.084 0.006
0.385 -0.078 0.006
0.379 -0.074 0.006
0.283 -0.047 0.004
0.281 -0.044 0.004
0.283 -0.042 0.004
0.284 -0.040 0.004
0.286 -0.037 0.004
0.287 -0.035 0.004
0.291 -0.033 0.004
0.288 -0.030 0.004
0.286 -0.027 0.004
0.286 -0.025 0.004
0.291 -0.022 0.004
0.306 -0.021 0.004
0.316 -0.019 0.005
0.311 -0.015 0.005
0.308 -0.013 0.004
0.313 -0.010 0.005
0.316 -0.007 0.005
0.314 -0.004 0.005
0.314 -0.002 0.005
0.314 0.001 0.005
0.313 0.004 0.005
0.315 0.007 0.005
0.301 0.009 0.004
0.304 0.012 0.004
0.306 0.015 0.004
0.308 0.018 0.004
0.309 0.021 0.004
0.309 0.024 0.005
0.310 0.026 0.005
0.310 0.029 0.005
0.311 0.032 0.005
0.311 0.035 0.005
0.311 0.038 0.005
0.311 0.041 0.005
0.312 0.044 0.005
0.313 0.046 0.005
0.312 0.049 0.005
0.312 0.052 0.005
0.312 0.055 0.005
0.312 0.058 0.005
0.313 0.061 0.005
0.312 0.064 0.005
0.313 0.067 0.005
0.315 0.070 0.005
0.328 0.076 0.005
0.325 0.078 0.005
0.315 0.079 0.005
0.317 0.082 0.005
0.318 0.086 0.005
0.307 0.086 0.005
0.312 0.090 0.005
0.328 0.098 0.005
0.322 0.099 0.005
0.314 0.100 0.005
0.320 0.104 0.005
0.320 0.108 0.005
0.329 0.114 0.005
0.331 0.118 0.005
0.334 0.122 0.005
0.331 0.124 0.005
0.327 0.126 0.005
0.321 0.127 0.005
0.343 0.139 0.005
0.342 0.142 0.005
0.343 0.146 0.005
0.334 0.145 0.005
0.323 0.144 0.005
0.334 0.152 0.005
0.319 0.152 0.005
0.315 0.154 0.005
0.318 0.169 0.005
0.326 0.180 0.005
0.339 0.194 0.005
0.327 0.191 0.005
0.326 0.194 0.005
0.324 0.197 0.005
0.321 0.199 0.005
0.319 0.201 0.005
0.317 0.204 0.005
0.315 0.206 0.005
0.313 0.208 0.005
0.312 0.211 0.005
0.311 0.215 0.005
0.309 0.217 0.005
1.312 1.006 0.023
1.312 1.023 0.023
1.319 1.118 0.024
1.311 1.150 0.024
1.330 1.206 0.025
1.334 1.250 0.026
1.341 1.299 0.026
0.362 0.413 0.008
0.355 0.412 0.008
0.359 0.431 0.008
0.363 0.442 0.008
0.366 0.453 0.008
0.357 0.449 0.008
0.350 0.447 0.008
0.348 0.452 0.008
0.160 -0.220 0.006
0.175 -0.238 0.006
0.184 -0.247 0.007
0.183 -0.242 0.006
0.182 -0.237 0.006
0.181 -0.233 0.006
0.184 -0.233 0.006
0.186 -0.233 0.006
0.188 -0.232 0.006
0.189 -0.230 0.006
0.191 -0.229 0.006
0.193 -0.227 0.006
0.194 -0.226 0.006
0.196 -0.225 0.006
0.199 -0.224 0.006
0.201 -0.223 0.006
0.203 -0.222 0.006
0.206 -0.222 0.006
0.207 -0.220 0.006
0.210 -0.219 0.006
0.212 -0.219 0.007
0.215 -0.218 0.007
0.216 -0.215 0.007
0.217 -0.214 0.007
0.220 -0.213 0.007
0.224 -0.213 0.007
0.226 -0.212 0.007
0.229 -0.212 0.007
0.233 -0.212 0.007
0.235 -0.211 0.007
0.238 -0.210 0.007
0.241 -0.209 0.007
0.243 -0.208 0.007
0.246 -0.207 0.007
0.247 -0.204 0.007
0.249 -0.203 0.007
0.248 -0.199 0.007
0.238 -0.187 0.007
0.226 -0.175 0.006
0.218 -0.166 0.006
0.217 -0.163 0.006
0.219 -0.161 0.006
0.219 -0.159 0.006
0.211 -0.151 0.006
0.209 -0.147 0.006
0.208 -0.144 0.006
0.213 -0.145 0.006
0.214 -0.143 0.006
0.215 -0.141 0.006
0.204 -0.132 0.005
0.206 -0.130 0.005
0.215 -0.134 0.006
0.218 -0.133 0.006
0.216 -0.129 0.006
0.217 -0.128 0.006
0.218 -0.126 0.006
0.221 -0.125 0.006
0.229 -0.127 0.006
0.226 -0.123 0.006
0.221 -0.118 0.006
0.214 -0.112 0.005
0.209 -0.107 0.005
0.214 -0.108 0.005
0.212 -0.104 0.005
0.207 -0.100 0.005
0.211 -0.099 0.005
0.213 -0.098 0.005
0.216 -0.098 0.005
0.217 -0.096 0.005
0.227 -0.098 0.006
0.231 -0.097 0.006
0.228 -0.094 0.006
0.224 -0.090 0.005
0.222 -0.087 0.005
0.218 -0.083 0.005
0.217 -0.081 0.005
0.224 -0.081 0.005
0.237 -0.084 0.006
0.246 -0.085 0.006
0.248 -0.083 0.006
0.248 -0.081 0.006
0.251 -0.079 0.006
0.264 -0.081 0.006
0.273 -0.081 0.007
0.282 -0.081 0.007
0.397 -0.107 0.010
0.403 -0.104 0.010
0.414 -0.103 0.010
0.422 -0.101 0.010
0.426 -0.099 0.010
0.419 -0.093 0.010
0.388 -0.083 0.009
0.376 -0.077 0.009
0.376 -0.073 0.009
0.362 -0.067 0.009
0.281 -0.047 0.007
0.280 -0.044 0.007
0.283 -0.042 0.007
0.286 -0.040 0.007
0.287 -0.038 0.007
0.290 -0.035 0.007
0.293 -0.033 0.007
0.296 -0.031 0.007
0.287 -0.027 0.007
0.287 -0.025 0.007
0.290 -0.022 0.007
0.291 -0.020 0.007
0.304 -0.018 0.007
0.309 -0.015 0.007
0.306 -0.012 0.007
0.316 -0.010 0.007
0.317 -0.007 0.007
0.323 -0.004 0.008
0.316 -0.002 0.007
0.310 0.001 0.007
0.309 0.004 0.007
0.311 0.007 0.007
0.315 0.010 0.007
0.304 0.012 0.007
0.305 0.015 0.007
0.305 0.018 0.007
0.306 0.021 0.007
0.307 0.023 0.007
0.306 0.026 0.007
0.307 0.029 0.007
0.309 0.032 0.007
0.309 0.035 0.007
0.309 0.038 0.007
0.310 0.041 0.007
0.311 0.043 0.007
0.311 0.046 0.007
0.311 0.049 0.007
0.311 0.052 0.007
0.310 0.055 0.007
0.311 0.058 0.007
0.309 0.060 0.007
0.310 0.063 0.007
0.314 0.067 0.007
0.319 0.071 0.008
0.315 0.073 0.008
0.312 0.075 0.007
0.333 0.083 0.008
0.333 0.087 0.008
0.323 0.087 0.008
0.311 0.087 0.007
0.319 0.092 0.008
0.327 0.097 0.008
0.325 0.100 0.008
0.319 0.101 0.008
0.319 0.104 0.008
0.320 0.108 0.008
0.327 0.113 0.008
0.332 0.118 0.008
0.331 0.121 0.008
0.321 0.121 0.008
0.308 0.118 0.008
0.344 0.139 0.008
0.354 0.147 0.009
0.350 0.149 0.009
0.348 0.151 0.009
0.364 0.166 0.009
0.335 0.163 0.008
0.312 0.162 0.008
0.320 0.170 0.008
0.326 0.176 0.008
0.322 0.178 0.008
0.327 0.184 0.008
0.329 0.189 0.009
0.328 0.192 0.009
0.326 0.194 0.008
0.324 0.197 0.008
0.322 0.199 0.008
0.320 0.202 0.008
0.317 0.204 0.008
0.315 0.206 0.008
0.312 0.208 0.008
0.311 0.211 0.008
0.310 0.214 0.008
0.309 0.217 0.008
0.305 0.218 0.008
0.356 0.400 0.012
0.356 0.407 0.012
0.355 0.412 0.012
0.375 0.465 0.013
0.352 0.451 0.012
0.171 -0.235 0.008
0.172 -0.234 0.008
0.179 -0.240 0.008
0.179 -0.237 0.008
0.181 -0.236 0.008
0.182 -0.235 0.008
0.184 -0.234 0.008
0.186 -0.233 0.009
0.188 -0.232 0.009
0.190 -0.230 0.009
0.191 -0.229 0.009
0.193 -0.228 0.009
0.194 -0.226 0.009
0.197 -0.225 0.009
0.199 -0.224 0.009
0.201 -0.224 0.009
0.203 -0.222 0.009
0.205 -0.221 0.009
0.207 -0.220 0.009
0.210 -0.219 0.009
0.212 -0.219 0.009
0.215 -0.218 0.009
0.217 -0.216 0.009
0.218 -0.215 0.009
0.221 -0.214 0.009
0.223 -0.213 0.009
0.227 -0.213 0.009
0.230 -0.212 0.009
0.232 -0.211 0.009
0.234 -0.210 0.009
0.237 -0.209 0.009
0.240 -0.208 0.009
0.242 -0.207 0.009
0.243 -0.204 0.009
0.246 -0.203 0.009
0.248 -0.202 0.009
0.248 -0.199 0.009
0.239 -0.188 0.009
0.226 -0.176 0.008
0.218 -0.167 0.008
0.214 -0.161 0.008
0.215 -0.159 0.008
0.216 -0.157 0.008
0.211 -0.151 0.008
0.210 -0.147 0.008
0.211 -0.145 0.008
0.214 -0.145 0.008
0.214 -0.143 0.008
0.208 -0.136 0.007
0.205 -0.132 0.007
0.206 -0.130 0.007
0.208 -0.129 0.007
0.216 -0.132 0.008
0.216 -0.129 0.008
0.210 -0.123 0.007
0.210 -0.121 0.007
0.223 -0.126 0.008
0.218 -0.121 0.008
0.223 -0.122 0.008
0.224 -0.120 0.008
0.205 -0.107 0.007
0.203 -0.104 0.007
0.202 -0.102 0.007
0.207 -0.102 0.007
0.205 -0.099 0.007
0.208 -0.098 0.007
0.207 -0.096 0.007
0.210 -0.095 0.007
0.219 -0.097 0.007
0.224 -0.097 0.008
0.227 -0.096 0.008
0.226 -0.093 0.008
0.223 -0.090 0.008
0.224 -0.088 0.008
0.209 -0.080 0.007
0.204 -0.076 0.007
0.220 -0.080 0.007
0.232 -0.082 0.008
0.240 -0.083 0.008
0.244 -0.082 0.008
0.242 -0.079 0.008
0.242 -0.076 0.008
0.249 -0.076 0.008
0.263 -0.078 0.009
0.395 -0.106 0.013
0.409 -0.106 0.013
0.415 -0.104 0.014
0.423 -0.102 0.014
0.429 -0.099 0.014
0.424 -0.094 0.014
0.371 -0.076 0.012
0.368 -0.071 0.012
0.364 -0.067 0.012
0.282 -0.047 0.009
0.283 -0.045 0.009
0.288 -0.043 0.009
0.288 -0.040 0.009
0.290 -0.038 0.009
0.291 -0.035 0.009
0.293 -0.033 0.010
0.299 -0.031 0.010
0.294 -0.028 0.010
0.291 -0.025 0.009
0.290 -0.022 0.009
0.290 -0.020 0.009
0.285 -0.017 0.009
0.291 -0.014 0.009
0.312 -0.013 0.010
0.315 -0.010 0.010
0.317 -0.007 0.010
0.320 -0.004 0.010
0.315 -0.002 0.010
0.288 0.001 0.009
0.303 0.004 0.010
0.305 0.007 0.010
0.309 0.010 0.010
0.316 0.013 0.010
0.322 0.016 0.010
0.302 0.018 0.010
0.301 0.020 0.010
0.302 0.023 0.010
0.304 0.026 0.010
0.305 0.029 0.010
0.307 0.032 0.010
0.307 0.035 0.010
0.307 0.037 0.010
0.307 0.040 0.010
0.309 0.043 0.010
0.309 0.046 0.010
0.308 0.049 0.010
0.308 0.051 0.010
0.308 0.054 0.010
0.309 0.057 0.010
0.312 0.061 0.010
0.319 0.065 0.010
0.317 0.067 0.010
0.314 0.070 0.010
0.312 0.072 0.010
0.314 0.076 0.010
0.324 0.081 0.011
0.335 0.087 0.011
0.323 0.087 0.011
0.315 0.088 0.010
0.317 0.091 0.011
0.324 0.096 0.011
0.319 0.098 0.011
0.318 0.101 0.011
0.322 0.105 0.011
0.316 0.106 0.011
0.323 0.112 0.011
0.330 0.117 0.011
0.322 0.118 0.011
0.301 0.113 0.010
0.303 0.117 0.010
0.377 0.168 0.013
0.373 0.170 0.013
0.365 0.170 0.013
0.356 0.170 0.012
0.342 0.167 0.012
0.321 0.163 0.011
0.320 0.166 0.011
0.320 0.170 0.011
0.325 0.176 0.011
0.323 0.178 0.011
0.330 0.186 0.012
0.331 0.190 0.012
0.330 0.193 0.012
0.327 0.195 0.012
0.325 0.197 0.012
0.322 0.200 0.012
0.320 0.202 0.012
0.318 0.204 0.012
0.314 0.206 0.011
0.312 0.208 0.011
0.310 0.211 0.011
0.309 0.214 0.011
0.309 0.217 0.011
0.310 0.222 0.012
0.336 0.245 0.013
0.345 0.255 0.013
0.343 0.258 0.013
0.408 0.352 0.016
0.402 0.353 0.016
0.411 0.440 0.018
0.368 0.401 0.016
0.362 0.400 0.016
0.362 0.408 0.016
0.360 0.411 0.016
0.496 0.587 0.022
0.495 0.595 0.023
0.173 -0.238 0.010
0.176 -0.240 0.011
0.178 -0.239 0.011
0.178 -0.236 0.010
0.180 -0.235 0.011
0.182 -0.234 0.011
0.184 -0.234 0.011
0.186 -0.232 0.011
0.187 -0.231 0.011
0.190 -0.230 0.011
0.192 -0.229 0.011
0.193 -0.228 0.011
0.194 -0.226 0.011
0.196 -0.225 0.011
0.199 -0.224 0.011
0.201 -0.224 0.011
0.203 -0.223 0.011
0.205 -0.222 0.011
0.207 -0.220 0.011
0.210 -0.219 0.011
0.212 -0.218 0.011
0.214 -0.217 0.011
0.217 -0.216 0.011
0.219 -0.216 0.011
0.221 -0.214 0.011
0.223 -0.213 0.011
0.226 -0.212 0.011
0.229 -0.212 0.011
0.231 -0.210 0.012
0.234 -0.209 0.012
0.236 -0.208 0.012
0.238 -0.207 0.012
0.240 -0.205 0.012
0.243 -0.205 0.012
0.245 -0.203 0.012
0.248 -0.202 0.012
0.248 -0.199 0.012
0.240 -0.189 0.011
0.227 -0.176 0.011
0.221 -0.169 0.010
0.212 -0.159 0.010
0.210 -0.155 0.010
0.211 -0.154 0.010
0.210 -0.150 0.010
0.209 -0.147 0.010
0.209 -0.145 0.010
0.213 -0.144 0.010
0.211 -0.140 0.010
0.209 -0.137 0.010
0.208 -0.134 0.009
0.208 -0.131 0.009
0.211 -0.131 0.010
0.212 -0.130 0.010
0.212 -0.127 0.010
0.207 -0.122 0.009
0.206 -0.119 0.009
0.209 -0.119 0.009
0.219 -0.122 0.010
0.221 -0.120 0.010
0.216 -0.115 0.010
0.216 -0.113 0.010
0.202 -0.104 0.009
0.203 -0.102 0.009
0.209 -0.103 0.009
0.210 -0.101 0.009
0.203 -0.096 0.009
0.207 -0.096 0.009
0.211 -0.095 0.009
0.220 -0.097 0.010
0.223 -0.096 0.010
0.224 -0.095 0.010
0.222 -0.092 0.010
0.223 -0.090 0.010
0.218 -0.086 0.009
0.228 -0.087 0.010
0.212 -0.079 0.009
0.223 -0.081 0.010
0.226 -0.080 0.010
0.230 -0.079 0.010
0.233 -0.078 0.010
0.241 -0.078 0.010
0.243 -0.077 0.010
0.246 -0.075 0.010
0.256 -0.076 0.011
0.267 -0.077 0.011
0.399 -0.107 0.017
0.412 -0.107 0.017
0.416 -0.104 0.017
0.414 -0.099 0.017
0.422 -0.098 0.018
0.418 -0.093 0.018
0.363 -0.074 0.015
0.361 -0.070 0.015
0.353 -0.065 0.015
0.284 -0.048 0.012
0.286 -0.045 0.012
0.288 -0.043 0.012
0.289 -0.040 0.012
0.290 -0.038 0.012
0.290 -0.035 0.012
0.290 -0.033 0.012
0.291 -0.030 0.012
0.299 -0.028 0.012
0.298 -0.025 0.012
0.294 -0.023 0.012
0.291 -0.020 0.012
0.290 -0.017 0.012
0.298 -0.015 0.012
0.310 -0.013 0.013
0.316 -0.010 0.013
0.311 -0.007 0.013
0.312 -0.004 0.013
0.296 -0.001 0.012
0.296 0.001 0.012
0.295 0.004 0.012
0.300 0.007 0.012
0.302 0.009 0.013
0.306 0.012 0.013
0.307 0.015 0.013
0.315 0.018 0.013
0.319 0.021 0.013
0.307 0.023 0.013
0.303 0.026 0.013
0.303 0.029 0.013
0.304 0.031 0.013
0.306 0.034 0.013
0.306 0.037 0.013
0.307 0.040 0.013
0.307 0.043 0.013
0.305 0.045 0.013
0.305 0.048 0.013
0.307 0.051 0.013
0.312 0.055 0.013
0.317 0.059 0.013
0.319 0.062 0.013
0.319 0.065 0.013
0.316 0.067 0.013
0.314 0.070 0.013
0.322 0.075 0.014
0.323 0.078 0.014
0.318 0.080 0.013
0.313 0.081 0.013
0.310 0.083 0.013
0.307 0.086 0.013
0.316 0.091 0.013
0.311 0.093 0.013
0.309 0.095 0.013
0.318 0.101 0.014
0.325 0.106 0.014
0.321 0.108 0.014
0.316 0.109 0.014
0.327 0.116 0.014
0.323 0.118 0.014
0.401 0.167 0.017
0.411 0.175 0.018
0.406 0.177 0.018
0.385 0.172 0.017
0.380 0.173 0.017
0.375 0.175 0.016
0.368 0.176 0.016
0.366 0.178 0.016
0.367 0.183 0.016
0.365 0.186 0.016
0.351 0.182 0.016
0.326 0.173 0.015
0.323 0.175 0.014
0.327 0.180 0.015
0.337 0.190 0.015
0.336 0.193 0.015
0.332 0.194 0.015
0.327 0.195 0.015
0.324 0.197 0.015
0.322 0.199 0.015
0.320 0.202 0.015
0.317 0.204 0.015
0.315 0.206 0.015
0.313 0.208 0.014
0.310 0.211 0.014
0.309 0.213 0.014
0.307 0.216 0.014
0.336 0.245 0.016
0.340 0.252 0.016
0.343 0.259 0.016
0.436 0.358 0.021
0.434 0.362 0.021
0.429 0.365 0.021
0.447 0.419 0.023
0.445 0.424 0.023
0.447 0.434 0.023
0.453 0.446 0.024
0.453 0.454 0.024
0.451 0.459 0.024
0.448 0.464 0.024
0.367 0.400 0.020
0.368 0.408 0.020
0.497 0.587 0.028
0.493 0.592 0.028
0.309 0.402 0.018
0.178 -0.246 0.013
0.177 -0.241 0.013
0.178 -0.238 0.013
0.178 -0.236 0.013
0.179 -0.234 0.013
0.181 -0.233 0.013
0.183 -0.232 0.013
0.186 -0.232 0.013
0.187 -0.231 0.013
0.189 -0.230 0.013
0.191 -0.229 0.013
0.193 -0.228 0.013
0.195 -0.227 0.013
0.196 -0.225 0.013
0.198 -0.224 0.013
0.201 -0.224 0.013
0.203 -0.223 0.013
0.205 -0.221 0.013
0.207 -0.220 0.013
0.209 -0.219 0.013
0.212 -0.218 0.013
0.214 -0.217 0.013
0.216 -0.216 0.014
0.219 -0.215 0.014
0.221 -0.214 0.014
0.223 -0.213 0.014
0.226 -0.213 0.014
0.228 -0.211 0.014
0.230 -0.210 0.014
0.233 -0.209 0.014
0.237 -0.209 0.014
0.239 -0.208 0.014
0.242 -0.207 0.014
0.244 -0.205 0.014
0.246 -0.204 0.014
0.248 -0.202 0.014
0.249 -0.200 0.015
0.246 -0.194 0.014
0.229 -0.178 0.013
0.218 -0.166 0.013
0.211 -0.159 0.012
0.209 -0.154 0.012
0.211 -0.153 0.012
0.210 -0.150 0.012
0.208 -0.146 0.012
0.209 -0.144 0.012
0.209 -0.142 0.012
0.205 -0.137 0.011
0.210 -0.138 0.012
0.212 -0.136 0.012
0.210 -0.133 0.012
0.209 -0.130 0.011
0.210 -0.128 0.012
0.208 -0.125 0.011
0.208 -0.122 0.011
0.208 -0.120 0.011
0.207 -0.117 0.011
0.205 -0.114 0.011
0.219 -0.120 0.012
0.216 -0.115 0.012
0.212 -0.111 0.011
0.212 -0.109 0.011
0.215 -0.108 0.011
0.219 -0.108 0.012
0.216 -0.104 0.011
0.213 -0.101 0.011
0.212 -0.098 0.011
0.214 -0.097 0.011
0.220 -0.097 0.012
0.223 -0.096 0.012
0.224 -0.095 0.012
0.223 -0.092 0.012
0.222 -0.089 0.012
0.221 -0.087 0.012
0.214 -0.082 0.011
0.212 -0.079 0.011
0.226 -0.082 0.012
0.230 -0.081 0.012
0.224 -0.077 0.012
0.231 -0.077 0.012
0.242 -0.079 0.012
0.244 -0.077 0.013
0.246 -0.075 0.013
0.256 -0.076 0.013
0.264 -0.076 0.014
0.399 -0.107 0.020
0.408 -0.106 0.021
0.415 -0.104 0.021
0.414 -0.100 0.021
0.409 -0.094 0.021
0.378 -0.080 0.019
0.365 -0.074 0.019
0.360 -0.070 0.018
0.346 -0.064 0.018
0.286 -0.048 0.015
0.285 -0.045 0.014
0.286 -0.043 0.015
0.288 -0.040 0.015
0.290 -0.038 0.015
0.288 -0.035 0.015
0.289 -0.033 0.015
0.292 -0.030 0.015
0.298 -0.028 0.015
0.302 -0.026 0.015
0.302 -0.023 0.015
0.293 -0.020 0.015
0.289 -0.017 0.015
0.297 -0.015 0.015
0.306 -0.012 0.015
0.309 -0.010 0.016
0.308 -0.007 0.016
0.296 -0.004 0.015
0.297 -0.001 0.015
0.299 0.001 0.015
0.300 0.004 0.015
0.299 0.007 0.015
0.303 0.009 0.015
0.298 0.012 0.015
0.299 0.015 0.015
0.312 0.018 0.016
0.318 0.021 0.016
0.317 0.024 0.016
0.318 0.027 0.016
0.314 0.030 0.016
0.314 0.032 0.016
0.316 0.035 0.016
0.314 0.038 0.016
0.314 0.041 0.016
0.315 0.044 0.016
0.321 0.048 0.016
0.321 0.051 0.016
0.321 0.054 0.016
0.321 0.057 0.016
0.315 0.058 0.016
0.317 0.062 0.016
0.319 0.065 0.016
0.318 0.068 0.016
0.329 0.073 0.017
0.331 0.077 0.017
0.319 0.077 0.016
0.305 0.076 0.016
0.300 0.078 0.015
0.298 0.080 0.015
0.309 0.086 0.016
0.313 0.090 0.016
0.318 0.095 0.016
0.313 0.096 0.016
0.330 0.105 0.017
0.328 0.107 0.017
0.322 0.108 0.017
0.315 0.109 0.016
0.316 0.112 0.016
0.319 0.117 0.017
0.325 0.122 0.017
0.321 0.124 0.017
0.417 0.173 0.022
0.419 0.178 0.022
0.405 0.176 0.021
0.400 0.179 0.021
0.395 0.180 0.021
0.380 0.177 0.020
0.373 0.178 0.020
0.370 0.181 0.020
0.368 0.183 0.020
0.360 0.183 0.019
0.355 0.185 0.019
0.337 0.179 0.018
0.321 0.174 0.017
0.333 0.184 0.018
0.333 0.187 0.018
0.337 0.193 0.018
0.331 0.194 0.018
0.326 0.194 0.018
0.323 0.197 0.018
0.322 0.199 0.018
0.319 0.202 0.018
0.316 0.203 0.018
0.315 0.206 0.018
0.313 0.208 0.018
0.309 0.210 0.017
0.307 0.212 0.017
0.306 0.215 0.017
0.321 0.230 0.018
0.332 0.246 0.019
0.307 0.236 0.018
0.301 0.235 0.018
0.432 0.349 0.025
0.442 0.363 0.026
0.438 0.366 0.026
0.429 0.364 0.026
0.442 0.415 0.027
0.448 0.428 0.028
0.452 0.438 0.028
0.451 0.444 0.028
0.452 0.454 0.029
0.450 0.459 0.029
0.447 0.463 0.029
0.433 0.480 0.029
0.327 0.419 0.023
0.175 -0.241 0.015
0.177 -0.241 0.015
0.177 -0.237 0.015
0.178 -0.236 0.015
0.180 -0.235 0.015
0.182 -0.234 0.015
0.184 -0.234 0.015
0.186 -0.233 0.015
0.188 -0.232 0.015
0.189 -0.230 0.015
0.190 -0.228 0.015
0.193 -0.227 0.015
0.195 -0.226 0.015
0.196 -0.225 0.015
0.198 -0.224 0.015
0.201 -0.223 0.015
0.203 -0.222 0.015
0.205 -0.222 0.015
0.207 -0.220 0.015
0.209 -0.219 0.016
0.211 -0.218 0.016
0.213 -0.217 0.016
0.216 -0.216 0.016
0.218 -0.215 0.016
0.220 -0.213 0.016
0.223 -0.213 0.016
0.225 -0.212 0.016
0.228 -0.211 0.016
0.230 -0.210 0.016
0.233 -0.209 0.016
0.236 -0.208 0.017
0.240 -0.208 0.017
0.243 -0.208 0.017
0.244 -0.206 0.017
0.247 -0.204 0.017
0.248 -0.202 0.017
0.249 -0.200 0.017
0.245 -0.193 0.017
0.224 -0.174 0.015
0.216 -0.165 0.015
0.213 -0.160 0.014
0.211 -0.156 0.014
0.211 -0.154 0.014
0.212 -0.151 0.014
0.210 -0.148 0.014
0.204 -0.141 0.013
0.203 -0.138 0.013
0.205 -0.137 0.013
0.209 -0.137 0.014
0.215 -0.139 0.014
0.210 -0.133 0.014
0.204 -0.127 0.013
0.209 -0.127 0.013
0.209 -0.125 0.013
0.211 -0.124 0.014
0.213 -0.123 0.014
0.220 -0.125 0.014
0.225 -0.125 0.014
0.222 -0.121 0.014
0.218 -0.117 0.014
0.214 -0.112 0.014
0.218 -0.112 0.014
0.203 -0.102 0.013
0.209 -0.103 0.013
0.204 -0.098 0.013
0.210 -0.099 0.013
0.204 -0.094 0.013
0.206 -0.093 0.013
0.210 -0.093 0.013
0.220 -0.095 0.014
0.224 -0.094 0.014
0.224 -0.092 0.014
0.223 -0.090 0.014
0.223 -0.087 0.014
0.214 -0.082 0.013
0.210 -0.079 0.013
0.217 -0.079 0.013
0.229 -0.081 0.014
0.232 -0.080 0.014
0.242 -0.081 0.015
0.245 -0.080 0.015
0.241 -0.076 0.015
0.247 -0.076 0.015
0.258 -0.077 0.016
0.267 -0.077 0.016
0.398 -0.107 0.024
0.405 -0.105 0.024
0.414 -0.103 0.025
0.418 -0.100 0.025
0.408 -0.094 0.025
0.374 -0.080 0.022
0.381 -0.078 0.023
0.368 -0.072 0.022
0.355 -0.066 0.021
0.287 -0.048 0.017
0.283 -0.045 0.017
0.287 -0.043 0.017
0.287 -0.040 0.017
0.288 -0.038 0.017
0.288 -0.035 0.017
0.290 -0.033 0.017
0.293 -0.030 0.017
0.296 -0.028 0.018
0.301 -0.026 0.018
0.302 -0.023 0.018
0.290 -0.020 0.017
0.289 -0.017 0.017
0.294 -0.015 0.017
0.294 -0.012 0.018
0.301 -0.010 0.018
0.298 -0.007 0.018
0.295 -0.004 0.018
0.295 -0.001 0.018
0.308 0.001 0.018
0.306 0.004 0.018
0.307 0.007 0.018
0.305 0.010 0.018
0.305 0.012 0.018
0.307 0.015 0.018
0.307 0.018 0.018
0.312 0.021 0.019
0.316 0.024 0.019
0.311 0.027 0.019
0.314 0.030 0.019
0.315 0.033 0.019
0.319 0.036 0.019
0.316 0.038 0.019
0.316 0.041 0.019
0.318 0.044 0.019
0.320 0.048 0.019
0.317 0.050 0.019
0.320 0.053 0.019
0.312 0.055 0.019
0.313 0.058 0.019
0.314 0.061 0.019
0.317 0.065 0.019
0.325 0.069 0.020
0.335 0.075 0.020
0.332 0.077 0.020
0.308 0.074 0.019
0.296 0.074 0.018
0.299 0.078 0.018
0.306 0.083 0.019
0.313 0.087 0.019
0.318 0.092 0.019
0.320 0.095 0.019
0.325 0.100 0.020
0.329 0.104 0.020
0.326 0.107 0.020
0.321 0.108 0.020
0.322 0.111 0.020
0.320 0.114 0.020
0.332 0.121 0.020
0.326 0.122 0.020
0.328 0.126 0.020
0.343 0.136 0.021
0.422 0.175 0.026
0.422 0.180 0.026
0.402 0.175 0.025
0.396 0.177 0.025
0.389 0.177 0.024
0.381 0.178 0.024
0.375 0.179 0.024
0.370 0.181 0.023
0.364 0.181 0.023
0.357 0.182 0.023
0.347 0.181 0.022
0.341 0.181 0.022
0.339 0.183 0.022
0.335 0.185 0.021
0.327 0.184 0.021
0.326 0.187 0.021
0.326 0.191 0.021
0.324 0.193 0.021
0.322 0.196 0.021
0.321 0.199 0.021
0.319 0.202 0.021
0.317 0.204 0.021
0.309 0.202 0.020
0.307 0.204 0.020
0.305 0.207 0.020
0.305 0.211 0.020
0.304 0.214 0.020
0.302 0.216 0.020
0.297 0.216 0.020
0.295 0.219 0.020
0.294 0.222 0.020
0.295 0.226 0.020
0.295 0.230 0.020
0.294 0.233 0.020
0.279 0.249 0.020
0.279 0.254 0.020
0.451 0.438 0.033
0.449 0.443 0.033
0.440 0.441 0.033
0.390 0.404 0.029
0.381 0.401 0.029
0.330 0.391 0.026
0.319 0.409 0.027
0.306 0.399 0.026
0.177 -0.244 0.017
0.177 -0.240 0.017
0.177 -0.238 0.017
0.178 -0.236 0.017
0.180 -0.235 0.017
0.182 -0.235 0.017
0.184 -0.234 0.017
0.186 -0.233 0.017
0.187 -0.231 0.017
0.189 -0.230 0.017
0.190 -0.228 0.017
0.192 -0.227 0.017
0.194 -0.226 0.017
0.196 -0.225 0.017
0.198 -0.224 0.017
0.200 -0.223 0.018
0.203 -0.222 0.018
0.204 -0.221 0.018
0.206 -0.220 0.018
0.209 -0.219 0.018
0.211 -0.218 0.018
0.213 -0.217 0.018
0.216 -0.216 0.018
0.218 -0.215 0.018
0.220 -0.213 0.018
0.222 -0.212 0.018
0.226 -0.212 0.019
0.228 -0.211 0.019
0.231 -0.210 0.019
0.233 -0.209 0.019
0.237 -0.210 0.019
0.240 -0.209 0.019
0.242 -0.207 0.019
0.245 -0.207 0.020
0.247 -0.205 0.020
0.248 -0.203 0.020
0.248 -0.199 0.019
0.240 -0.189 0.019
0.219 -0.170 0.017
0.215 -0.164 0.017
0.212 -0.159 0.016
0.211 -0.156 0.016
0.212 -0.154 0.016
0.215 -0.154 0.016
0.214 -0.151 0.016
0.209 -0.144 0.016
0.204 -0.139 0.015
0.204 -0.136 0.015
0.208 -0.136 0.016
0.213 -0.138 0.016
0.215 -0.136 0.016
0.211 -0.132 0.016
0.208 -0.127 0.015
0.210 -0.126 0.016
0.213 -0.125 0.016
0.213 -0.123 0.016
0.211 -0.120 0.015
0.222 -0.124 0.016
0.224 -0.122 0.016
0.218 -0.117 0.016
0.217 -0.114 0.016
0.210 -0.108 0.015
0.208 -0.105 0.015
0.204 -0.101 0.015
0.211 -0.102 0.015
0.204 -0.096 0.015
0.209 -0.097 0.015
0.205 -0.093 0.015
0.208 -0.092 0.015
0.217 -0.094 0.015
0.222 -0.094 0.016
0.223 -0.092 0.016
0.222 -0.089 0.016
0.221 -0.087 0.016
0.220 -0.084 0.016
0.212 -0.079 0.015
0.222 -0.081 0.016
0.227 -0.080 0.016
0.231 -0.080 0.016
0.243 -0.081 0.017
0.244 -0.079 0.017
0.244 -0.077 0.017
0.249 -0.076 0.017
0.261 -0.077 0.018
0.270 -0.078 0.019
0.401 -0.108 0.028
0.406 -0.105 0.028
0.413 -0.103 0.029
0.414 -0.100 0.029
0.412 -0.095 0.029
0.363 -0.081 0.025
0.368 -0.078 0.025
0.373 -0.076 0.026
0.376 -0.073 0.026
0.363 -0.067 0.025
0.280 -0.047 0.019
0.285 -0.045 0.020
0.287 -0.043 0.020
0.287 -0.040 0.020
0.285 -0.037 0.020
0.290 -0.035 0.020
0.290 -0.033 0.020
0.291 -0.030 0.020
0.292 -0.028 0.020
0.296 -0.025 0.020
0.296 -0.023 0.020
0.293 -0.020 0.020
0.295 -0.017 0.020
0.290 -0.014 0.020
0.298 -0.012 0.020
0.300 -0.010 0.021
0.300 -0.007 0.021
0.302 -0.004 0.021
0.312 -0.001 0.021
0.316 0.001 0.022
0.316 0.004 0.022
0.313 0.007 0.021
0.306 0.010 0.021
0.307 0.012 0.021
0.309 0.015 0.021
0.312 0.018 0.021
0.299 0.020 0.020
0.309 0.024 0.021
0.312 0.027 0.021
0.303 0.029 0.021
0.312 0.032 0.021
0.313 0.035 0.021
0.311 0.038 0.021
0.315 0.041 0.022
0.316 0.044 0.022
0.314 0.047 0.022
0.308 0.049 0.021
0.307 0.051 0.021
0.310 0.055 0.021
0.312 0.058 0.022
0.317 0.062 0.022
0.319 0.065 0.022
0.322 0.069 0.022
0.335 0.074 0.023
0.337 0.078 0.023
0.315 0.076 0.022
0.303 0.076 0.021
0.321 0.086 0.022
0.323 0.090 0.023
0.328 0.095 0.023
0.330 0.098 0.023
0.325 0.100 0.023
0.323 0.103 0.023
0.321 0.108 0.023
0.327 0.113 0.023
0.335 0.119 0.024
0.329 0.120 0.023
0.331 0.124 0.023
0.332 0.128 0.024
0.425 0.177 0.030
0.424 0.181 0.030
0.409 0.178 0.029
0.393 0.175 0.028
0.389 0.178 0.028
0.384 0.179 0.028
0.379 0.181 0.027
0.374 0.182 0.027
0.364 0.182 0.027
0.357 0.182 0.026
0.350 0.182 0.026
0.343 0.182 0.025
0.337 0.182 0.025
0.335 0.185 0.025
0.327 0.184 0.024
0.323 0.186 0.024
0.318 0.186 0.024
0.311 0.186 0.023
0.308 0.188 0.023
0.308 0.191 0.023
0.301 0.190 0.023
0.302 0.194 0.023
0.305 0.200 0.023
0.305 0.204 0.023
0.302 0.205 0.023
0.300 0.207 0.023
0.299 0.211 0.023
0.298 0.214 0.023
0.296 0.216 0.023
0.294 0.218 0.023
0.294 0.222 0.023
0.294 0.225 0.023
0.292 0.228 0.023
0.290 0.230 0.023
0.273 0.232 0.022
0.266 0.230 0.022
0.270 0.237 0.022
0.268 0.239 0.022
0.273 0.248 0.023
0.414 0.444 0.036
0.412 0.449 0.036
0.357 0.402 0.032
0.335 0.397 0.031
0.319 0.390 0.030
0.312 0.388 0.029
0.310 0.397 0.030
0.304 0.396 0.029
0.174 -0.240 0.019
0.178 -0.242 0.019
0.179 -0.241 0.019
0.179 -0.238 0.019
0.181 -0.236 0.019
0.182 -0.235 0.019
0.184 -0.234 0.019
0.185 -0.232 0.019
0.187 -0.231 0.019
0.189 -0.230 0.019
0.190 -0.228 0.019
0.192 -0.227 0.019
0.194 -0.226 0.020
0.196 -0.225 0.020
0.198 -0.224 0.020
0.200 -0.223 0.020
0.202 -0.221 0.020
0.204 -0.220 0.020
0.206 -0.220 0.020
0.209 -0.219 0.020
0.211 -0.218 0.020
0.213 -0.217 0.020
0.216 -0.216 0.020
0.218 -0.215 0.021
0.220 -0.214 0.021
0.223 -0.213 0.021
0.226 -0.213 0.021
0.230 -0.213 0.021
0.231 -0.211 0.021
0.233 -0.209 0.021
0.237 -0.210 0.022
0.240 -0.209 0.022
0.241 -0.207 0.022
0.244 -0.206 0.022
0.247 -0.205 0.022
0.249 -0.203 0.022
0.249 -0.200 0.022
0.235 -0.185 0.021
0.222 -0.173 0.020
0.214 -0.163 0.019
0.211 -0.158 0.018
0.212 -0.157 0.018
0.214 -0.156 0.019
0.218 -0.156 0.019
0.218 -0.153 0.019
0.214 -0.148 0.018
0.208 -0.141 0.018
0.204 -0.136 0.017
0.204 -0.134 0.017
0.208 -0.134 0.018
0.216 -0.137 0.018
0.215 -0.134 0.018
0.210 -0.128 0.018
0.208 -0.125 0.017
0.210 -0.124 0.017
0.208 -0.120 0.017
0.208 -0.118 0.017
0.209 -0.116 0.017
0.206 -0.113 0.017
0.217 -0.116 0.018
0.217 -0.114 0.018
0.212 -0.109 0.017
0.209 -0.105 0.017
0.210 -0.104 0.017
0.209 -0.101 0.017
0.214 -0.101 0.017
0.210 -0.097 0.017
0.212 -0.096 0.017
0.212 -0.094 0.017
0.216 -0.094 0.017
0.221 -0.093 0.018
0.221 -0.091 0.018
0.218 -0.088 0.017
0.219 -0.086 0.017
0.221 -0.085 0.018
0.221 -0.083 0.018
0.221 -0.080 0.018
0.229 -0.081 0.018
0.236 -0.081 0.019
0.235 -0.079 0.019
0.244 -0.079 0.019
0.248 -0.078 0.020
0.252 -0.077 0.020
0.257 -0.076 0.020
0.403 -0.108 0.032
0.406 -0.105 0.032
0.409 -0.102 0.032
0.414 -0.100 0.032
0.415 -0.096 0.033
0.350 -0.078 0.027
0.342 -0.073 0.027
0.367 -0.075 0.029
0.366 -0.071 0.029
0.360 -0.067 0.028
0.282 -0.047 0.022
0.284 -0.045 0.022
0.287 -0.043 0.022
0.285 -0.040 0.022
0.282 -0.037 0.022
0.284 -0.035 0.022
0.291 -0.033 0.023
0.288 -0.030 0.022
0.287 -0.027 0.022
0.288 -0.025 0.022
0.290 -0.022 0.022
0.294 -0.020 0.023
0.294 -0.017 0.023
0.299 -0.015 0.023
0.301 -0.012 0.023
0.300 -0.010 0.023
0.302 -0.007 0.023
0.308 -0.004 0.024
0.315 -0.002 0.024
0.322 0.001 0.025
0.319 0.004 0.025
0.316 0.007 0.025
0.308 0.010 0.024
0.305 0.012 0.024
0.308 0.015 0.024
0.308 0.018 0.024
0.312 0.021 0.024
0.314 0.024 0.024
0.306 0.026 0.024
0.306 0.029 0.024
0.304 0.031 0.024
0.305 0.034 0.024
0.306 0.037 0.024
0.314 0.041 0.024
0.331 0.046 0.026
0.319 0.048 0.025
0.304 0.048 0.024
0.307 0.051 0.024
0.305 0.054 0.024
0.310 0.058 0.024
0.313 0.061 0.024
0.319 0.065 0.025
0.322 0.069 0.025
0.327 0.073 0.026
0.335 0.078 0.026
0.330 0.080 0.026
0.325 0.081 0.026
0.337 0.088 0.027
0.334 0.090 0.026
0.331 0.092 0.026
0.331 0.095 0.026
0.330 0.101 0.026
0.323 0.103 0.026
0.321 0.105 0.026
0.324 0.109 0.026
0.323 0.112 0.026
0.319 0.114 0.026
0.322 0.118 0.026
0.323 0.121 0.026
0.335 0.129 0.027
0.429 0.179 0.035
0.419 0.179 0.034
0.410 0.179 0.033
0.399 0.178 0.032
0.392 0.179 0.032
0.387 0.181 0.032
0.382 0.183 0.031
0.378 0.184 0.031
0.371 0.185 0.030
0.357 0.182 0.029
0.350 0.182 0.029
0.346 0.183 0.029
0.342 0.185 0.028
0.331 0.183 0.028
0.326 0.184 0.027
0.321 0.185 0.027
0.315 0.185 0.026
0.310 0.185 0.026
0.305 0.186 0.026
0.300 0.186 0.025
0.296 0.187 0.025
0.289 0.186 0.025
0.287 0.188 0.025
0.283 0.189 0.024
0.281 0.191 0.024
0.278 0.192 0.024
0.275 0.194 0.024
0.271 0.194 0.024
0.271 0.198 0.024
0.270 0.200 0.024
0.266 0.201 0.023
0.263 0.202 0.023
0.262 0.205 0.023
0.262 0.208 0.023
0.261 0.211 0.023
0.259 0.213 0.023
0.258 0.216 0.023
0.260 0.221 0.024
0.260 0.224 0.024
0.260 0.229 0.024
0.262 0.234 0.024
0.262 0.238 0.024
0.259 0.239 0.024
0.261 0.245 0.025
0.259 0.247 0.025
0.263 0.255 0.025
0.268 0.265 0.026
0.440 0.457 0.043
0.439 0.464 0.043
0.409 0.439 0.041
0.351 0.395 0.035
0.340 0.390 0.035
0.333 0.388 0.034
0.320 0.379 0.033
0.316 0.386 0.033
0.302 0.375 0.032
0.299 0.377 0.032
0.304 0.390 0.033
0.304 0.396 0.033
0.179 -0.248 0.022
0.179 -0.244 0.021
0.181 -0.243 0.022
0.181 -0.240 0.021
0.181 -0.237 0.021
0.182 -0.235 0.021
0.184 -0.233 0.021
0.185 -0.232 0.021
0.186 -0.231 0.021
0.189 -0.230 0.022
0.190 -0.229 0.022
0.193 -0.228 0.022
0.194 -0.227 0.022
0.196 -0.225 0.022
0.198 -0.224 0.022
0.200 -0.223 0.022
0.202 -0.221 0.022
0.204 -0.220 0.022
0.206 -0.219 0.022
0.209 -0.219 0.022
0.211 -0.218 0.023
0.213 -0.217 0.023
0.216 -0.216 0.023
0.218 -0.215 0.023
0.221 -0.215 0.023
0.224 -0.214 0.023
0.226 -0.213 0.023
0.229 -0.212 0.024
0.231 -0.211 0.024
0.234 -0.210 0.024
0.237 -0.210 0.024
0.239 -0.208 0.024
0.241 -0.206 0.024
0.243 -0.205 0.024
0.246 -0.204 0.025
0.249 -0.203 0.025
0.250 -0.201 0.025
0.242 -0.191 0.024
0.226 -0.176 0.022
0.216 -0.165 0.021
0.210 -0.158 0.020
0.214 -0.158 0.021
0.215 -0.157 0.021
0.220 -0.157 0.021
0.216 -0.152 0.021
0.216 -0.150 0.021
0.211 -0.144 0.020
0.205 -0.137 0.019
0.204 -0.134 0.019
0.211 -0.136 0.020
0.215 -0.136 0.020
0.212 -0.132 0.020
0.207 -0.127 0.019
0.199 -0.119 0.019
0.203 -0.120 0.019
0.208 -0.120 0.019
0.211 -0.120 0.020
0.214 -0.119 0.020
0.217 -0.118 0.020
0.222 -0.119 0.020
0.217 -0.114 0.020
0.214 -0.110 0.020
0.203 -0.102 0.019
0.205 -0.101 0.019
0.206 -0.100 0.019
0.208 -0.098 0.019
0.204 -0.094 0.018
0.206 -0.093 0.019
0.207 -0.091 0.019
0.211 -0.091 0.019
0.221 -0.093 0.020
0.221 -0.091 0.020
0.218 -0.088 0.019
0.217 -0.085 0.019
0.218 -0.083 0.019
0.218 -0.082 0.019
0.218 -0.079 0.019
0.226 -0.080 0.020
0.234 -0.081 0.021
0.239 -0.080 0.021
0.239 -0.078 0.021
0.249 -0.079 0.022
0.251 -0.077 0.022
0.256 -0.076 0.023
0.270 -0.078 0.024
0.402 -0.108 0.035
0.405 -0.105 0.036
0.412 -0.103 0.036
0.420 -0.101 0.037
0.416 -0.096 0.036
0.338 -0.072 0.029
0.360 -0.073 0.031
0.370 -0.072 0.032
0.356 -0.066 0.031
0.346 -0.061 0.030
0.285 -0.048 0.025
0.286 -0.045 0.025
0.287 -0.043 0.025
0.285 -0.040 0.025
0.284 -0.037 0.025
0.284 -0.035 0.025
0.288 -0.033 0.025
0.289 -0.030 0.025
0.285 -0.027 0.025
0.286 -0.024 0.025
0.288 -0.022 0.025
0.287 -0.019 0.025
0.294 -0.017 0.025
0.299 -0.015 0.026
0.300 -0.012 0.026
0.299 -0.009 0.026
0.298 -0.007 0.026
0.304 -0.004 0.026
0.310 -0.001 0.027
0.313 0.001 0.027
0.312 0.004 0.027
0.310 0.007 0.027
0.308 0.010 0.027
0.308 0.012 0.027
0.304 0.015 0.026
0.313 0.018 0.027
0.319 0.021 0.028
0.313 0.024 0.027
0.309 0.026 0.027
0.312 0.029 0.027
0.308 0.032 0.027
0.302 0.034 0.026
0.302 0.037 0.026
0.315 0.041 0.027
0.326 0.046 0.028
0.314 0.047 0.027
0.305 0.048 0.027
0.302 0.051 0.026
0.308 0.054 0.027
0.308 0.057 0.027
0.313 0.061 0.027
0.323 0.066 0.028
0.318 0.068 0.028
0.316 0.071 0.028
0.321 0.074 0.028
0.321 0.077 0.028
0.327 0.082 0.029
0.334 0.087 0.029
0.336 0.091 0.030
0.329 0.092 0.029
0.327 0.094 0.029
0.334 0.103 0.030
0.327 0.104 0.029
0.323 0.106 0.029
0.319 0.107 0.028
0.316 0.110 0.028
0.313 0.111 0.028
0.313 0.114 0.028
0.319 0.120 0.029
0.321 0.124 0.029
0.428 0.178 0.039
0.418 0.178 0.038
0.409 0.179 0.037
0.400 0.179 0.036
0.394 0.180 0.036
0.388 0.181 0.035
0.381 0.182 0.035
0.377 0.184 0.035
0.371 0.185 0.034
0.360 0.183 0.033
0.350 0.182 0.032
0.348 0.185 0.032
0.341 0.185 0.032
0.333 0.184 0.031
0.325 0.183 0.030
0.321 0.184 0.030
0.316 0.185 0.030
0.309 0.185 0.029
0.303 0.185 0.029
0.300 0.186 0.028
0.297 0.188 0.028
0.290 0.187 0.028
0.283 0.186 0.027
0.278 0.186 0.027
0.277 0.188 0.027
0.268 0.186 0.026
0.265 0.187 0.026
0.263 0.188 0.026
0.261 0.190 0.025
0.262 0.194 0.026
0.261 0.197 0.026
0.263 0.202 0.026
0.262 0.204 0.026
0.262 0.208 0.026
0.261 0.211 0.026
0.259 0.213 0.026
0.258 0.216 0.026
0.259 0.220 0.026
0.258 0.223 0.026
0.258 0.227 0.027
0.259 0.231 0.027
0.258 0.235 0.027
0.257 0.237 0.027
0.256 0.241 0.027
0.257 0.246 0.027
0.256 0.249 0.027
0.256 0.253 0.027
0.441 0.458 0.048
0.436 0.460 0.048
0.357 0.397 0.040
0.354 0.399 0.040
0.349 0.400 0.040
0.315 0.385 0.037
0.306 0.381 0.036
0.303 0.383 0.036
0.303 0.390 0.036
0.303 0.395 0.036
0.175 -0.241 0.023
0.180 -0.245 0.024
0.181 -0.244 0.024
0.181 -0.240 0.024
0.180 -0.236 0.023
0.182 -0.235 0.023
0.183 -0.234 0.023
0.185 -0.232 0.024
0.186 -0.231 0.024
0.188 -0.230 0.024
0.191 -0.229 0.024
0.193 -0.228 0.024
0.194 -0.227 0.024
0.196 -0.225 0.024
0.198 -0.224 0.024
0.200 -0.223 0.024
0.202 -0.222 0.024
0.204 -0.221 0.024
0.206 -0.219 0.025
0.208 -0.218 0.025
0.210 -0.217 0.025
0.213 -0.216 0.025
0.215 -0.216 0.025
0.218 -0.215 0.025
0.221 -0.215 0.025
0.224 -0.214 0.026
0.226 -0.213 0.026
0.228 -0.212 0.026
0.231 -0.211 0.026
0.234 -0.210 0.026
0.237 -0.209 0.026
0.239 -0.208 0.027
0.241 -0.207 0.027
0.244 -0.206 0.027
0.246 -0.204 0.027
0.249 -0.204 0.027
0.250 -0.201 0.027
0.243 -0.192 0.026
0.231 -0.180 0.025
0.215 -0.164 0.023
0.210 -0.158 0.023
0.213 -0.158 0.023
0.216 -0.157 0.023
0.216 -0.154 0.023
0.213 -0.150 0.023
0.215 -0.149 0.023
0.217 -0.147 0.023
0.211 -0.141 0.022
0.208 -0.137 0.022
0.210 -0.136 0.022
0.211 -0.134 0.022
0.206 -0.128 0.021
0.206 -0.126 0.021
0.206 -0.124 0.021
0.206 -0.121 0.021
0.207 -0.120 0.021
0.218 -0.124 0.022
0.219 -0.122 0.022
0.219 -0.120 0.022
0.219 -0.118 0.022
0.219 -0.115 0.022
0.213 -0.110 0.022
0.214 -0.108 0.022
0.206 -0.102 0.021
0.208 -0.100 0.021
0.210 -0.100 0.021
0.209 -0.097 0.021
0.206 -0.093 0.021
0.213 -0.094 0.021
0.209 -0.091 0.021
0.219 -0.093 0.022
0.221 -0.091 0.022
0.221 -0.089 0.022
0.217 -0.085 0.021
0.215 -0.082 0.021
0.214 -0.080 0.021
0.219 -0.080 0.022
0.224 -0.079 0.022
0.230 -0.079 0.023
0.233 -0.078 0.023
0.238 -0.077 0.023
0.239 -0.076 0.023
0.253 -0.078 0.025
0.260 -0.077 0.025
0.267 -0.077 0.026
0.400 -0.107 0.039
0.404 -0.105 0.039
0.416 -0.104 0.040
0.418 -0.101 0.040
0.422 -0.098 0.041
0.342 -0.073 0.033
0.365 -0.074 0.035
0.373 -0.073 0.036
0.368 -0.068 0.035
0.286 -0.048 0.028
0.287 -0.045 0.027
0.287 -0.043 0.027
0.287 -0.040 0.027
0.288 -0.038 0.028
0.289 -0.035 0.028
0.289 -0.033 0.028
0.288 -0.030 0.028
0.289 -0.027 0.028
0.287 -0.025 0.027
0.287 -0.022 0.027
0.288 -0.019 0.027
0.290 -0.017 0.028
0.295 -0.015 0.028
0.299 -0.012 0.029
0.298 -0.009 0.028
0.296 -0.007 0.028
0.297 -0.004 0.028
0.299 -0.001 0.029
0.307 0.001 0.029
0.301 0.004 0.029
0.305 0.007 0.029
0.306 0.010 0.029
0.306 0.012 0.029
0.307 0.015 0.029
0.307 0.018 0.029
0.318 0.021 0.030
0.316 0.024 0.030
0.322 0.028 0.031
0.321 0.030 0.031
0.318 0.033 0.030
0.306 0.034 0.029
0.303 0.037 0.029
0.304 0.040 0.029
0.297 0.042 0.028
0.307 0.046 0.029
0.306 0.048 0.029
0.314 0.052 0.030
0.303 0.054 0.029
0.305 0.057 0.029
0.314 0.061 0.030
0.314 0.064 0.030
0.305 0.065 0.029
0.303 0.068 0.029
0.309 0.072 0.030
0.307 0.074 0.030
0.308 0.077 0.030
0.324 0.084 0.031
0.327 0.088 0.032
0.324 0.091 0.032
0.308 0.089 0.030
0.305 0.091 0.030
0.310 0.095 0.030
0.321 0.102 0.031
0.315 0.103 0.031
0.314 0.106 0.031
0.315 0.109 0.031
0.320 0.114 0.032
0.318 0.116 0.031
0.317 0.119 0.031
0.324 0.125 0.032
0.339 0.134 0.034
0.417 0.174 0.042
0.413 0.176 0.041
0.409 0.179 0.041
0.403 0.180 0.040
0.393 0.180 0.039
0.386 0.181 0.039
0.379 0.181 0.038
0.374 0.183 0.038
0.367 0.183 0.037
0.360 0.183 0.037
0.353 0.184 0.036
0.341 0.181 0.035
0.338 0.183 0.035
0.335 0.185 0.034
0.326 0.184 0.034
0.321 0.185 0.033
0.316 0.185 0.033
0.308 0.184 0.032
0.305 0.186 0.032
0.300 0.186 0.031
0.296 0.187 0.031
0.290 0.187 0.031
0.282 0.185 0.030
0.279 0.187 0.030
0.273 0.186 0.029
0.269 0.186 0.029
0.265 0.187 0.028
0.262 0.188 0.028
0.262 0.191 0.028
0.261 0.194 0.028
0.261 0.198 0.028
0.262 0.201 0.029
0.261 0.204 0.029
0.261 0.207 0.029
0.261 0.211 0.029
0.259 0.214 0.029
0.259 0.217 0.029
0.258 0.220 0.029
0.258 0.223 0.029
0.258 0.227 0.029
0.258 0.231 0.029
0.257 0.234 0.029
0.256 0.237 0.029
0.256 0.241 0.030
0.256 0.245 0.030
0.256 0.249 0.030
0.255 0.252 0.030
0.346 0.378 0.042
0.347 0.386 0.043
0.331 0.374 0.041
0.313 0.383 0.040
0.304 0.378 0.039
0.303 0.384 0.040
0.303 0.389 0.040
0.299 0.391 0.040
0.175 -0.242 0.025
0.179 -0.244 0.026
0.180 -0.242 0.026
0.179 -0.238 0.025
0.179 -0.235 0.025
0.181 -0.234 0.025
0.183 -0.233 0.026
0.185 -0.232 0.026
0.186 -0.230 0.026
0.188 -0.229 0.026
0.190 -0.228 0.026
0.192 -0.228 0.026
0.194 -0.226 0.026
0.196 -0.225 0.026
0.198 -0.224 0.026
0.200 -0.224 0.027
0.203 -0.223 0.027
0.204 -0.221 0.027
0.206 -0.220 0.027
0.208 -0.218 0.027
0.210 -0.217 0.027
0.213 -0.216 0.027
0.215 -0.216 0.027
0.218 -0.215 0.028
0.220 -0.214 0.028
0.224 -0.214 0.028
0.226 -0.213 0.028
0.228 -0.212 0.028
0.231 -0.211 0.029
0.234 -0.210 0.029
0.236 -0.209 0.029
0.239 -0.208 0.029
0.242 -0.208 0.029
0.245 -0.207 0.030
0.248 -0.206 0.030
0.250 -0.204 0.030
0.251 -0.202 0.030
0.239 -0.189 0.028
0.221 -0.172 0.026
0.213 -0.163 0.025
0.208 -0.157 0.024
0.210 -0.156 0.025
0.210 -0.153 0.025
0.209 -0.150 0.024
0.208 -0.147 0.024
0.215 -0.149 0.025
0.216 -0.147 0.025
0.215 -0.144 0.025
0.207 -0.136 0.024
0.206 -0.133 0.023
0.205 -0.130 0.023
0.207 -0.129 0.023
0.209 -0.128 0.024
0.209 -0.126 0.024
0.207 -0.122 0.023
0.208 -0.121 0.023
0.214 -0.122 0.024
0.214 -0.119 0.024
0.215 -0.117 0.024
0.214 -0.115 0.024
0.215 -0.113 0.024
0.214 -0.110 0.024
0.211 -0.107 0.023
0.205 -0.101 0.023
0.211 -0.102 0.023
0.211 -0.100 0.023
0.210 -0.097 0.023
0.208 -0.094 0.023
0.213 -0.094 0.023
0.214 -0.093 0.023
0.215 -0.091 0.023
0.219 -0.091 0.024
0.219 -0.088 0.024
0.216 -0.085 0.023
0.213 -0.082 0.023
0.210 -0.079 0.023
0.218 -0.079 0.023
0.225 -0.080 0.024
0.231 -0.080 0.025
0.231 -0.078 0.025
0.232 -0.076 0.025
0.238 -0.075 0.025
0.253 -0.078 0.027
0.262 -0.078 0.028
0.267 -0.077 0.028
0.398 -0.107 0.042
0.403 -0.105 0.043
0.409 -0.102 0.043
0.425 -0.102 0.045
0.412 -0.095 0.044
0.318 -0.068 0.034
0.368 -0.075 0.039
0.377 -0.073 0.040
0.370 -0.069 0.039
0.285 -0.048 0.030
0.286 -0.045 0.030
0.287 -0.043 0.030
0.288 -0.040 0.030
0.290 -0.038 0.030
0.289 -0.035 0.030
0.288 -0.033 0.030
0.289 -0.030 0.030
0.289 -0.027 0.030
0.289 -0.025 0.030
0.289 -0.022 0.030
0.288 -0.020 0.030
0.288 -0.017 0.030
0.292 -0.015 0.031
0.295 -0.012 0.031
0.300 -0.010 0.031
0.301 -0.007 0.031
0.300 -0.004 0.031
0.297 -0.001 0.031
0.302 0.001 0.032
0.307 0.004 0.032
0.301 0.007 0.031
0.304 0.009 0.032
0.308 0.012 0.032
0.309 0.015 0.032
0.307 0.018 0.032
0.303 0.020 0.032
0.324 0.025 0.034
0.320 0.027 0.034
0.318 0.030 0.033
0.306 0.032 0.032
0.309 0.035 0.032
0.302 0.037 0.032
0.304 0.040 0.032
0.311 0.043 0.033
0.298 0.044 0.031
0.321 0.051 0.034
0.311 0.052 0.033
0.302 0.053 0.032
0.306 0.057 0.032
0.314 0.061 0.033
0.315 0.064 0.033
0.303 0.065 0.032
0.296 0.066 0.031
0.295 0.069 0.031
0.293 0.071 0.031
0.298 0.075 0.032
0.313 0.082 0.033
0.323 0.087 0.034
0.315 0.088 0.034
0.309 0.089 0.033
0.301 0.090 0.032
0.305 0.094 0.033
0.302 0.096 0.032
0.317 0.104 0.034
0.316 0.106 0.034
0.314 0.109 0.034
0.322 0.115 0.035
0.329 0.121 0.036
0.325 0.122 0.035
0.328 0.127 0.036
0.337 0.134 0.037
0.408 0.178 0.045
0.405 0.181 0.044
0.394 0.180 0.043
0.385 0.180 0.042
0.377 0.180 0.042
0.370 0.181 0.041
0.365 0.182 0.040
0.357 0.182 0.040
0.352 0.183 0.039
0.341 0.181 0.038
0.336 0.182 0.038
0.332 0.184 0.037
0.327 0.184 0.037
0.322 0.185 0.036
0.314 0.184 0.036
0.307 0.184 0.035
0.304 0.185 0.035
0.300 0.186 0.034
0.295 0.187 0.034
0.287 0.185 0.033
0.282 0.185 0.033
0.279 0.187 0.032
0.275 0.187 0.032
0.269 0.187 0.031
0.265 0.187 0.031
0.263 0.189 0.031
0.261 0.191 0.031
0.262 0.195 0.031
0.261 0.197 0.031
0.261 0.201 0.031
0.260 0.204 0.031
0.260 0.207 0.031
0.260 0.211 0.031
0.259 0.214 0.032
0.258 0.217 0.032
0.258 0.220 0.032
0.258 0.223 0.032
0.257 0.226 0.032
0.257 0.230 0.032
0.256 0.234 0.032
0.257 0.238 0.032
0.256 0.241 0.032
0.255 0.244 0.032
0.254 0.247 0.033
0.254 0.252 0.033
0.353 0.380 0.047
0.340 0.372 0.045
0.322 0.364 0.044
0.301 0.357 0.042
0.299 0.361 0.042
0.313 0.383 0.044
0.302 0.376 0.043
0.303 0.383 0.043
0.301 0.387 0.043
0.300 0.392 0.043
0.180 -0.249 0.028
0.179 -0.244 0.028
0.179 -0.241 0.028
0.179 -0.238 0.028
0.179 -0.234 0.027
0.181 -0.234 0.028
0.183 -0.233 0.028
0.185 -0.232 0.028
0.186 -0.230 0.028
0.188 -0.229 0.028
0.190 -0.229 0.028
0.192 -0.228 0.028
0.194 -0.227 0.028
0.196 -0.225 0.028
0.198 -0.224 0.029
0.200 -0.223 0.029
0.202 -0.222 0.029
0.205 -0.222 0.029
0.206 -0.220 0.029
0.207 -0.218 0.029
0.209 -0.217 0.029
0.212 -0.216 0.030
0.215 -0.216 0.030
0.218 -0.215 0.030
0.221 -0.215 0.030
0.224 -0.215 0.030
0.226 -0.213 0.031
0.229 -0.212 0.031
0.231 -0.211 0.031
0.234 -0.210 0.031
0.240 -0.212 0.032
0.244 -0.213 0.032
0.249 -0.213 0.033
0.252 -0.213 0.033
0.253 -0.211 0.033
0.254 -0.208 0.033
0.252 -0.203 0.033
0.220 -0.172 0.028
0.210 -0.161 0.027
0.207 -0.156 0.026
0.206 -0.153 0.026
0.204 -0.149 0.026
0.208 -0.149 0.026
0.209 -0.147 0.026
0.209 -0.145 0.026
0.212 -0.145 0.027
0.210 -0.141 0.026
0.205 -0.135 0.025
0.206 -0.133 0.026
0.206 -0.131 0.025
0.209 -0.131 0.026
0.210 -0.129 0.026
0.211 -0.127 0.026
0.210 -0.124 0.026
0.204 -0.118 0.025
0.204 -0.116 0.025
0.211 -0.117 0.026
0.215 -0.117 0.026
0.216 -0.116 0.026
0.214 -0.113 0.026
0.213 -0.110 0.026
0.213 -0.108 0.026
0.213 -0.106 0.025
0.202 -0.098 0.024
0.210 -0.100 0.025
0.203 -0.094 0.024
0.212 -0.096 0.025
0.198 -0.088 0.023
0.207 -0.089 0.024
0.208 -0.088 0.025
0.216 -0.089 0.025
0.217 -0.088 0.025
0.214 -0.084 0.025
0.213 -0.082 0.025
0.213 -0.080 0.025
0.215 -0.078 0.025
0.223 -0.079 0.026
0.236 -0.081 0.027
0.252 -0.084 0.029
0.235 -0.077 0.027
0.242 -0.077 0.028
0.246 -0.075 0.028
0.258 -0.077 0.030
0.274 -0.079 0.032
0.399 -0.107 0.046
0.400 -0.104 0.046
0.413 -0.103 0.047
0.415 -0.100 0.048
0.415 -0.096 0.048
0.361 -0.074 0.041
0.373 -0.073 0.043
0.365 -0.068 0.042
0.283 -0.047 0.032
0.283 -0.045 0.032
0.285 -0.043 0.033
0.287 -0.040 0.033
0.288 -0.038 0.033
0.289 -0.035 0.033
0.288 -0.032 0.033
0.287 -0.030 0.033
0.288 -0.027 0.033
0.289 -0.025 0.033
0.291 -0.022 0.033
0.291 -0.020 0.033
0.291 -0.017 0.033
0.292 -0.015 0.033
0.294 -0.012 0.033
0.297 -0.009 0.034
0.300 -0.007 0.034
0.302 -0.004 0.034
0.298 -0.001 0.034
0.302 0.001 0.034
0.306 0.004 0.035
0.303 0.007 0.034
0.300 0.009 0.034
0.305 0.012 0.035
0.308 0.015 0.035
0.303 0.018 0.034
0.303 0.020 0.034
0.302 0.023 0.034
0.311 0.027 0.035
0.308 0.029 0.035
0.306 0.032 0.035
0.299 0.034 0.034
0.314 0.038 0.036
0.315 0.041 0.036
0.307 0.043 0.035
0.305 0.046 0.035
0.295 0.047 0.034
0.306 0.051 0.035
0.305 0.054 0.035
0.310 0.058 0.036
0.320 0.063 0.037
0.320 0.065 0.037
0.317 0.068 0.036
0.297 0.066 0.034
0.291 0.068 0.034
0.288 0.070 0.033
0.297 0.075 0.034
0.308 0.080 0.036
0.319 0.086 0.037
0.318 0.089 0.037
0.317 0.092 0.037
0.316 0.094 0.037
0.295 0.091 0.034
0.305 0.097 0.036
0.328 0.108 0.038
0.322 0.109 0.038
0.312 0.108 0.036
0.318 0.114 0.037
0.326 0.120 0.038
0.324 0.122 0.038
0.321 0.124 0.038
0.321 0.127 0.038
0.318 0.129 0.038
0.328 0.137 0.039
0.386 0.169 0.046
0.400 0.179 0.048
0.394 0.180 0.047
0.383 0.179 0.046
0.375 0.180 0.045
0.369 0.181 0.044
0.363 0.181 0.044
0.357 0.182 0.043
0.350 0.182 0.042
0.342 0.182 0.041
0.339 0.184 0.041
0.329 0.182 0.040
0.325 0.184 0.040
0.322 0.185 0.039
0.314 0.184 0.039
0.308 0.184 0.038
0.303 0.185 0.037
0.299 0.186 0.037
0.294 0.186 0.037
0.288 0.186 0.036
0.284 0.186 0.036
0.278 0.186 0.035
0.274 0.187 0.035
0.269 0.186 0.034
0.266 0.187 0.034
0.263 0.189 0.034
0.261 0.191 0.033
0.261 0.194 0.034
0.261 0.197 0.034
0.260 0.200 0.034
0.260 0.203 0.034
0.260 0.207 0.034
0.260 0.211 0.034
0.259 0.214 0.034
0.258 0.216 0.034
0.258 0.220 0.034
0.257 0.223 0.034
0.257 0.227 0.035
0.257 0.230 0.035
0.256 0.233 0.035
0.257 0.238 0.035
0.256 0.242 0.035
0.255 0.244 0.035
0.255 0.249 0.035
0.252 0.250 0.035
0.359 0.368 0.051
0.364 0.379 0.052
0.309 0.343 0.045
0.296 0.335 0.044
0.292 0.335 0.043
0.295 0.344 0.044
0.291 0.346 0.044
0.297 0.359 0.045
0.302 0.371 0.046
0.304 0.379 0.047
0.302 0.382 0.047
0.299 0.385 0.047
0.297 0.388 0.047
0.181 -0.250 0.031
0.178 -0.243 0.030
0.179 -0.242 0.030
0.179 -0.239 0.030
0.184 -0.241 0.030
0.187 -0.242 0.031
0.189 -0.241 0.031
0.188 -0.237 0.031
0.188 -0.233 0.030
0.190 -0.233 0.031
0.193 -0.233 0.031
0.196 -0.233 0.031
0.199 -0.233 0.031
0.203 -0.233 0.032
0.206 -0.234 0.032
0.279 -0.259 0.041
0.282 -0.258 0.041
0.288 -0.260 0.041
0.289 -0.256 0.041
0.291 -0.254 0.042
0.292 -0.251 0.042
0.294 -0.249 0.042
0.295 -0.245 0.042
0.295 -0.241 0.041
0.210 -0.161 0.029
0.207 -0.156 0.028
0.203 -0.151 0.028
0.205 -0.149 0.028
0.208 -0.149 0.028
0.206 -0.146 0.028
0.206 -0.143 0.028
0.204 -0.139 0.028
0.205 -0.137 0.028
0.210 -0.138 0.028
0.211 -0.136 0.028
0.211 -0.134 0.028
0.211 -0.132 0.028
0.210 -0.129 0.028
0.211 -0.127 0.028
0.210 -0.124 0.028
0.209 -0.121 0.027
0.205 -0.117 0.027
0.208 -0.116 0.027
0.215 -0.118 0.028
0.218 -0.117 0.028
0.213 -0.112 0.028
0.209 -0.108 0.027
0.214 -0.108 0.028
0.217 -0.107 0.028
0.211 -0.102 0.027
0.205 -0.097 0.026
0.211 -0.098 0.027
0.209 -0.095 0.027
0.215 -0.095 0.027
0.207 -0.090 0.026
0.210 -0.089 0.027
0.213 -0.088 0.027
0.216 -0.087 0.027
0.215 -0.085 0.027
0.215 -0.083 0.027
0.215 -0.080 0.027
0.217 -0.079 0.027
0.223 -0.079 0.028
0.226 -0.078 0.028
0.239 -0.080 0.030
0.239 -0.078 0.030
0.243 -0.077 0.030
0.247 -0.076 0.031
0.253 -0.075 0.032
0.401 -0.108 0.050
0.406 -0.106 0.050
0.416 -0.104 0.052
0.417 -0.101 0.052
0.408 -0.095 0.051
0.354 -0.072 0.044
0.359 -0.070 0.044
0.351 -0.065 0.043
0.337 -0.060 0.042
0.281 -0.047 0.035
0.283 -0.045 0.035
0.286 -0.043 0.035
0.286 -0.040 0.035
0.288 -0.038 0.035
0.287 -0.035 0.035
0.286 -0.032 0.035
0.284 -0.030 0.035
0.286 -0.027 0.035
0.289 -0.025 0.035
0.291 -0.022 0.036
0.291 -0.020 0.036
0.291 -0.017 0.036
0.290 -0.014 0.036
0.291 -0.012 0.036
0.294 -0.009 0.036
0.297 -0.007 0.036
0.298 -0.004 0.037
0.299 -0.001 0.037
0.302 0.001 0.037
0.307 0.004 0.038
0.308 0.007 0.038
0.298 0.009 0.037
0.297 0.012 0.036
0.306 0.015 0.038
0.310 0.018 0.038
0.306 0.021 0.038
0.304 0.023 0.037
0.304 0.026 0.037
0.306 0.029 0.038
0.303 0.031 0.037
0.308 0.035 0.038
0.315 0.038 0.039
0.313 0.041 0.039
0.298 0.042 0.037
0.290 0.043 0.036
0.296 0.047 0.037
0.302 0.051 0.037
0.317 0.056 0.039
0.320 0.059 0.040
0.315 0.062 0.039
0.322 0.066 0.040
0.308 0.066 0.038
0.299 0.067 0.037
0.296 0.069 0.037
0.298 0.072 0.037
0.297 0.075 0.037
0.306 0.080 0.038
0.315 0.085 0.039
0.321 0.090 0.040
0.324 0.094 0.041
0.325 0.097 0.041
0.301 0.093 0.038
0.309 0.098 0.039
0.329 0.108 0.041
0.322 0.109 0.041
0.313 0.109 0.039
0.314 0.112 0.040
0.317 0.116 0.040
0.313 0.118 0.040
0.309 0.119 0.039
0.309 0.123 0.039
0.310 0.126 0.040
0.322 0.134 0.041
0.378 0.165 0.048
0.392 0.175 0.050
0.392 0.180 0.051
0.384 0.180 0.050
0.375 0.179 0.049
0.370 0.181 0.048
0.365 0.183 0.048
0.356 0.182 0.046
0.349 0.182 0.046
0.345 0.183 0.045
0.335 0.182 0.044
0.329 0.182 0.043
0.325 0.184 0.043
0.318 0.183 0.042
0.315 0.185 0.042
0.309 0.185 0.041
0.302 0.185 0.040
0.298 0.186 0.040
0.294 0.186 0.039
0.289 0.187 0.039
0.285 0.187 0.039
0.280 0.188 0.038
0.272 0.185 0.037
0.269 0.186 0.037
0.266 0.188 0.036
0.263 0.189 0.036
0.261 0.191 0.036
0.260 0.194 0.036
0.260 0.197 0.036
0.260 0.200 0.036
0.260 0.203 0.036
0.260 0.207 0.037
0.260 0.211 0.037
0.259 0.214 0.037
0.258 0.216 0.037
0.257 0.220 0.037
0.257 0.223 0.037
0.257 0.227 0.037
0.257 0.230 0.037
0.257 0.234 0.038
0.255 0.237 0.038
0.256 0.242 0.038
0.256 0.246 0.038
0.255 0.248 0.038
0.254 0.252 0.038
0.352 0.361 0.054
0.356 0.370 0.055
0.351 0.372 0.054
0.344 0.371 0.054
0.308 0.338 0.048
0.297 0.331 0.047
0.290 0.328 0.046
0.288 0.331 0.046
0.288 0.337 0.046
0.290 0.345 0.047
0.295 0.357 0.048
0.304 0.373 0.050
0.304 0.379 0.050
0.300 0.381 0.050
0.298 0.384 0.050
0.296 0.388 0.050
0.172 -0.237 0.031
0.178 -0.243 0.032
0.181 -0.244 0.032
0.189 -0.251 0.034
0.254 -0.333 0.045
0.274 -0.325 0.047
0.278 -0.325 0.047
0.276 -0.318 0.046
0.280 -0.318 0.047
0.284 -0.318 0.047
0.286 -0.315 0.047
0.286 -0.311 0.047
0.285 -0.305 0.047
0.281 -0.295 0.046
0.287 -0.298 0.046
0.288 -0.294 0.046
0.289 -0.291 0.046
0.293 -0.290 0.047
0.295 -0.287 0.047
