VERSION .7
FIELDS x y z
SIZE 4 4 4
TYPE F F F
COUNT 1 1 1
WIDTH     2432
HEIGHT 1
VIEWPOINT 0 0 0 1 0 0 0
POINTS     2432
DATA ascii
0.325 -0.370 -0.123
0.323 -0.362 -0.121
0.318 -0.352 -0.119
0.318 -0.347 -0.118
0.318 -0.341 -0.118
0.317 -0.335 -0.117
0.316 -0.328 -0.116
0.316 -0.324 -0.115
0.316 -0.319 -0.115
0.316 -0.314 -0.114
0.317 -0.310 -0.114
0.316 -0.305 -0.113
0.315 -0.299 -0.112
0.313 -0.292 -0.111
0.313 -0.287 -0.111
0.312 -0.282 -0.110
0.306 -0.272 -0.107
0.307 -0.269 -0.107
0.307 -0.265 -0.107
0.306 -0.260 -0.106
0.304 -0.254 -0.105
0.303 -0.249 -0.104
0.303 -0.245 -0.104
0.303 -0.241 -0.104
0.305 -0.238 -0.104
0.303 -0.233 -0.103
0.301 -0.228 -0.102
0.299 -0.222 -0.101
0.293 -0.214 -0.098
0.286 -0.205 -0.096
0.208 -0.142 -0.069
0.208 -0.139 -0.069
0.208 -0.137 -0.069
0.209 -0.135 -0.069
0.221 -0.140 -0.072
0.224 -0.140 -0.073
0.227 -0.139 -0.074
0.228 -0.137 -0.074
0.209 -0.123 -0.068
0.209 -0.121 -0.068
0.209 -0.118 -0.068
0.213 -0.118 -0.069
0.242 -0.132 -0.078
0.244 -0.130 -0.078
0.244 -0.128 -0.078
0.244 -0.125 -0.078
0.251 -0.126 -0.080
0.298 -0.146 -0.095
0.307 -0.148 -0.098
0.312 -0.147 -0.099
0.317 -0.146 -0.101
0.320 -0.144 -0.101
0.323 -0.142 -0.102
0.301 -0.123 -0.095
0.287 -0.115 -0.090
0.283 -0.108 -0.089
0.288 -0.107 -0.090
0.355 -0.128 -0.111
0.359 -0.126 -0.112
0.370 -0.126 -0.115
0.379 -0.125 -0.118
0.386 -0.124 -0.120
0.391 -0.122 -0.121
0.400 -0.121 -0.124
0.407 -0.119 -0.126
0.413 -0.117 -0.128
0.419 -0.114 -0.129
0.439 -0.116 -0.135
0.444 -0.113 -0.137
0.441 -0.108 -0.136
0.430 -0.101 -0.132
0.413 -0.089 -0.127
0.392 -0.081 -0.120
0.381 -0.075 -0.117
0.374 -0.070 -0.115
0.281 -0.050 -0.086
0.283 -0.048 -0.087
0.284 -0.046 -0.087
0.287 -0.043 -0.088
0.289 -0.041 -0.088
0.293 -0.039 -0.089
0.292 -0.036 -0.089
0.293 -0.033 -0.089
0.299 -0.031 -0.091
0.313 -0.030 -0.095
0.316 -0.027 -0.096
0.309 -0.024 -0.094
0.308 -0.021 -0.094
0.309 -0.018 -0.094
0.313 -0.016 -0.095
0.313 -0.013 -0.095
0.324 -0.010 -0.099
0.334 -0.008 -0.102
0.329 -0.005 -0.100
0.313 -0.001 -0.095
0.309 0.001 -0.094
0.315 0.004 -0.096
0.319 0.007 -0.097
0.318 0.010 -0.097
0.314 0.013 -0.096
0.333 0.017 -0.101
0.328 0.019 -0.100
0.329 0.023 -0.101
0.325 0.025 -0.099
0.320 0.028 -0.098
0.319 0.031 -0.097
0.325 0.034 -0.099
0.329 0.038 -0.101
0.320 0.040 -0.098
0.317 0.042 -0.097
0.315 0.045 -0.096
0.314 0.048 -0.096
0.314 0.051 -0.096
0.320 0.054 -0.098
0.323 0.058 -0.099
0.325 0.061 -0.100
0.320 0.064 -0.099
0.329 0.068 -0.101
0.333 0.072 -0.103
0.346 0.079 -0.107
0.341 0.081 -0.105
0.329 0.081 -0.102
0.330 0.084 -0.102
0.332 0.088 -0.103
0.319 0.088 -0.099
0.306 0.087 -0.095
0.306 0.090 -0.095
0.320 0.097 -0.100
0.342 0.107 -0.107
0.325 0.105 -0.101
0.314 0.105 -0.098
0.313 0.107 -0.098
0.316 0.111 -0.099
0.317 0.115 -0.100
0.295 0.113 -0.093
0.339 0.151 -0.108
0.334 0.152 -0.107
0.390 0.211 -0.127
0.382 0.215 -0.124
0.381 0.219 -0.124
0.323 -0.439 -0.125
0.323 -0.435 -0.125
0.325 -0.432 -0.125
0.324 -0.425 -0.124
0.324 -0.419 -0.123
0.320 -0.409 -0.121
0.322 -0.405 -0.121
0.321 -0.398 -0.120
0.321 -0.393 -0.120
0.316 -0.381 -0.118
0.320 -0.380 -0.119
0.323 -0.378 -0.119
0.324 -0.374 -0.119
0.317 -0.361 -0.116
0.317 -0.355 -0.115
0.322 -0.355 -0.116
0.320 -0.348 -0.115
0.319 -0.342 -0.114
0.319 -0.336 -0.114
0.318 -0.330 -0.113
0.317 -0.324 -0.112
0.315 -0.317 -0.111
0.314 -0.311 -0.110
0.313 -0.306 -0.109
0.312 -0.300 -0.108
0.313 -0.296 -0.108
0.310 -0.289 -0.107
0.308 -0.283 -0.106
0.309 -0.279 -0.106
0.308 -0.274 -0.105
0.307 -0.268 -0.104
0.307 -0.264 -0.104
0.306 -0.259 -0.103
0.304 -0.253 -0.102
0.302 -0.248 -0.101
0.302 -0.244 -0.100
0.303 -0.241 -0.100
0.302 -0.236 -0.100
0.302 -0.232 -0.099
0.299 -0.226 -0.098
0.297 -0.220 -0.097
0.294 -0.215 -0.096
0.288 -0.207 -0.094
0.209 -0.142 -0.067
0.207 -0.139 -0.066
0.207 -0.136 -0.066
0.209 -0.135 -0.067
0.220 -0.140 -0.070
0.223 -0.139 -0.071
0.228 -0.139 -0.072
0.228 -0.137 -0.072
0.210 -0.124 -0.066
0.208 -0.120 -0.065
0.208 -0.118 -0.065
0.210 -0.116 -0.066
0.242 -0.132 -0.075
0.244 -0.130 -0.076
0.244 -0.128 -0.076
0.244 -0.125 -0.076
0.245 -0.123 -0.076
0.253 -0.124 -0.078
0.304 -0.146 -0.094
0.312 -0.147 -0.096
0.318 -0.146 -0.098
0.320 -0.144 -0.098
0.321 -0.141 -0.098
0.343 -0.147 -0.105
0.304 -0.124 -0.093
0.280 -0.106 -0.085
0.278 -0.103 -0.084
0.353 -0.127 -0.107
0.361 -0.126 -0.109
0.372 -0.127 -0.112
0.381 -0.126 -0.115
0.386 -0.124 -0.116
0.393 -0.122 -0.118
0.403 -0.121 -0.121
0.408 -0.119 -0.122
0.414 -0.117 -0.124
0.425 -0.116 -0.127
0.427 -0.112 -0.128
0.441 -0.112 -0.132
0.440 -0.107 -0.131
0.437 -0.103 -0.130
0.423 -0.091 -0.126
0.384 -0.076 -0.114
0.375 -0.071 -0.111
0.291 -0.052 -0.086
0.287 -0.049 -0.085
0.284 -0.046 -0.084
0.284 -0.043 -0.084
0.293 -0.042 -0.087
0.295 -0.039 -0.087
0.296 -0.037 -0.088
0.296 -0.034 -0.088
0.308 -0.032 -0.091
0.300 -0.029 -0.089
0.313 -0.027 -0.093
0.314 -0.024 -0.093
0.305 -0.021 -0.090
0.312 -0.018 -0.092
0.308 -0.015 -0.091
0.315 -0.013 -0.093
0.322 -0.010 -0.095
0.327 -0.007 -0.097
0.321 -0.004 -0.095
0.310 -0.001 -0.092
0.310 0.001 -0.091
0.317 0.004 -0.094
0.319 0.007 -0.094
0.319 0.010 -0.094
0.324 0.013 -0.096
0.335 0.017 -0.099
0.340 0.020 -0.101
0.317 0.022 -0.094
0.308 0.024 -0.091
0.306 0.027 -0.091
0.306 0.029 -0.091
0.305 0.032 -0.090
0.306 0.035 -0.091
0.307 0.038 -0.091
0.307 0.041 -0.091
0.310 0.044 -0.092
0.312 0.047 -0.093
0.325 0.052 -0.097
0.326 0.056 -0.097
0.326 0.059 -0.097
0.322 0.061 -0.096
0.318 0.063 -0.095
0.318 0.066 -0.095
0.330 0.072 -0.099
0.342 0.078 -0.102
0.344 0.081 -0.103
0.337 0.083 -0.101
0.328 0.084 -0.098
0.327 0.087 -0.098
0.311 0.085 -0.093
0.312 0.089 -0.094
0.322 0.095 -0.097
0.329 0.100 -0.099
0.332 0.104 -0.100
0.324 0.105 -0.098
0.318 0.106 -0.096
0.317 0.109 -0.096
0.321 0.113 -0.097
0.323 0.117 -0.098
0.322 0.120 -0.098
0.312 0.119 -0.095
0.341 0.151 -0.105
0.342 0.155 -0.105
0.362 0.188 -0.113
0.357 0.189 -0.112
0.394 0.213 -0.124
0.400 0.221 -0.126
0.393 0.221 -0.124
0.377 0.217 -0.119
0.385 0.226 -0.122
0.319 -0.434 -0.119
0.320 -0.430 -0.119
0.322 -0.427 -0.120
0.323 -0.423 -0.119
0.326 -0.421 -0.120
0.328 -0.418 -0.120
0.324 -0.408 -0.118
0.321 -0.398 -0.117
0.314 -0.384 -0.114
0.316 -0.381 -0.114
0.318 -0.378 -0.114
0.322 -0.377 -0.115
0.321 -0.370 -0.114
0.318 -0.361 -0.112
0.316 -0.353 -0.111
0.319 -0.352 -0.112
0.319 -0.347 -0.111
0.319 -0.341 -0.111
0.318 -0.335 -0.110
0.318 -0.330 -0.109
0.314 -0.321 -0.107
0.312 -0.313 -0.106
0.311 -0.308 -0.105
0.310 -0.303 -0.105
0.311 -0.299 -0.104
0.309 -0.292 -0.103
0.305 -0.284 -0.102
0.306 -0.280 -0.101
0.306 -0.276 -0.101
0.307 -0.272 -0.101
0.307 -0.268 -0.101
0.305 -0.262 -0.100
0.305 -0.258 -0.099
0.302 -0.251 -0.098
0.300 -0.246 -0.097
0.301 -0.242 -0.097
0.299 -0.237 -0.096
0.300 -0.233 -0.096
0.300 -0.230 -0.095
0.296 -0.223 -0.094
0.295 -0.218 -0.093
0.289 -0.211 -0.091
0.287 -0.205 -0.090
0.262 -0.184 -0.082
0.250 -0.173 -0.078
0.213 -0.145 -0.066
0.207 -0.138 -0.064
0.207 -0.136 -0.064
0.210 -0.135 -0.065
0.218 -0.138 -0.067
0.223 -0.139 -0.068
0.225 -0.137 -0.069
0.226 -0.135 -0.069
0.214 -0.126 -0.065
0.208 -0.120 -0.063
0.209 -0.118 -0.063
0.209 -0.116 -0.063
0.232 -0.126 -0.070
0.243 -0.130 -0.073
0.245 -0.128 -0.074
0.244 -0.125 -0.073
0.244 -0.122 -0.073
0.251 -0.123 -0.075
0.305 -0.146 -0.091
0.308 -0.145 -0.092
0.316 -0.145 -0.094
0.318 -0.143 -0.094
0.318 -0.140 -0.094
0.340 -0.146 -0.101
0.324 -0.133 -0.096
0.306 -0.122 -0.090
0.293 -0.114 -0.086
0.279 -0.106 -0.082
0.273 -0.101 -0.080
0.353 -0.127 -0.103
0.355 -0.124 -0.104
0.372 -0.126 -0.108
0.380 -0.125 -0.111
0.387 -0.124 -0.113
0.394 -0.122 -0.115
0.402 -0.121 -0.117
0.409 -0.119 -0.119
0.415 -0.117 -0.120
0.422 -0.115 -0.122
0.433 -0.114 -0.125
0.440 -0.112 -0.127
0.445 -0.109 -0.129
0.443 -0.104 -0.128
0.422 -0.091 -0.122
0.422 -0.087 -0.122
0.294 -0.053 -0.085
0.293 -0.050 -0.084
0.286 -0.046 -0.082
0.283 -0.043 -0.081
0.297 -0.042 -0.085
0.298 -0.040 -0.085
0.299 -0.037 -0.086
0.303 -0.035 -0.087
0.300 -0.032 -0.086
0.303 -0.029 -0.087
0.298 -0.026 -0.085
0.300 -0.023 -0.086
0.310 -0.021 -0.089
0.311 -0.018 -0.089
0.321 -0.016 -0.092
0.326 -0.013 -0.093
0.325 -0.010 -0.093
0.326 -0.007 -0.093
0.319 -0.004 -0.091
0.310 -0.001 -0.089
0.307 0.001 -0.088
0.316 0.004 -0.090
0.329 0.007 -0.094
0.319 0.010 -0.091
0.322 0.013 -0.092
0.313 0.016 -0.090
0.304 0.018 -0.087
0.303 0.021 -0.087
0.306 0.024 -0.088
0.308 0.027 -0.088
0.307 0.029 -0.088
0.308 0.032 -0.088
0.310 0.035 -0.089
0.310 0.038 -0.089
0.308 0.041 -0.089
0.309 0.044 -0.089
0.310 0.047 -0.089
0.308 0.050 -0.089
0.308 0.052 -0.089
0.326 0.059 -0.094
0.317 0.060 -0.092
0.316 0.063 -0.091
0.320 0.066 -0.092
0.324 0.070 -0.094
0.333 0.075 -0.096
0.340 0.080 -0.099
0.341 0.084 -0.099
0.328 0.084 -0.095
0.298 0.079 -0.087
0.307 0.084 -0.089
0.323 0.091 -0.094
0.334 0.098 -0.097
0.340 0.103 -0.099
0.322 0.101 -0.094
0.320 0.103 -0.094
0.322 0.107 -0.095
0.331 0.113 -0.097
0.337 0.119 -0.099
0.339 0.123 -0.100
0.331 0.123 -0.098
0.347 0.154 -0.103
0.328 0.149 -0.098
0.362 0.188 -0.110
0.358 0.189 -0.109
0.379 0.214 -0.116
0.385 0.225 -0.118
0.380 0.227 -0.117
0.380 0.231 -0.117
0.408 0.273 -0.128
0.317 -0.437 -0.115
0.317 -0.431 -0.114
0.319 -0.428 -0.115
0.321 -0.425 -0.115
0.323 -0.423 -0.116
0.324 -0.418 -0.115
0.324 -0.413 -0.115
0.321 -0.404 -0.113
0.317 -0.393 -0.111
0.317 -0.387 -0.111
0.317 -0.381 -0.110
0.316 -0.375 -0.109
0.314 -0.367 -0.108
0.315 -0.363 -0.108
0.314 -0.356 -0.107
0.316 -0.354 -0.108
0.316 -0.348 -0.107
0.314 -0.341 -0.106
0.314 -0.335 -0.105
0.314 -0.331 -0.105
0.313 -0.324 -0.104
0.311 -0.317 -0.103
0.310 -0.312 -0.102
0.309 -0.306 -0.101
0.309 -0.301 -0.101
0.309 -0.297 -0.100
0.308 -0.291 -0.100
0.307 -0.285 -0.099
0.304 -0.278 -0.097
0.303 -0.273 -0.097
0.304 -0.269 -0.097
0.304 -0.265 -0.096
0.303 -0.260 -0.096
0.304 -0.256 -0.095
0.302 -0.251 -0.095
0.300 -0.245 -0.093
0.299 -0.240 -0.093
0.296 -0.234 -0.092
0.296 -0.230 -0.091
0.295 -0.226 -0.091
0.295 -0.222 -0.090
0.283 -0.209 -0.086
0.284 -0.206 -0.086
0.236 -0.166 -0.071
0.237 -0.164 -0.072
0.215 -0.146 -0.065
0.208 -0.139 -0.062
0.208 -0.136 -0.062
0.210 -0.135 -0.063
0.215 -0.136 -0.064
0.222 -0.138 -0.066
0.225 -0.137 -0.066
0.224 -0.134 -0.066
0.221 -0.130 -0.065
0.208 -0.120 -0.061
0.209 -0.118 -0.061
0.209 -0.116 -0.061
0.222 -0.120 -0.065
0.241 -0.129 -0.070
0.243 -0.127 -0.071
0.243 -0.124 -0.071
0.244 -0.122 -0.071
0.246 -0.120 -0.071
0.298 -0.143 -0.086
0.309 -0.145 -0.089
0.314 -0.144 -0.090
0.317 -0.142 -0.091
0.318 -0.139 -0.091
0.325 -0.139 -0.093
0.324 -0.132 -0.092
0.305 -0.118 -0.087
0.349 -0.125 -0.099
0.365 -0.127 -0.103
0.371 -0.126 -0.105
0.375 -0.124 -0.106
0.384 -0.123 -0.108
0.392 -0.122 -0.110
0.399 -0.120 -0.112
0.409 -0.119 -0.115
0.416 -0.117 -0.117
0.425 -0.116 -0.119
0.432 -0.114 -0.121
0.441 -0.112 -0.123
0.450 -0.110 -0.126
0.446 -0.104 -0.124
0.409 -0.088 -0.114
0.405 -0.084 -0.113
0.398 -0.078 -0.111
0.382 -0.072 -0.106
0.295 -0.053 -0.082
0.295 -0.050 -0.082
0.295 -0.047 -0.082
0.291 -0.044 -0.081
0.294 -0.042 -0.082
0.301 -0.040 -0.083
0.304 -0.037 -0.084
0.305 -0.035 -0.084
0.309 -0.032 -0.086
0.304 -0.029 -0.084
0.300 -0.026 -0.083
0.305 -0.024 -0.084
0.309 -0.021 -0.085
0.324 -0.019 -0.090
0.345 -0.017 -0.096
0.333 -0.014 -0.092
0.321 -0.010 -0.089
0.321 -0.007 -0.089
0.315 -0.004 -0.087
0.310 -0.001 -0.086
0.312 0.001 -0.086
0.314 0.004 -0.087
0.331 0.008 -0.092
0.309 0.010 -0.085
0.304 0.012 -0.084
0.306 0.015 -0.085
0.306 0.018 -0.085
0.306 0.021 -0.085
0.309 0.024 -0.086
0.310 0.027 -0.086
0.310 0.030 -0.086
0.310 0.033 -0.086
0.311 0.035 -0.086
0.312 0.039 -0.087
0.312 0.041 -0.087
0.312 0.044 -0.087
0.311 0.047 -0.086
0.310 0.050 -0.086
0.309 0.053 -0.086
0.310 0.055 -0.086
0.310 0.058 -0.087
0.316 0.062 -0.088
0.326 0.068 -0.091
0.323 0.070 -0.090
0.323 0.073 -0.091
0.335 0.079 -0.094
0.339 0.083 -0.095
0.324 0.082 -0.091
0.320 0.087 -0.090
0.325 0.092 -0.091
0.324 0.095 -0.091
0.322 0.101 -0.091
0.310 0.100 -0.088
0.317 0.105 -0.090
0.337 0.115 -0.096
0.346 0.122 -0.098
0.335 0.121 -0.095
0.339 0.126 -0.097
0.344 0.131 -0.098
1.259 0.506 -0.361
0.334 0.151 -0.097
0.354 0.168 -0.103
0.360 0.186 -0.105
0.363 0.196 -0.107
0.368 0.203 -0.108
0.375 0.211 -0.111
0.389 0.228 -0.116
0.379 0.226 -0.113
0.382 0.232 -0.114
0.408 0.258 -0.123
0.378 0.257 -0.115
0.315 -0.434 -0.111
0.318 -0.431 -0.111
0.319 -0.427 -0.111
0.320 -0.424 -0.111
0.322 -0.421 -0.111
0.319 -0.411 -0.110
0.318 -0.404 -0.109
0.317 -0.397 -0.108
0.317 -0.392 -0.107
0.319 -0.389 -0.108
0.317 -0.381 -0.106
0.314 -0.372 -0.105
0.314 -0.366 -0.104
0.314 -0.361 -0.104
0.314 -0.355 -0.103
0.314 -0.351 -0.103
0.315 -0.347 -0.103
0.312 -0.338 -0.101
0.312 -0.332 -0.101
0.311 -0.327 -0.100
0.311 -0.322 -0.100
0.311 -0.316 -0.099
0.310 -0.310 -0.098
0.308 -0.304 -0.097
0.308 -0.300 -0.097
0.308 -0.295 -0.097
0.308 -0.290 -0.096
0.306 -0.284 -0.095
0.303 -0.277 -0.094
0.303 -0.272 -0.093
0.302 -0.267 -0.093
0.302 -0.263 -0.092
0.302 -0.259 -0.092
0.302 -0.255 -0.092
0.303 -0.251 -0.091
0.299 -0.244 -0.090
0.297 -0.238 -0.089
0.292 -0.231 -0.087
0.290 -0.225 -0.086
0.283 -0.212 -0.084
0.285 -0.211 -0.084
0.235 -0.168 -0.069
0.234 -0.164 -0.068
0.214 -0.148 -0.062
0.214 -0.145 -0.062
0.210 -0.140 -0.061
0.210 -0.137 -0.061
0.210 -0.135 -0.061
0.214 -0.135 -0.061
0.221 -0.137 -0.063
0.219 -0.133 -0.063
0.219 -0.131 -0.063
0.222 -0.130 -0.063
0.208 -0.120 -0.059
0.209 -0.118 -0.059
0.210 -0.116 -0.059
0.218 -0.118 -0.061
0.241 -0.128 -0.068
0.243 -0.126 -0.068
0.243 -0.124 -0.068
0.244 -0.122 -0.068
0.246 -0.121 -0.069
0.312 -0.146 -0.087
0.314 -0.144 -0.087
0.316 -0.142 -0.088
0.317 -0.139 -0.088
0.316 -0.135 -0.087
0.313 -0.131 -0.086
0.310 -0.126 -0.085
0.318 -0.126 -0.087
0.306 -0.119 -0.084
0.370 -0.129 -0.101
0.370 -0.125 -0.101
0.377 -0.124 -0.103
0.383 -0.122 -0.104
0.388 -0.120 -0.105
0.397 -0.119 -0.108
0.403 -0.117 -0.109
0.416 -0.117 -0.113
0.422 -0.115 -0.114
0.429 -0.113 -0.116
0.440 -0.111 -0.119
0.449 -0.109 -0.121
0.453 -0.106 -0.122
0.408 -0.088 -0.110
0.400 -0.082 -0.108
0.398 -0.078 -0.107
0.388 -0.073 -0.104
0.296 -0.053 -0.079
0.298 -0.050 -0.080
0.297 -0.047 -0.080
0.293 -0.044 -0.079
0.294 -0.042 -0.079
0.295 -0.039 -0.079
0.308 -0.038 -0.083
0.313 -0.036 -0.084
0.312 -0.033 -0.084
0.306 -0.029 -0.082
0.305 -0.026 -0.082
0.306 -0.024 -0.082
0.315 -0.022 -0.084
0.323 -0.019 -0.086
0.338 -0.017 -0.090
0.312 -0.013 -0.083
0.322 -0.010 -0.086
0.318 -0.007 -0.085
0.312 -0.004 -0.083
0.317 -0.001 -0.085
0.313 0.001 -0.084
0.328 0.004 -0.088
0.303 0.007 -0.081
0.304 0.010 -0.081
0.306 0.013 -0.082
0.308 0.015 -0.082
0.309 0.018 -0.083
0.309 0.021 -0.083
0.311 0.024 -0.083
0.312 0.027 -0.084
0.311 0.030 -0.083
0.311 0.033 -0.083
0.312 0.036 -0.084
0.314 0.039 -0.084
0.313 0.042 -0.084
0.314 0.044 -0.084
0.313 0.047 -0.084
0.312 0.050 -0.084
0.311 0.053 -0.084
0.312 0.056 -0.084
0.311 0.059 -0.084
0.310 0.061 -0.084
0.313 0.065 -0.085
0.339 0.073 -0.091
0.322 0.073 -0.087
0.323 0.076 -0.087
0.334 0.082 -0.090
0.318 0.081 -0.086
0.311 0.082 -0.085
0.319 0.087 -0.087
0.329 0.093 -0.089
0.313 0.092 -0.085
0.311 0.094 -0.085
0.316 0.099 -0.086
0.306 0.098 -0.084
0.343 0.117 -0.094
0.330 0.116 -0.091
0.331 0.120 -0.091
0.343 0.127 -0.095
0.352 0.134 -0.097
1.257 0.505 -0.348
0.340 0.154 -0.095
0.360 0.186 -0.102
0.366 0.193 -0.104
0.353 0.191 -0.100
0.357 0.196 -0.102
0.368 0.207 -0.105
0.390 0.228 -0.112
0.388 0.231 -0.112
0.391 0.275 -0.115
0.313 -0.431 -0.106
0.315 -0.428 -0.106
0.317 -0.425 -0.106
0.316 -0.418 -0.106
0.314 -0.410 -0.105
0.316 -0.407 -0.105
0.314 -0.398 -0.103
0.314 -0.393 -0.103
0.316 -0.391 -0.104
0.316 -0.384 -0.103
0.315 -0.378 -0.102
0.313 -0.370 -0.101
0.313 -0.365 -0.101
0.315 -0.362 -0.101
0.313 -0.354 -0.099
0.313 -0.349 -0.099
0.313 -0.344 -0.099
0.312 -0.338 -0.098
0.310 -0.330 -0.097
0.310 -0.325 -0.096
0.311 -0.321 -0.096
0.310 -0.315 -0.095
0.308 -0.309 -0.094
0.309 -0.305 -0.094
0.309 -0.300 -0.094
0.308 -0.295 -0.093
0.307 -0.289 -0.092
0.305 -0.283 -0.091
0.303 -0.276 -0.090
0.302 -0.271 -0.090
0.302 -0.267 -0.089
0.302 -0.262 -0.089
0.300 -0.257 -0.088
0.299 -0.251 -0.087
0.299 -0.248 -0.087
0.295 -0.241 -0.086
0.290 -0.232 -0.084
0.223 -0.171 -0.064
0.230 -0.173 -0.066
0.248 -0.183 -0.070
0.252 -0.182 -0.071
0.237 -0.169 -0.067
0.234 -0.164 -0.066
0.214 -0.147 -0.060
0.214 -0.145 -0.060
0.211 -0.140 -0.059
0.212 -0.138 -0.059
0.213 -0.137 -0.059
0.219 -0.138 -0.061
0.221 -0.137 -0.061
0.222 -0.135 -0.061
0.223 -0.133 -0.061
0.223 -0.131 -0.061
0.209 -0.120 -0.057
0.209 -0.118 -0.057
0.210 -0.116 -0.057
0.213 -0.115 -0.058
0.242 -0.129 -0.066
0.244 -0.127 -0.066
0.244 -0.124 -0.066
0.244 -0.122 -0.066
0.246 -0.121 -0.066
0.312 -0.146 -0.084
0.315 -0.144 -0.084
0.317 -0.142 -0.085
0.317 -0.139 -0.085
0.314 -0.134 -0.084
0.306 -0.128 -0.082
0.273 -0.103 -0.072
0.349 -0.125 -0.092
0.360 -0.125 -0.095
0.370 -0.125 -0.097
0.377 -0.124 -0.099
0.382 -0.122 -0.100
0.387 -0.120 -0.101
0.391 -0.117 -0.102
0.401 -0.117 -0.105
0.409 -0.115 -0.107
0.416 -0.113 -0.109
0.426 -0.112 -0.111
0.437 -0.111 -0.114
0.451 -0.110 -0.117
0.445 -0.104 -0.116
0.425 -0.095 -0.110
0.409 -0.088 -0.106
0.404 -0.083 -0.105
0.401 -0.079 -0.104
0.393 -0.074 -0.102
0.293 -0.052 -0.076
0.292 -0.049 -0.076
0.290 -0.046 -0.075
0.291 -0.044 -0.075
0.291 -0.041 -0.075
0.306 -0.040 -0.079
0.314 -0.039 -0.081
0.306 -0.035 -0.079
0.307 -0.032 -0.079
0.308 -0.029 -0.080
0.297 -0.026 -0.077
0.305 -0.024 -0.079
0.313 -0.021 -0.081
0.321 -0.019 -0.083
0.314 -0.016 -0.081
0.319 -0.013 -0.082
0.312 -0.010 -0.080
0.305 -0.007 -0.079
0.323 -0.004 -0.083
0.323 -0.001 -0.083
0.319 0.001 -0.082
0.302 0.004 -0.078
0.304 0.007 -0.078
0.305 0.010 -0.079
0.306 0.013 -0.079
0.309 0.015 -0.080
0.310 0.018 -0.080
0.310 0.021 -0.080
0.312 0.024 -0.081
0.313 0.027 -0.081
0.314 0.030 -0.081
0.313 0.033 -0.081
0.314 0.036 -0.081
0.314 0.039 -0.081
0.313 0.041 -0.081
0.313 0.044 -0.081
0.315 0.047 -0.082
0.315 0.050 -0.082
0.314 0.053 -0.082
0.314 0.056 -0.081
0.313 0.059 -0.081
0.311 0.061 -0.081
0.312 0.065 -0.081
0.313 0.068 -0.082
0.321 0.072 -0.084
0.323 0.076 -0.084
0.317 0.077 -0.083
0.313 0.080 -0.082
0.317 0.083 -0.083
0.330 0.090 -0.086
0.330 0.093 -0.087
0.324 0.095 -0.085
0.320 0.100 -0.084
0.308 0.099 -0.081
0.315 0.107 -0.083
0.315 0.111 -0.083
0.340 0.123 -0.090
0.349 0.129 -0.093
1.253 0.503 -0.335
1.268 0.521 -0.339
0.348 0.158 -0.094
0.368 0.194 -0.101
0.358 0.193 -0.098
0.353 0.194 -0.097
0.366 0.205 -0.101
0.370 0.212 -0.102
0.382 0.223 -0.106
0.391 0.232 -0.108
0.378 0.229 -0.105
0.392 0.252 -0.110
0.393 0.262 -0.111
0.309 -0.424 -0.101
0.312 -0.423 -0.101
0.312 -0.418 -0.101
0.310 -0.410 -0.100
0.311 -0.405 -0.100
0.311 -0.400 -0.099
0.314 -0.398 -0.100
0.311 -0.389 -0.098
0.312 -0.385 -0.098
0.312 -0.380 -0.098
0.312 -0.374 -0.097
0.311 -0.368 -0.097
0.312 -0.363 -0.097
0.312 -0.358 -0.096
0.312 -0.353 -0.096
0.311 -0.346 -0.095
0.312 -0.342 -0.094
0.310 -0.335 -0.094
0.311 -0.330 -0.093
0.310 -0.324 -0.093
0.309 -0.318 -0.092
0.308 -0.313 -0.091
0.308 -0.308 -0.091
0.309 -0.304 -0.091
0.308 -0.298 -0.090
0.307 -0.293 -0.089
0.307 -0.288 -0.089
0.304 -0.282 -0.088
0.303 -0.276 -0.087
0.303 -0.272 -0.087
0.302 -0.267 -0.086
0.300 -0.260 -0.085
0.297 -0.254 -0.084
0.297 -0.250 -0.084
0.298 -0.246 -0.084
0.296 -0.241 -0.083
0.298 -0.238 -0.083
0.229 -0.177 -0.063
0.217 -0.166 -0.060
0.219 -0.164 -0.060
0.237 -0.175 -0.065
0.250 -0.181 -0.068
0.239 -0.170 -0.065
0.235 -0.165 -0.064
0.215 -0.148 -0.058
0.225 -0.152 -0.061
0.215 -0.143 -0.058
0.216 -0.138 -0.058
0.221 -0.139 -0.059
0.223 -0.138 -0.059
0.220 -0.133 -0.058
0.221 -0.132 -0.058
0.221 -0.130 -0.059
0.211 -0.121 -0.056
0.209 -0.118 -0.055
0.209 -0.115 -0.055
0.210 -0.114 -0.055
0.234 -0.124 -0.061
0.246 -0.128 -0.064
0.247 -0.126 -0.064
0.243 -0.121 -0.063
0.244 -0.119 -0.063
0.296 -0.141 -0.077
0.312 -0.146 -0.081
0.314 -0.144 -0.081
0.317 -0.142 -0.082
0.317 -0.139 -0.082
0.318 -0.136 -0.082
0.299 -0.122 -0.076
0.287 -0.114 -0.073
0.349 -0.125 -0.089
0.359 -0.125 -0.091
0.367 -0.124 -0.093
0.371 -0.122 -0.094
0.379 -0.121 -0.096
0.382 -0.118 -0.097
0.391 -0.117 -0.099
0.398 -0.115 -0.100
0.406 -0.114 -0.102
0.416 -0.113 -0.105
0.425 -0.111 -0.107
0.439 -0.111 -0.110
0.444 -0.108 -0.111
0.443 -0.104 -0.111
0.423 -0.095 -0.106
0.410 -0.088 -0.103
0.406 -0.083 -0.102
0.403 -0.079 -0.101
0.289 -0.051 -0.072
0.288 -0.049 -0.072
0.289 -0.046 -0.072
0.290 -0.044 -0.072
0.298 -0.042 -0.074
0.319 -0.042 -0.079
0.319 -0.039 -0.079
0.299 -0.034 -0.074
0.297 -0.031 -0.074
0.296 -0.028 -0.074
0.311 -0.027 -0.077
0.309 -0.024 -0.077
0.326 -0.019 -0.081
0.327 -0.016 -0.081
0.313 -0.013 -0.078
0.307 -0.010 -0.076
0.320 -0.007 -0.079
0.329 -0.005 -0.082
0.329 -0.002 -0.082
0.302 0.001 -0.075
0.304 0.004 -0.075
0.305 0.007 -0.076
0.307 0.010 -0.076
0.308 0.013 -0.077
0.310 0.015 -0.077
0.311 0.018 -0.077
0.312 0.021 -0.078
0.313 0.024 -0.078
0.314 0.027 -0.078
0.314 0.030 -0.078
0.315 0.033 -0.078
0.315 0.036 -0.079
0.315 0.039 -0.079
0.314 0.042 -0.078
0.313 0.044 -0.078
0.316 0.048 -0.079
0.316 0.051 -0.079
0.316 0.053 -0.079
0.315 0.056 -0.079
0.315 0.059 -0.079
0.315 0.062 -0.079
0.313 0.065 -0.079
0.312 0.067 -0.078
0.312 0.070 -0.078
0.324 0.076 -0.082
0.321 0.078 -0.081
0.316 0.080 -0.080
0.327 0.086 -0.083
0.334 0.091 -0.084
0.335 0.094 -0.085
0.330 0.096 -0.084
0.306 0.092 -0.078
0.307 0.096 -0.078
0.325 0.108 -0.083
0.319 0.109 -0.081
0.332 0.120 -0.085
0.348 0.129 -0.089
0.347 0.132 -0.089
1.233 0.494 -0.317
0.346 0.156 -0.090
0.344 0.159 -0.090
0.384 0.202 -0.101
0.362 0.195 -0.096
0.355 0.195 -0.094
0.360 0.202 -0.096
0.358 0.204 -0.095
0.348 0.203 -0.093
0.349 0.207 -0.093
0.370 0.224 -0.099
0.395 0.293 -0.110
0.302 -0.420 -0.095
0.307 -0.421 -0.096
0.307 -0.417 -0.096
0.306 -0.410 -0.095
0.308 -0.406 -0.095
0.309 -0.403 -0.095
0.312 -0.401 -0.096
0.312 -0.396 -0.095
0.312 -0.391 -0.095
0.311 -0.383 -0.094
0.312 -0.379 -0.094
0.312 -0.374 -0.094
0.313 -0.369 -0.094
0.312 -0.362 -0.093
0.312 -0.358 -0.092
0.312 -0.352 -0.092
0.309 -0.343 -0.091
0.308 -0.337 -0.090
0.311 -0.336 -0.090
0.311 -0.331 -0.090
0.308 -0.322 -0.089
0.307 -0.316 -0.088
0.308 -0.312 -0.088
0.308 -0.307 -0.087
0.306 -0.301 -0.086
0.305 -0.296 -0.086
0.306 -0.292 -0.086
0.306 -0.287 -0.085
0.304 -0.281 -0.084
0.303 -0.276 -0.084
0.304 -0.272 -0.084
0.302 -0.266 -0.083
0.299 -0.260 -0.082
0.297 -0.254 -0.081
0.297 -0.249 -0.080
0.298 -0.246 -0.081
0.301 -0.245 -0.081
0.293 -0.234 -0.078
0.229 -0.177 -0.061
0.221 -0.168 -0.059
0.213 -0.160 -0.056
0.215 -0.158 -0.057
0.235 -0.170 -0.062
0.248 -0.176 -0.065
0.236 -0.165 -0.062
0.219 -0.151 -0.057
0.227 -0.153 -0.059
0.226 -0.150 -0.058
0.213 -0.139 -0.055
0.217 -0.139 -0.056
0.220 -0.138 -0.057
0.221 -0.137 -0.057
0.221 -0.134 -0.057
0.219 -0.131 -0.056
0.220 -0.129 -0.056
0.213 -0.122 -0.054
0.208 -0.117 -0.053
0.209 -0.115 -0.053
0.209 -0.113 -0.053
0.231 -0.122 -0.058
0.243 -0.126 -0.061
0.248 -0.126 -0.062
0.243 -0.121 -0.061
0.244 -0.119 -0.061
0.253 -0.121 -0.063
0.314 -0.147 -0.078
0.315 -0.144 -0.078
0.315 -0.141 -0.078
0.318 -0.139 -0.079
0.320 -0.136 -0.079
0.287 -0.117 -0.071
0.283 -0.109 -0.070
0.278 -0.105 -0.068
0.346 -0.124 -0.085
0.360 -0.125 -0.088
0.364 -0.123 -0.089
0.372 -0.122 -0.091
0.375 -0.120 -0.091
0.382 -0.118 -0.093
0.387 -0.116 -0.094
0.396 -0.115 -0.096
0.404 -0.113 -0.098
0.413 -0.112 -0.100
0.427 -0.112 -0.103
0.439 -0.111 -0.106
0.443 -0.108 -0.107
0.443 -0.103 -0.107
0.421 -0.094 -0.102
0.412 -0.088 -0.099
0.408 -0.084 -0.098
0.288 -0.051 -0.069
0.289 -0.049 -0.070
0.292 -0.046 -0.070
0.294 -0.044 -0.070
0.298 -0.042 -0.072
0.317 -0.042 -0.076
0.319 -0.039 -0.077
0.299 -0.034 -0.072
0.303 -0.032 -0.073
0.300 -0.029 -0.072
0.308 -0.027 -0.074
0.315 -0.024 -0.075
0.311 -0.021 -0.074
0.320 -0.019 -0.076
0.326 -0.016 -0.078
0.310 -0.013 -0.074
0.313 -0.010 -0.075
0.323 -0.007 -0.077
0.326 -0.004 -0.078
0.301 -0.001 -0.072
0.302 0.001 -0.072
0.304 0.004 -0.073
0.307 0.007 -0.074
0.308 0.010 -0.074
0.310 0.013 -0.074
0.312 0.016 -0.075
0.313 0.018 -0.075
0.314 0.021 -0.075
0.314 0.024 -0.075
0.314 0.027 -0.075
0.315 0.030 -0.076
0.316 0.033 -0.076
0.316 0.036 -0.076
0.316 0.039 -0.076
0.316 0.042 -0.076
0.317 0.045 -0.076
0.316 0.048 -0.076
0.317 0.051 -0.076
0.317 0.054 -0.076
0.317 0.057 -0.076
0.316 0.059 -0.076
0.316 0.062 -0.076
0.315 0.065 -0.076
0.313 0.068 -0.076
0.312 0.070 -0.076
0.312 0.073 -0.076
0.330 0.081 -0.080
0.329 0.083 -0.080
0.323 0.085 -0.079
0.331 0.090 -0.081
0.334 0.094 -0.081
0.326 0.095 -0.080
0.333 0.100 -0.081
0.313 0.097 -0.077
0.327 0.105 -0.080
0.337 0.112 -0.083
0.330 0.115 -0.081
0.324 0.117 -0.080
0.333 0.123 -0.082
0.339 0.153 -0.085
0.340 0.157 -0.085
0.344 0.177 -0.087
0.360 0.193 -0.091
0.353 0.193 -0.090
0.353 0.198 -0.090
0.351 0.200 -0.090
0.343 0.199 -0.088
0.351 0.208 -0.090
0.368 0.231 -0.095
0.372 0.238 -0.097
0.370 0.250 -0.097
0.359 0.251 -0.095
0.314 -0.436 -0.095
0.307 -0.420 -0.092
0.306 -0.414 -0.092
0.306 -0.410 -0.092
0.308 -0.406 -0.092
0.311 -0.405 -0.092
0.312 -0.400 -0.092
0.311 -0.394 -0.092
0.310 -0.387 -0.091
0.310 -0.382 -0.090
0.311 -0.377 -0.090
0.311 -0.372 -0.090
0.313 -0.368 -0.090
0.313 -0.363 -0.089
0.310 -0.355 -0.088
0.308 -0.347 -0.087
0.309 -0.343 -0.087
0.305 -0.333 -0.085
0.309 -0.332 -0.086
0.307 -0.326 -0.085
0.305 -0.319 -0.084
0.305 -0.314 -0.084
0.305 -0.309 -0.084
0.305 -0.305 -0.083
0.304 -0.298 -0.082
0.304 -0.294 -0.082
0.305 -0.290 -0.082
0.305 -0.286 -0.082
0.303 -0.280 -0.081
0.303 -0.275 -0.080
0.303 -0.271 -0.080
0.302 -0.265 -0.079
0.300 -0.259 -0.079
0.300 -0.256 -0.078
0.296 -0.249 -0.077
0.297 -0.245 -0.077
0.298 -0.242 -0.077
0.292 -0.233 -0.075
0.207 -0.155 -0.053
0.213 -0.157 -0.054
0.238 -0.172 -0.060
0.240 -0.171 -0.061
0.221 -0.154 -0.056
0.221 -0.152 -0.055
0.228 -0.154 -0.057
0.228 -0.151 -0.057
0.217 -0.142 -0.054
0.217 -0.139 -0.054
0.219 -0.138 -0.054
0.218 -0.134 -0.054
0.213 -0.129 -0.052
0.218 -0.130 -0.053
0.220 -0.128 -0.054
0.222 -0.127 -0.054
0.208 -0.117 -0.051
0.209 -0.115 -0.051
0.209 -0.113 -0.051
0.219 -0.116 -0.053
0.242 -0.126 -0.059
0.244 -0.124 -0.059
0.243 -0.121 -0.059
0.244 -0.119 -0.059
0.251 -0.120 -0.060
0.316 -0.147 -0.075
0.314 -0.144 -0.075
0.315 -0.140 -0.075
0.317 -0.138 -0.075
0.327 -0.139 -0.078
0.282 -0.115 -0.067
0.274 -0.109 -0.065
0.276 -0.107 -0.065
0.267 -0.100 -0.063
0.252 -0.092 -0.059
0.359 -0.125 -0.084
0.364 -0.123 -0.086
0.370 -0.121 -0.087
0.377 -0.120 -0.088
0.381 -0.118 -0.089
0.389 -0.116 -0.091
0.394 -0.114 -0.092
0.401 -0.112 -0.094
0.412 -0.112 -0.096
0.421 -0.110 -0.098
0.433 -0.109 -0.101
0.447 -0.109 -0.104
0.447 -0.104 -0.104
0.402 -0.086 -0.093
0.400 -0.082 -0.093
0.386 -0.076 -0.089
0.373 -0.070 -0.086
0.286 -0.051 -0.066
0.289 -0.049 -0.067
0.291 -0.046 -0.067
0.293 -0.044 -0.068
0.296 -0.042 -0.068
0.311 -0.041 -0.072
0.303 -0.037 -0.070
0.306 -0.035 -0.070
0.306 -0.032 -0.071
0.306 -0.029 -0.070
0.312 -0.027 -0.072
0.307 -0.021 -0.071
0.314 -0.019 -0.072
0.314 -0.016 -0.072
0.310 -0.013 -0.071
0.316 -0.010 -0.073
0.322 -0.007 -0.074
0.304 -0.004 -0.070
0.300 -0.001 -0.069
0.303 0.001 -0.070
0.306 0.004 -0.070
0.309 0.007 -0.071
0.309 0.010 -0.071
0.311 0.013 -0.072
0.313 0.016 -0.072
0.316 0.019 -0.073
0.316 0.021 -0.073
0.314 0.024 -0.072
0.316 0.027 -0.073
0.317 0.030 -0.073
0.317 0.033 -0.073
0.318 0.036 -0.073
0.318 0.039 -0.073
0.318 0.042 -0.074
0.318 0.045 -0.074
0.318 0.048 -0.074
0.318 0.051 -0.074
0.318 0.054 -0.074
0.318 0.057 -0.074
0.317 0.059 -0.074
0.316 0.062 -0.073
0.316 0.065 -0.073
0.315 0.068 -0.073
0.314 0.070 -0.073
0.313 0.073 -0.073
0.314 0.076 -0.073
0.330 0.084 -0.077
0.324 0.085 -0.076
0.321 0.088 -0.075
0.328 0.092 -0.077
0.332 0.097 -0.078
0.328 0.099 -0.077
0.329 0.102 -0.077
0.321 0.103 -0.075
0.340 0.112 -0.080
0.340 0.116 -0.080
0.339 0.125 -0.080
0.339 0.153 -0.081
0.345 0.159 -0.083
0.333 0.172 -0.081
0.342 0.180 -0.083
0.353 0.190 -0.086
0.345 0.189 -0.084
0.347 0.194 -0.085
0.348 0.198 -0.086
0.362 0.211 -0.089
0.375 0.222 -0.093
0.378 0.228 -0.094
0.360 0.222 -0.090
0.365 0.242 -0.092
0.406 0.305 -0.104
0.308 -0.428 -0.089
0.308 -0.421 -0.089
0.308 -0.416 -0.089
0.308 -0.411 -0.088
0.311 -0.410 -0.089
0.310 -0.403 -0.088
0.310 -0.398 -0.088
0.308 -0.389 -0.087
0.305 -0.381 -0.086
0.308 -0.379 -0.086
0.308 -0.373 -0.086
0.307 -0.366 -0.085
0.309 -0.363 -0.085
0.310 -0.359 -0.085
0.307 -0.351 -0.084
0.307 -0.345 -0.083
0.308 -0.342 -0.083
0.309 -0.337 -0.083
0.306 -0.329 -0.082
0.307 -0.325 -0.082
0.304 -0.318 -0.081
0.304 -0.313 -0.080
0.305 -0.308 -0.080
0.303 -0.302 -0.079
0.302 -0.297 -0.079
0.302 -0.292 -0.078
0.304 -0.289 -0.078
0.304 -0.285 -0.078
0.302 -0.278 -0.077
0.301 -0.273 -0.077
0.302 -0.270 -0.077
0.297 -0.261 -0.075
0.299 -0.259 -0.075
0.299 -0.254 -0.075
0.297 -0.249 -0.074
0.295 -0.243 -0.073
0.299 -0.242 -0.074
0.288 -0.230 -0.071
0.281 -0.221 -0.069
0.213 -0.159 -0.052
0.220 -0.161 -0.053
0.226 -0.163 -0.055
0.239 -0.170 -0.058
0.228 -0.159 -0.055
0.225 -0.155 -0.054
0.231 -0.156 -0.055
0.232 -0.154 -0.055
0.218 -0.142 -0.052
0.219 -0.140 -0.052
0.220 -0.138 -0.052
0.215 -0.133 -0.051
0.208 -0.126 -0.049
0.210 -0.125 -0.049
0.219 -0.128 -0.051
0.223 -0.128 -0.052
0.208 -0.117 -0.049
0.208 -0.115 -0.048
0.209 -0.113 -0.049
0.212 -0.112 -0.049
0.241 -0.125 -0.056
0.244 -0.124 -0.057
0.246 -0.122 -0.057
0.243 -0.119 -0.056
0.244 -0.117 -0.056
0.312 -0.146 -0.072
0.313 -0.143 -0.072
0.313 -0.140 -0.072
0.314 -0.137 -0.072
0.271 -0.107 -0.061
0.269 -0.104 -0.061
0.269 -0.101 -0.061
0.359 -0.125 -0.081
0.362 -0.122 -0.082
0.370 -0.121 -0.083
0.374 -0.119 -0.084
0.379 -0.117 -0.085
0.388 -0.116 -0.087
0.395 -0.114 -0.088
0.400 -0.112 -0.089
0.413 -0.112 -0.092
0.421 -0.110 -0.094
0.429 -0.108 -0.096
0.445 -0.108 -0.099
0.449 -0.105 -0.100
0.441 -0.099 -0.098
0.407 -0.087 -0.091
0.392 -0.080 -0.087
0.387 -0.076 -0.086
0.372 -0.069 -0.083
0.283 -0.050 -0.063
0.286 -0.048 -0.063
0.288 -0.046 -0.064
0.288 -0.043 -0.064
0.294 -0.041 -0.065
0.299 -0.039 -0.066
0.301 -0.037 -0.067
0.296 -0.034 -0.066
0.305 -0.032 -0.067
0.313 -0.030 -0.069
0.322 -0.028 -0.071
0.325 -0.025 -0.072
0.323 -0.022 -0.071
0.315 -0.019 -0.070
0.312 -0.016 -0.069
0.310 -0.013 -0.068
0.317 -0.010 -0.070
0.311 -0.007 -0.069
0.302 -0.004 -0.067
0.304 -0.001 -0.067
0.306 0.001 -0.067
0.308 0.004 -0.068
0.308 0.007 -0.068
0.310 0.010 -0.068
0.313 0.013 -0.069
0.316 0.016 -0.070
0.316 0.019 -0.070
0.317 0.022 -0.070
0.318 0.025 -0.070
0.319 0.027 -0.071
0.319 0.030 -0.071
0.319 0.033 -0.071
0.319 0.036 -0.071
0.320 0.039 -0.071
0.320 0.042 -0.071
0.320 0.045 -0.071
0.321 0.048 -0.071
0.320 0.051 -0.071
0.319 0.054 -0.071
0.318 0.057 -0.071
0.317 0.059 -0.070
0.317 0.062 -0.071
0.316 0.065 -0.071
0.316 0.068 -0.070
0.315 0.071 -0.070
0.315 0.074 -0.070
0.315 0.077 -0.071
0.317 0.080 -0.071
0.322 0.085 -0.072
0.319 0.087 -0.072
0.322 0.091 -0.072
0.328 0.095 -0.074
0.329 0.099 -0.074
0.323 0.100 -0.073
0.313 0.100 -0.071
0.334 0.110 -0.075
0.333 0.113 -0.075
0.328 0.115 -0.074
0.339 0.122 -0.077
0.346 0.128 -0.079
0.332 0.126 -0.076
0.357 0.161 -0.082
0.360 0.166 -0.083
0.337 0.173 -0.079
0.354 0.186 -0.083
0.356 0.191 -0.083
0.343 0.188 -0.081
0.342 0.191 -0.081
0.358 0.204 -0.084
0.370 0.215 -0.088
0.381 0.226 -0.090
0.384 0.232 -0.091
0.371 0.228 -0.088
0.362 0.227 -0.087
0.366 0.234 -0.088
0.361 0.239 -0.087
0.388 0.272 -0.095
0.386 0.275 -0.094
0.305 -0.423 -0.085
0.305 -0.418 -0.084
0.306 -0.414 -0.084
0.307 -0.410 -0.084
0.303 -0.399 -0.083
0.307 -0.399 -0.084
0.306 -0.392 -0.083
0.304 -0.384 -0.082
0.305 -0.380 -0.082
0.306 -0.376 -0.082
0.307 -0.372 -0.082
0.305 -0.364 -0.081
0.306 -0.360 -0.081
0.308 -0.357 -0.081
0.307 -0.350 -0.080
0.307 -0.345 -0.080
0.308 -0.341 -0.080
0.307 -0.335 -0.079
0.307 -0.330 -0.079
0.306 -0.323 -0.078
0.304 -0.317 -0.077
0.305 -0.313 -0.077
0.304 -0.308 -0.077
0.303 -0.302 -0.076
0.302 -0.296 -0.075
0.301 -0.290 -0.075
0.301 -0.286 -0.074
0.301 -0.282 -0.074
0.301 -0.277 -0.074
0.300 -0.272 -0.073
0.298 -0.266 -0.072
0.298 -0.262 -0.072
0.298 -0.258 -0.072
0.299 -0.254 -0.072
0.297 -0.249 -0.071
0.298 -0.245 -0.071
0.299 -0.242 -0.071
0.302 -0.241 -0.072
0.295 -0.231 -0.070
0.289 -0.223 -0.068
0.229 -0.171 -0.053
0.222 -0.163 -0.052
0.224 -0.162 -0.052
0.227 -0.161 -0.053
0.237 -0.166 -0.055
0.236 -0.162 -0.054
0.244 -0.164 -0.056
0.239 -0.159 -0.055
0.221 -0.144 -0.051
0.220 -0.141 -0.050
0.222 -0.139 -0.050
0.211 -0.130 -0.048
0.206 -0.125 -0.047
0.209 -0.124 -0.047
0.215 -0.125 -0.048
0.224 -0.128 -0.050
0.207 -0.116 -0.046
0.208 -0.114 -0.046
0.209 -0.113 -0.047
0.211 -0.112 -0.047
0.236 -0.122 -0.052
0.243 -0.123 -0.054
0.246 -0.122 -0.054
0.243 -0.118 -0.054
0.243 -0.116 -0.054
0.312 -0.142 -0.069
0.313 -0.140 -0.069
0.313 -0.136 -0.069
0.282 -0.114 -0.061
0.272 -0.108 -0.059
0.268 -0.103 -0.058
0.261 -0.098 -0.057
0.250 -0.092 -0.054
0.358 -0.124 -0.077
0.362 -0.122 -0.078
0.368 -0.121 -0.079
0.372 -0.118 -0.080
0.379 -0.117 -0.081
0.389 -0.116 -0.084
0.394 -0.114 -0.085
0.399 -0.112 -0.086
0.414 -0.112 -0.089
0.419 -0.109 -0.090
0.427 -0.108 -0.091
0.438 -0.106 -0.094
0.447 -0.104 -0.096
0.446 -0.100 -0.095
0.431 -0.092 -0.092
0.399 -0.082 -0.085
0.388 -0.076 -0.083
0.378 -0.071 -0.080
0.285 -0.051 -0.061
0.286 -0.048 -0.061
0.288 -0.046 -0.061
0.289 -0.043 -0.061
0.295 -0.042 -0.063
0.303 -0.040 -0.064
0.299 -0.037 -0.063
0.295 -0.033 -0.062
0.299 -0.031 -0.063
0.316 -0.030 -0.067
0.314 -0.027 -0.066
0.312 -0.021 -0.066
0.313 -0.018 -0.066
0.311 -0.016 -0.066
0.317 -0.013 -0.067
0.314 -0.010 -0.066
0.303 -0.007 -0.064
0.303 -0.004 -0.064
0.304 -0.001 -0.064
0.307 0.001 -0.065
0.308 0.004 -0.065
0.310 0.007 -0.066
0.311 0.010 -0.066
0.314 0.013 -0.067
0.316 0.016 -0.067
0.317 0.019 -0.067
0.318 0.022 -0.067
0.319 0.025 -0.068
0.320 0.028 -0.068
0.320 0.030 -0.068
0.320 0.033 -0.068
0.320 0.036 -0.068
0.320 0.039 -0.068
0.322 0.042 -0.069
0.322 0.045 -0.069
0.322 0.048 -0.068
0.321 0.051 -0.068
0.321 0.054 -0.068
0.319 0.057 -0.068
0.318 0.059 -0.068
0.318 0.062 -0.068
0.318 0.065 -0.068
0.317 0.068 -0.068
0.316 0.071 -0.068
0.316 0.074 -0.068
0.316 0.077 -0.068
0.314 0.079 -0.067
0.319 0.084 -0.069
0.320 0.087 -0.069
0.319 0.090 -0.069
0.325 0.094 -0.070
0.328 0.099 -0.071
0.323 0.100 -0.070
0.313 0.100 -0.068
0.312 0.103 -0.068
0.336 0.114 -0.073
0.331 0.115 -0.072
0.340 0.129 -0.074
0.358 0.161 -0.079
0.360 0.166 -0.080
0.359 0.188 -0.080
0.356 0.191 -0.080
0.346 0.189 -0.078
0.344 0.192 -0.078
0.354 0.201 -0.080
0.379 0.224 -0.086
0.387 0.233 -0.088
0.383 0.235 -0.087
0.373 0.233 -0.085
0.367 0.234 -0.084
0.369 0.239 -0.085
0.372 0.246 -0.086
0.386 0.260 -0.089
0.405 0.325 -0.097
0.302 -0.418 -0.080
0.299 -0.410 -0.079
0.301 -0.407 -0.079
0.301 -0.402 -0.079
0.302 -0.397 -0.079
0.301 -0.390 -0.078
0.300 -0.384 -0.078
0.304 -0.384 -0.079
0.306 -0.381 -0.079
0.306 -0.376 -0.078
0.307 -0.371 -0.078
0.305 -0.364 -0.077
0.307 -0.361 -0.077
0.307 -0.356 -0.077
0.308 -0.351 -0.077
0.307 -0.345 -0.076
0.307 -0.339 -0.076
0.306 -0.334 -0.075
0.306 -0.329 -0.075
0.305 -0.323 -0.074
0.303 -0.316 -0.074
0.305 -0.312 -0.074
0.301 -0.304 -0.072
0.303 -0.302 -0.073
0.302 -0.296 -0.072
0.302 -0.291 -0.071
0.300 -0.285 -0.071
0.301 -0.281 -0.071
0.301 -0.277 -0.071
0.302 -0.273 -0.070
0.303 -0.270 -0.070
0.300 -0.263 -0.069
0.301 -0.260 -0.069
0.301 -0.256 -0.069
0.304 -0.254 -0.070
0.306 -0.252 -0.070
0.306 -0.248 -0.070
0.306 -0.244 -0.069
0.306 -0.240 -0.069
0.295 -0.228 -0.066
0.226 -0.168 -0.050
0.220 -0.161 -0.049
0.221 -0.159 -0.049
0.230 -0.163 -0.051
0.234 -0.163 -0.052
0.239 -0.164 -0.053
0.243 -0.164 -0.053
0.244 -0.161 -0.053
0.233 -0.151 -0.051
0.222 -0.142 -0.048
0.225 -0.141 -0.049
0.208 -0.128 -0.045
0.206 -0.124 -0.044
0.206 -0.122 -0.044
0.212 -0.123 -0.045
0.222 -0.127 -0.048
0.208 -0.117 -0.045
0.207 -0.114 -0.044
0.208 -0.112 -0.044
0.209 -0.110 -0.044
0.231 -0.119 -0.049
0.244 -0.124 -0.052
0.245 -0.122 -0.052
0.243 -0.118 -0.051
0.243 -0.116 -0.051
0.314 -0.143 -0.066
0.316 -0.141 -0.066
0.315 -0.137 -0.066
0.324 -0.138 -0.068
0.326 -0.135 -0.068
0.267 -0.108 -0.056
0.264 -0.102 -0.055
0.259 -0.097 -0.054
0.249 -0.091 -0.052
0.358 -0.124 -0.074
0.364 -0.123 -0.075
0.368 -0.120 -0.076
0.373 -0.118 -0.077
0.383 -0.118 -0.079
0.389 -0.116 -0.080
0.394 -0.114 -0.081
0.399 -0.112 -0.082
0.410 -0.111 -0.084
0.417 -0.109 -0.085
0.424 -0.107 -0.087
0.433 -0.105 -0.088
0.444 -0.103 -0.091
0.444 -0.099 -0.091
0.407 -0.083 -0.083
0.391 -0.076 -0.080
0.386 -0.072 -0.078
0.290 -0.051 -0.059
0.290 -0.049 -0.059
0.292 -0.046 -0.059
0.289 -0.043 -0.059
0.309 -0.043 -0.063
0.308 -0.041 -0.062
0.294 -0.036 -0.060
0.296 -0.034 -0.060
0.315 -0.033 -0.064
0.316 -0.030 -0.064
0.287 -0.022 -0.058
0.295 -0.020 -0.060
0.308 -0.018 -0.062
0.317 -0.016 -0.064
0.321 -0.013 -0.065
0.311 -0.010 -0.063
0.303 -0.007 -0.061
0.304 -0.004 -0.061
0.306 -0.001 -0.062
0.308 0.001 -0.062
0.309 0.004 -0.063
0.312 0.007 -0.063
0.313 0.010 -0.063
0.315 0.013 -0.064
0.316 0.016 -0.064
0.317 0.019 -0.064
0.318 0.022 -0.065
0.320 0.025 -0.065
0.321 0.028 -0.065
0.321 0.030 -0.065
0.320 0.033 -0.065
0.320 0.036 -0.065
0.320 0.039 -0.065
0.322 0.042 -0.065
0.323 0.045 -0.066
0.321 0.048 -0.065
0.321 0.051 -0.065
0.322 0.054 -0.066
0.321 0.057 -0.065
0.320 0.060 -0.065
0.320 0.063 -0.065
0.319 0.066 -0.065
0.317 0.068 -0.065
0.316 0.071 -0.065
0.316 0.074 -0.065
0.316 0.077 -0.065
0.315 0.079 -0.065
0.313 0.082 -0.064
0.328 0.089 -0.067
0.318 0.089 -0.065
0.326 0.095 -0.067
0.327 0.098 -0.067
0.326 0.101 -0.067
0.323 0.103 -0.067
0.315 0.104 -0.065
0.324 0.110 -0.067
0.352 0.162 -0.074
0.356 0.186 -0.076
0.353 0.189 -0.076
0.347 0.189 -0.075
0.352 0.196 -0.076
0.367 0.209 -0.079
0.371 0.215 -0.080
0.383 0.227 -0.083
0.387 0.233 -0.084
0.382 0.239 -0.084
0.374 0.239 -0.082
0.379 0.246 -0.083
0.384 0.254 -0.085
0.376 0.253 -0.083
0.407 0.326 -0.093
0.259 -0.359 -0.066
0.292 -0.389 -0.073
0.298 -0.391 -0.074
0.295 -0.382 -0.073
0.297 -0.380 -0.073
0.302 -0.381 -0.074
0.304 -0.378 -0.075
0.305 -0.374 -0.074
0.298 -0.361 -0.072
0.302 -0.360 -0.073
0.306 -0.359 -0.074
0.309 -0.357 -0.074
0.307 -0.350 -0.073
0.307 -0.345 -0.073
0.308 -0.340 -0.073
0.304 -0.331 -0.071
0.305 -0.327 -0.071
0.306 -0.323 -0.071
0.305 -0.317 -0.071
0.301 -0.308 -0.069
0.303 -0.305 -0.069
0.303 -0.301 -0.069
0.304 -0.297 -0.069
0.304 -0.293 -0.069
0.304 -0.288 -0.068
0.302 -0.281 -0.068
0.304 -0.279 -0.068
0.307 -0.277 -0.068
0.308 -0.274 -0.068
0.310 -0.272 -0.068
0.307 -0.264 -0.067
0.306 -0.260 -0.067
0.307 -0.256 -0.067
0.308 -0.253 -0.067
0.307 -0.248 -0.066
0.307 -0.244 -0.066
0.310 -0.242 -0.067
0.305 -0.235 -0.065
0.220 -0.161 -0.047
0.227 -0.163 -0.048
0.227 -0.161 -0.048
0.230 -0.160 -0.048
0.241 -0.165 -0.051
0.243 -0.163 -0.051
0.240 -0.158 -0.050
0.239 -0.155 -0.050
0.224 -0.143 -0.047
0.224 -0.140 -0.046
0.211 -0.130 -0.044
0.206 -0.124 -0.042
0.206 -0.122 -0.042
0.207 -0.121 -0.043
0.214 -0.122 -0.044
0.215 -0.121 -0.044
0.206 -0.113 -0.042
0.207 -0.112 -0.042
0.208 -0.110 -0.042
0.219 -0.113 -0.044
0.242 -0.123 -0.049
0.245 -0.121 -0.049
0.244 -0.119 -0.049
0.244 -0.116 -0.049
0.244 -0.114 -0.049
0.315 -0.143 -0.063
0.317 -0.141 -0.063
0.317 -0.138 -0.063
0.318 -0.132 -0.063
0.263 -0.106 -0.052
0.262 -0.103 -0.052
0.263 -0.101 -0.052
0.275 -0.103 -0.055
0.358 -0.124 -0.071
0.361 -0.122 -0.071
0.371 -0.121 -0.073
0.377 -0.120 -0.074
0.381 -0.117 -0.075
0.387 -0.115 -0.076
0.391 -0.113 -0.077
0.399 -0.112 -0.078
0.409 -0.110 -0.080
0.415 -0.108 -0.081
0.422 -0.106 -0.082
0.434 -0.105 -0.085
0.440 -0.102 -0.086
0.438 -0.098 -0.085
0.397 -0.081 -0.077
0.392 -0.077 -0.076
0.384 -0.072 -0.075
0.289 -0.051 -0.056
0.293 -0.049 -0.057
0.291 -0.046 -0.056
0.291 -0.044 -0.056
0.294 -0.041 -0.057
0.292 -0.038 -0.057
0.292 -0.036 -0.057
0.299 -0.034 -0.058
0.322 -0.034 -0.062
0.329 -0.031 -0.064
0.314 -0.027 -0.061
0.303 -0.023 -0.059
0.306 -0.021 -0.059
0.305 -0.018 -0.059
0.313 -0.016 -0.061
0.319 -0.013 -0.062
0.303 -0.010 -0.059
0.303 -0.007 -0.059
0.305 -0.004 -0.059
0.306 -0.001 -0.059
0.308 0.001 -0.060
0.310 0.004 -0.060
0.313 0.007 -0.061
0.315 0.010 -0.061
0.316 0.013 -0.061
0.318 0.016 -0.061
0.318 0.019 -0.061
0.319 0.022 -0.062
0.327 0.025 -0.063
0.329 0.028 -0.064
0.320 0.030 -0.062
0.320 0.033 -0.062
0.319 0.036 -0.062
0.324 0.040 -0.063
0.328 0.043 -0.064
0.323 0.045 -0.063
0.322 0.048 -0.063
0.321 0.051 -0.062
0.322 0.054 -0.063
0.323 0.057 -0.063
0.322 0.060 -0.063
0.321 0.063 -0.063
0.321 0.066 -0.063
0.320 0.069 -0.062
0.317 0.071 -0.062
0.317 0.074 -0.062
0.317 0.077 -0.062
0.316 0.080 -0.062
0.313 0.082 -0.061
0.324 0.088 -0.064
0.325 0.091 -0.064
0.324 0.094 -0.064
0.323 0.097 -0.064
0.325 0.101 -0.064
0.323 0.103 -0.064
0.309 0.102 -0.061
0.318 0.108 -0.063
0.324 0.113 -0.064
0.328 0.118 -0.065
0.328 0.121 -0.065
0.343 0.130 -0.068
0.339 0.132 -0.068
0.334 0.154 -0.068
0.345 0.162 -0.070
0.310 0.152 -0.063
0.356 0.186 -0.073
0.353 0.189 -0.072
0.355 0.193 -0.073
0.364 0.203 -0.075
0.370 0.210 -0.076
0.375 0.217 -0.077
0.370 0.218 -0.077
0.374 0.225 -0.078
0.371 0.228 -0.077
0.373 0.233 -0.078
0.395 0.256 -0.083
0.366 0.250 -0.078
0.372 0.259 -0.079
0.365 0.283 -0.079
0.359 0.283 -0.078
0.262 -0.363 -0.063
0.258 -0.352 -0.062
0.267 -0.355 -0.064
0.276 -0.363 -0.066
0.282 -0.355 -0.066
0.296 -0.363 -0.069
0.296 -0.358 -0.068
0.299 -0.356 -0.069
0.303 -0.355 -0.069
0.306 -0.353 -0.070
0.307 -0.350 -0.070
0.305 -0.342 -0.069
0.301 -0.332 -0.068
0.307 -0.334 -0.069
0.299 -0.321 -0.067
0.304 -0.321 -0.067
0.308 -0.320 -0.068
0.307 -0.314 -0.067
0.307 -0.309 -0.067
0.307 -0.305 -0.067
0.307 -0.300 -0.066
0.309 -0.297 -0.066
0.311 -0.295 -0.067
0.305 -0.285 -0.065
0.307 -0.281 -0.065
0.310 -0.280 -0.066
0.311 -0.277 -0.066
0.311 -0.272 -0.065
0.309 -0.266 -0.065
0.310 -0.263 -0.065
0.309 -0.258 -0.064
0.312 -0.257 -0.065
0.313 -0.253 -0.065
0.311 -0.247 -0.064
0.314 -0.245 -0.064
0.314 -0.241 -0.064
0.229 -0.165 -0.046
0.226 -0.160 -0.045
0.222 -0.154 -0.044
0.236 -0.161 -0.047
0.238 -0.160 -0.047
0.234 -0.154 -0.047
0.220 -0.140 -0.043
0.215 -0.135 -0.042
0.204 -0.125 -0.040
0.204 -0.123 -0.040
0.205 -0.122 -0.040
0.207 -0.120 -0.040
0.209 -0.119 -0.041
0.217 -0.121 -0.042
0.205 -0.113 -0.040
0.206 -0.111 -0.040
0.208 -0.110 -0.040
0.214 -0.111 -0.041
0.240 -0.121 -0.046
0.243 -0.121 -0.047
0.246 -0.119 -0.047
0.243 -0.116 -0.047
0.244 -0.113 -0.047
0.304 -0.138 -0.058
0.316 -0.140 -0.060
0.318 -0.138 -0.061
0.307 -0.131 -0.058
0.254 -0.103 -0.048
0.259 -0.102 -0.049
0.265 -0.102 -0.050
0.265 -0.099 -0.050
0.359 -0.124 -0.067
0.361 -0.121 -0.068
0.371 -0.121 -0.070
0.378 -0.120 -0.071
0.380 -0.117 -0.071
0.383 -0.114 -0.071
0.389 -0.112 -0.073
0.394 -0.110 -0.073
0.400 -0.108 -0.074
0.412 -0.107 -0.077
0.425 -0.107 -0.079
0.435 -0.105 -0.081
0.441 -0.103 -0.082
0.433 -0.097 -0.080
0.388 -0.079 -0.072
0.385 -0.075 -0.071
0.389 -0.073 -0.072
0.286 -0.051 -0.053
0.290 -0.049 -0.054
0.288 -0.046 -0.053
0.288 -0.043 -0.053
0.290 -0.041 -0.053
0.291 -0.038 -0.054
0.295 -0.036 -0.054
0.297 -0.034 -0.055
0.309 -0.032 -0.057
0.338 -0.032 -0.062
0.338 -0.029 -0.062
0.323 -0.025 -0.059
0.308 -0.021 -0.057
0.303 -0.018 -0.056
0.309 -0.015 -0.057
0.315 -0.013 -0.058
0.302 -0.010 -0.056
0.303 -0.007 -0.056
0.305 -0.004 -0.056
0.307 -0.001 -0.056
0.309 0.001 -0.057
0.312 0.004 -0.057
0.313 0.007 -0.058
0.317 0.010 -0.058
0.318 0.013 -0.059
0.318 0.016 -0.058
0.320 0.019 -0.059
0.323 0.022 -0.060
0.318 0.024 -0.059
0.319 0.027 -0.059
0.320 0.030 -0.059
0.320 0.033 -0.059
0.321 0.036 -0.059
0.321 0.039 -0.059
0.321 0.042 -0.059
0.325 0.046 -0.060
0.332 0.050 -0.061
0.321 0.051 -0.059
0.322 0.054 -0.060
0.324 0.058 -0.060
0.323 0.060 -0.060
0.322 0.063 -0.060
0.321 0.066 -0.060
0.321 0.069 -0.060
0.321 0.072 -0.060
0.318 0.074 -0.059
0.318 0.077 -0.059
0.316 0.080 -0.059
0.314 0.082 -0.059
0.313 0.085 -0.059
0.322 0.090 -0.060
0.319 0.092 -0.060
0.320 0.096 -0.060
0.326 0.101 -0.061
0.322 0.103 -0.061
0.308 0.101 -0.058
0.309 0.105 -0.058
0.326 0.113 -0.062
0.327 0.117 -0.062
0.320 0.121 -0.061
0.321 0.125 -0.061
0.342 0.157 -0.066
0.343 0.161 -0.066
0.368 0.197 -0.072
0.368 0.201 -0.072
0.368 0.205 -0.072
0.374 0.212 -0.073
0.364 0.211 -0.072
0.359 0.212 -0.071
0.361 0.217 -0.072
0.369 0.226 -0.073
0.370 0.231 -0.074
0.387 0.246 -0.077
0.398 0.258 -0.080
0.379 0.255 -0.076
0.377 0.307 -0.079
0.367 0.304 -0.077
0.266 -0.368 -0.061
0.256 -0.349 -0.058
0.250 -0.338 -0.057
0.260 -0.345 -0.059
0.266 -0.349 -0.060
0.269 -0.348 -0.060
0.269 -0.344 -0.060
0.273 -0.344 -0.061
0.278 -0.345 -0.062
0.287 -0.351 -0.063
0.292 -0.353 -0.064
0.292 -0.348 -0.064
0.294 -0.344 -0.064
0.297 -0.342 -0.064
0.296 -0.337 -0.064
0.295 -0.330 -0.063
0.298 -0.329 -0.064
0.298 -0.324 -0.063
0.299 -0.320 -0.063
0.305 -0.321 -0.064
0.307 -0.318 -0.064
0.307 -0.314 -0.064
0.308 -0.310 -0.064
0.309 -0.306 -0.064
0.310 -0.303 -0.064
0.311 -0.299 -0.064
0.313 -0.296 -0.064
0.315 -0.293 -0.064
0.313 -0.287 -0.063
0.313 -0.282 -0.063
0.314 -0.279 -0.063
0.316 -0.276 -0.063
0.314 -0.271 -0.063
0.314 -0.266 -0.062
0.315 -0.263 -0.062
0.315 -0.259 -0.062
0.314 -0.254 -0.062
0.314 -0.249 -0.061
0.313 -0.244 -0.061
0.321 -0.246 -0.062
0.323 -0.244 -0.062
0.235 -0.169 -0.045
0.228 -0.161 -0.044
0.215 -0.149 -0.041
0.217 -0.148 -0.041
0.227 -0.152 -0.043
0.210 -0.139 -0.040
0.202 -0.131 -0.038
0.203 -0.129 -0.038
0.203 -0.127 -0.038
0.204 -0.125 -0.038
0.204 -0.123 -0.038
0.204 -0.121 -0.038
0.202 -0.118 -0.038
0.206 -0.117 -0.038
0.215 -0.120 -0.040
0.205 -0.112 -0.038
0.205 -0.110 -0.038
0.206 -0.108 -0.038
0.207 -0.107 -0.038
0.237 -0.120 -0.043
0.242 -0.120 -0.044
0.244 -0.119 -0.045
0.243 -0.115 -0.044
0.239 -0.111 -0.043
0.232 -0.099 -0.042
0.232 -0.096 -0.042
0.223 -0.088 -0.040
0.217 -0.083 -0.039
0.228 -0.086 -0.041
0.270 -0.098 -0.048
0.274 -0.097 -0.049
0.355 -0.123 -0.063
0.364 -0.122 -0.065
0.367 -0.120 -0.065
0.376 -0.119 -0.067
0.379 -0.116 -0.067
0.381 -0.114 -0.068
0.387 -0.112 -0.069
0.393 -0.110 -0.070
0.398 -0.107 -0.071
0.412 -0.107 -0.073
0.423 -0.106 -0.075
0.436 -0.105 -0.077
0.439 -0.102 -0.078
0.435 -0.097 -0.077
0.396 -0.081 -0.070
0.391 -0.076 -0.069
0.390 -0.073 -0.069
0.288 -0.051 -0.051
0.287 -0.048 -0.050
0.286 -0.045 -0.050
0.289 -0.043 -0.051
0.292 -0.041 -0.051
0.297 -0.039 -0.052
0.293 -0.036 -0.051
0.288 -0.033 -0.050
0.329 -0.031 -0.058
0.332 -0.029 -0.058
0.314 -0.024 -0.055
0.302 -0.021 -0.053
0.305 -0.018 -0.053
0.315 -0.016 -0.055
0.310 -0.013 -0.054
0.303 -0.010 -0.053
0.303 -0.007 -0.053
0.305 -0.004 -0.053
0.307 -0.001 -0.054
0.310 0.001 -0.054
0.313 0.004 -0.055
0.316 0.007 -0.055
0.318 0.010 -0.056
0.318 0.013 -0.056
0.320 0.016 -0.056
0.320 0.019 -0.056
0.318 0.022 -0.056
0.318 0.024 -0.056
0.319 0.027 -0.056
0.319 0.030 -0.056
0.320 0.033 -0.056
0.320 0.036 -0.056
0.322 0.039 -0.057
0.324 0.043 -0.057
0.324 0.046 -0.057
0.321 0.048 -0.056
0.336 0.053 -0.059
0.322 0.054 -0.057
0.324 0.057 -0.057
0.325 0.061 -0.057
0.322 0.063 -0.057
0.322 0.066 -0.057
0.321 0.069 -0.057
0.321 0.072 -0.057
0.320 0.075 -0.057
0.318 0.077 -0.056
0.316 0.080 -0.056
0.315 0.082 -0.056
0.314 0.085 -0.056
0.321 0.090 -0.057
0.319 0.092 -0.057
0.321 0.096 -0.057
0.326 0.101 -0.058
0.324 0.103 -0.058
0.315 0.103 -0.056
0.309 0.105 -0.055
0.335 0.117 -0.060
0.317 0.120 -0.057
0.326 0.126 -0.059
0.341 0.156 -0.062
0.338 0.159 -0.062
0.366 0.191 -0.068
0.384 0.205 -0.071
0.371 0.202 -0.069
0.371 0.206 -0.069
0.377 0.214 -0.070
0.378 0.218 -0.071
0.377 0.235 -0.071
0.378 0.249 -0.072
0.374 0.265 -0.072
0.389 0.295 -0.076
0.348 0.308 -0.071
0.267 -0.369 -0.058
0.250 -0.342 -0.054
0.251 -0.337 -0.054
0.256 -0.340 -0.055
0.263 -0.345 -0.056
0.263 -0.340 -0.056
0.266 -0.339 -0.056
0.268 -0.337 -0.056
0.275 -0.340 -0.058
0.277 -0.338 -0.058
0.282 -0.340 -0.059
0.282 -0.334 -0.058
0.276 -0.323 -0.057
0.288 -0.327 -0.059
0.294 -0.320 -0.059
0.296 -0.317 -0.059
0.298 -0.314 -0.059
0.302 -0.313 -0.060
0.303 -0.309 -0.060
0.304 -0.306 -0.060
0.308 -0.305 -0.060
0.311 -0.303 -0.060
0.312 -0.299 -0.060
0.313 -0.296 -0.060
0.314 -0.292 -0.060
0.317 -0.290 -0.061
0.316 -0.285 -0.060
0.315 -0.280 -0.060
0.317 -0.277 -0.060
0.319 -0.274 -0.060
0.317 -0.269 -0.060
0.317 -0.264 -0.059
0.315 -0.258 -0.059
0.311 -0.251 -0.058
