VERSION .7
FIELDS x y z
SIZE 4 4 4
TYPE F F F
COUNT 1 1 1
WIDTH     2433
HEIGHT 1
VIEWPOINT 0 0 0 1 0 0 0
POINTS     2433
DATA ascii
0.299 -0.015 -0.083
0.289 -0.012 -0.080
0.303 -0.010 -0.084
0.309 -0.007 -0.085
0.311 -0.004 -0.086
0.305 -0.001 -0.084
0.313 0.001 -0.086
0.313 0.004 -0.086
0.317 0.007 -0.088
0.312 0.010 -0.086
0.303 0.012 -0.084
0.307 0.015 -0.085
0.306 0.018 -0.085
0.306 0.021 -0.085
0.306 0.024 -0.085
0.307 0.027 -0.085
0.308 0.030 -0.086
0.309 0.032 -0.086
0.310 0.035 -0.086
0.311 0.038 -0.086
0.312 0.041 -0.087
0.310 0.044 -0.086
0.309 0.047 -0.086
0.310 0.050 -0.086
0.311 0.053 -0.087
0.311 0.056 -0.087
0.311 0.059 -0.087
0.325 0.064 -0.091
0.319 0.066 -0.089
0.316 0.068 -0.088
0.314 0.071 -0.088
0.311 0.073 -0.087
0.303 0.074 -0.085
0.305 0.078 -0.086
0.309 0.082 -0.087
0.314 0.086 -0.088
0.309 0.088 -0.087
0.313 0.092 -0.088
0.315 0.095 -0.089
0.310 0.097 -0.088
0.310 0.100 -0.088
0.311 0.103 -0.088
0.319 0.109 -0.091
0.325 0.114 -0.092
0.311 0.116 -0.089
0.300 0.114 -0.086
0.332 0.150 -0.096
0.310 0.151 -0.090
0.324 0.168 -0.095
0.331 0.175 -0.097
0.344 0.189 -0.101
0.340 0.195 -0.101
0.350 0.205 -0.104
0.346 0.210 -0.103
0.332 0.209 -0.100
0.312 -0.430 -0.109
0.310 -0.422 -0.108
0.309 -0.414 -0.107
0.313 -0.414 -0.108
0.315 -0.412 -0.109
0.311 -0.401 -0.107
0.307 -0.390 -0.105
0.310 -0.389 -0.106
0.316 -0.391 -0.107
0.313 -0.382 -0.106
0.311 -0.373 -0.104
0.309 -0.366 -0.103
0.310 -0.362 -0.103
0.310 -0.357 -0.103
0.309 -0.351 -0.102
0.310 -0.346 -0.102
0.309 -0.339 -0.101
0.309 -0.335 -0.100
0.311 -0.332 -0.101
0.311 -0.326 -0.100
0.311 -0.321 -0.100
0.308 -0.314 -0.098
0.309 -0.310 -0.098
0.307 -0.303 -0.097
0.307 -0.298 -0.097
0.303 -0.290 -0.095
0.303 -0.285 -0.094
0.303 -0.281 -0.094
0.301 -0.275 -0.093
0.301 -0.270 -0.093
0.300 -0.266 -0.092
0.300 -0.261 -0.092
0.302 -0.258 -0.092
0.302 -0.255 -0.092
0.302 -0.250 -0.091
0.300 -0.244 -0.090
0.298 -0.240 -0.089
0.293 -0.232 -0.088
0.290 -0.225 -0.086
0.286 -0.219 -0.085
0.285 -0.214 -0.084
0.278 -0.205 -0.082
0.236 -0.172 -0.069
0.234 -0.167 -0.069
0.234 -0.164 -0.068
0.214 -0.148 -0.062
0.214 -0.145 -0.062
0.209 -0.139 -0.061
0.208 -0.136 -0.060
0.209 -0.134 -0.060
0.218 -0.137 -0.063
0.219 -0.136 -0.063
0.220 -0.134 -0.063
0.221 -0.132 -0.063
0.223 -0.131 -0.063
0.209 -0.120 -0.059
0.209 -0.118 -0.059
0.210 -0.116 -0.059
0.214 -0.116 -0.060
0.240 -0.128 -0.068
0.243 -0.127 -0.068
0.243 -0.124 -0.068
0.243 -0.122 -0.068
0.247 -0.121 -0.069
0.309 -0.145 -0.086
0.311 -0.143 -0.086
0.315 -0.141 -0.087
0.316 -0.139 -0.087
0.291 -0.125 -0.080
0.258 -0.105 -0.071
0.269 -0.107 -0.074
0.280 -0.109 -0.077
0.265 -0.100 -0.073
0.259 -0.095 -0.071
0.352 -0.126 -0.096
0.358 -0.125 -0.098
0.369 -0.125 -0.101
0.373 -0.123 -0.102
0.376 -0.120 -0.102
0.382 -0.118 -0.104
0.388 -0.116 -0.105
0.396 -0.115 -0.107
0.406 -0.114 -0.110
0.416 -0.113 -0.113
0.427 -0.112 -0.115
0.435 -0.110 -0.118
0.442 -0.108 -0.119
0.442 -0.103 -0.119
0.391 -0.084 -0.105
0.388 -0.080 -0.104
0.384 -0.076 -0.103
0.381 -0.072 -0.102
0.284 -0.051 -0.076
0.279 -0.047 -0.075
0.278 -0.044 -0.075
0.283 -0.043 -0.076
0.284 -0.040 -0.076
0.288 -0.038 -0.077
0.293 -0.036 -0.078
0.298 -0.034 -0.080
0.296 -0.031 -0.079
0.295 -0.028 -0.079
0.302 -0.026 -0.081
0.304 -0.024 -0.081
0.317 -0.022 -0.085
0.317 -0.019 -0.085
0.291 -0.012 -0.078
0.296 -0.009 -0.079
0.305 -0.007 -0.081
0.303 -0.004 -0.081
0.317 -0.001 -0.085
0.320 0.001 -0.086
0.321 0.004 -0.086
0.300 0.007 -0.080
0.303 0.010 -0.081
0.305 0.012 -0.082
0.308 0.015 -0.082
0.308 0.018 -0.082
0.308 0.021 -0.082
0.309 0.024 -0.083
0.310 0.027 -0.083
0.311 0.030 -0.083
0.311 0.033 -0.083
0.311 0.035 -0.083
0.312 0.039 -0.084
0.313 0.041 -0.084
0.313 0.044 -0.084
0.311 0.047 -0.084
0.312 0.050 -0.084
0.312 0.053 -0.084
0.312 0.056 -0.084
0.312 0.059 -0.084
0.310 0.061 -0.084
0.309 0.064 -0.083
0.314 0.068 -0.085
0.317 0.072 -0.086
0.315 0.074 -0.085
0.306 0.075 -0.083
0.308 0.078 -0.083
0.315 0.083 -0.085
0.319 0.087 -0.087
0.316 0.090 -0.086
0.307 0.090 -0.084
0.312 0.094 -0.085
0.306 0.095 -0.084
0.308 0.099 -0.084
0.316 0.105 -0.086
0.318 0.108 -0.087
0.296 0.107 -0.081
0.298 0.111 -0.082
0.332 0.150 -0.093
0.338 0.175 -0.096
0.342 0.180 -0.097
0.348 0.188 -0.099
0.343 0.192 -0.098
0.346 0.198 -0.099
0.345 0.201 -0.099
0.360 0.214 -0.104
0.350 0.212 -0.101
0.310 -0.427 -0.105
0.308 -0.418 -0.104
0.309 -0.414 -0.104
0.310 -0.409 -0.103
0.313 -0.409 -0.104
0.308 -0.397 -0.102
0.306 -0.389 -0.101
0.309 -0.387 -0.101
0.312 -0.385 -0.102
0.312 -0.380 -0.102
0.309 -0.371 -0.100
0.308 -0.364 -0.099
0.309 -0.360 -0.099
0.311 -0.357 -0.099
0.310 -0.351 -0.099
0.307 -0.342 -0.097
0.308 -0.338 -0.097
0.309 -0.334 -0.097
0.307 -0.327 -0.096
0.308 -0.323 -0.096
0.308 -0.318 -0.095
0.308 -0.313 -0.095
0.306 -0.306 -0.094
0.306 -0.302 -0.093
0.306 -0.297 -0.093
0.303 -0.290 -0.092
0.300 -0.282 -0.090
0.300 -0.278 -0.090
0.301 -0.274 -0.090
0.300 -0.269 -0.089
0.299 -0.264 -0.089
0.300 -0.260 -0.088
0.299 -0.256 -0.088
0.300 -0.253 -0.088
0.298 -0.247 -0.087
0.292 -0.238 -0.085
0.215 -0.164 -0.062
0.215 -0.162 -0.061
0.231 -0.170 -0.066
0.236 -0.171 -0.067
0.235 -0.168 -0.066
0.232 -0.162 -0.065
0.216 -0.149 -0.061
0.216 -0.146 -0.060
0.209 -0.139 -0.058
0.209 -0.137 -0.058
0.213 -0.137 -0.059
0.218 -0.138 -0.061
0.221 -0.137 -0.061
0.221 -0.135 -0.061
0.222 -0.132 -0.061
0.221 -0.130 -0.061
0.209 -0.120 -0.057
0.208 -0.117 -0.057
0.209 -0.116 -0.057
0.212 -0.115 -0.058
0.240 -0.127 -0.065
0.243 -0.126 -0.066
0.244 -0.125 -0.066
0.243 -0.121 -0.066
0.246 -0.120 -0.066
0.288 -0.138 -0.077
0.304 -0.143 -0.082
0.313 -0.143 -0.084
0.314 -0.140 -0.084
0.317 -0.139 -0.085
0.253 -0.103 -0.067
0.261 -0.104 -0.069
0.271 -0.105 -0.072
0.268 -0.101 -0.071
0.257 -0.094 -0.068
0.357 -0.124 -0.094
0.368 -0.124 -0.097
0.371 -0.122 -0.098
0.374 -0.119 -0.098
0.380 -0.118 -0.100
0.387 -0.116 -0.101
0.392 -0.114 -0.102
0.406 -0.114 -0.106
0.413 -0.112 -0.108
0.423 -0.111 -0.110
0.434 -0.110 -0.113
0.443 -0.108 -0.115
0.446 -0.104 -0.116
0.410 -0.088 -0.107
0.399 -0.082 -0.104
0.387 -0.076 -0.100
0.380 -0.071 -0.099
0.285 -0.051 -0.074
0.279 -0.047 -0.072
0.280 -0.045 -0.072
0.281 -0.042 -0.073
0.287 -0.041 -0.074
0.283 -0.037 -0.073
0.300 -0.037 -0.078
0.289 -0.033 -0.075
0.286 -0.030 -0.074
0.293 -0.028 -0.076
0.297 -0.026 -0.077
0.303 -0.023 -0.078
0.306 -0.021 -0.079
0.297 -0.015 -0.077
0.290 -0.012 -0.075
0.292 -0.009 -0.075
0.293 -0.007 -0.076
0.306 -0.004 -0.079
0.312 -0.001 -0.080
0.301 0.004 -0.078
0.303 0.007 -0.078
0.305 0.010 -0.079
0.306 0.013 -0.079
0.308 0.015 -0.080
0.309 0.018 -0.080
0.310 0.021 -0.080
0.310 0.024 -0.080
0.311 0.027 -0.080
0.312 0.030 -0.081
0.312 0.033 -0.081
0.312 0.036 -0.081
0.314 0.039 -0.081
0.314 0.042 -0.081
0.313 0.044 -0.081
0.313 0.047 -0.081
0.313 0.050 -0.081
0.314 0.053 -0.081
0.314 0.056 -0.082
0.313 0.059 -0.081
0.311 0.061 -0.081
0.311 0.064 -0.081
0.310 0.067 -0.081
0.321 0.072 -0.084
0.319 0.075 -0.083
0.309 0.075 -0.081
0.306 0.078 -0.080
0.314 0.083 -0.082
0.318 0.087 -0.083
0.320 0.090 -0.084
0.315 0.092 -0.083
0.304 0.092 -0.080
0.304 0.095 -0.080
0.289 0.093 -0.076
0.303 0.103 -0.080
0.290 0.102 -0.077
0.290 0.105 -0.077
0.295 0.109 -0.078
0.338 0.153 -0.091
0.350 0.162 -0.094
0.351 0.181 -0.096
0.358 0.189 -0.098
0.355 0.191 -0.097
0.340 0.190 -0.093
0.346 0.198 -0.095
0.357 0.208 -0.099
0.343 0.204 -0.095
0.363 0.225 -0.101
0.337 0.212 -0.094
0.332 0.213 -0.093
0.335 0.219 -0.094
0.306 -0.421 -0.100
0.309 -0.420 -0.100
0.309 -0.414 -0.100
0.311 -0.412 -0.100
0.309 -0.403 -0.099
0.307 -0.394 -0.098
0.307 -0.389 -0.098
0.308 -0.386 -0.098
0.310 -0.383 -0.098
0.311 -0.378 -0.098
0.309 -0.370 -0.096
0.307 -0.363 -0.095
0.308 -0.359 -0.095
0.311 -0.357 -0.096
0.310 -0.350 -0.095
0.309 -0.344 -0.094
0.308 -0.338 -0.093
0.308 -0.333 -0.093
0.308 -0.327 -0.092
0.307 -0.321 -0.092
0.308 -0.317 -0.092
0.307 -0.312 -0.091
0.305 -0.305 -0.090
0.305 -0.300 -0.089
0.306 -0.296 -0.089
0.306 -0.292 -0.089
0.298 -0.280 -0.086
0.299 -0.276 -0.086
0.299 -0.272 -0.086
0.300 -0.269 -0.086
0.299 -0.264 -0.085
0.297 -0.258 -0.084
0.298 -0.255 -0.084
0.296 -0.249 -0.084
0.292 -0.242 -0.082
0.279 -0.227 -0.078
0.270 -0.216 -0.075
0.208 -0.159 -0.057
0.212 -0.159 -0.058
0.222 -0.164 -0.061
0.237 -0.171 -0.065
0.236 -0.168 -0.064
0.234 -0.164 -0.064
0.218 -0.150 -0.059
0.220 -0.149 -0.059
0.217 -0.145 -0.059
0.213 -0.137 -0.057
0.220 -0.139 -0.059
0.222 -0.137 -0.059
0.217 -0.132 -0.058
0.219 -0.131 -0.058
0.220 -0.129 -0.058
0.208 -0.119 -0.055
0.207 -0.117 -0.055
0.209 -0.116 -0.055
0.210 -0.114 -0.055
0.235 -0.125 -0.062
0.242 -0.126 -0.063
0.246 -0.125 -0.064
0.243 -0.121 -0.063
0.244 -0.119 -0.063
0.291 -0.139 -0.075
0.304 -0.142 -0.079
0.313 -0.143 -0.081
0.317 -0.142 -0.082
0.319 -0.140 -0.082
0.281 -0.117 -0.072
0.267 -0.109 -0.068
0.269 -0.104 -0.069
0.276 -0.104 -0.070
0.340 -0.122 -0.086
0.356 -0.124 -0.091
0.363 -0.123 -0.092
0.368 -0.121 -0.093
0.373 -0.119 -0.094
0.378 -0.117 -0.095
0.384 -0.115 -0.097
0.391 -0.113 -0.099
0.406 -0.114 -0.102
0.412 -0.112 -0.104
0.420 -0.110 -0.106
0.432 -0.109 -0.109
0.442 -0.107 -0.111
0.444 -0.104 -0.111
0.432 -0.097 -0.108
0.408 -0.088 -0.102
0.409 -0.084 -0.102
0.394 -0.077 -0.099
0.279 -0.050 -0.070
0.287 -0.049 -0.072
0.278 -0.044 -0.069
0.286 -0.043 -0.071
0.287 -0.041 -0.072
0.296 -0.039 -0.074
0.285 -0.035 -0.071
0.286 -0.033 -0.071
0.283 -0.030 -0.071
0.287 -0.027 -0.071
0.293 -0.025 -0.073
0.293 -0.023 -0.073
0.288 -0.020 -0.072
0.284 -0.017 -0.071
0.283 -0.014 -0.070
0.291 -0.012 -0.072
0.294 -0.009 -0.073
0.301 -0.007 -0.075
0.314 -0.004 -0.078
0.309 -0.001 -0.077
0.300 0.001 -0.074
0.303 0.004 -0.075
0.305 0.007 -0.076
0.305 0.010 -0.076
0.308 0.013 -0.077
0.309 0.015 -0.077
0.310 0.018 -0.077
0.311 0.021 -0.077
0.312 0.024 -0.078
0.313 0.027 -0.078
0.313 0.030 -0.078
0.313 0.033 -0.078
0.314 0.036 -0.078
0.315 0.039 -0.079
0.315 0.042 -0.079
0.314 0.044 -0.079
0.314 0.047 -0.078
0.315 0.050 -0.079
0.316 0.053 -0.079
0.315 0.056 -0.079
0.314 0.059 -0.079
0.313 0.062 -0.079
0.312 0.064 -0.078
0.312 0.067 -0.078
0.312 0.070 -0.078
0.318 0.075 -0.080
0.316 0.077 -0.080
0.310 0.079 -0.078
0.315 0.083 -0.079
0.315 0.086 -0.080
0.321 0.091 -0.081
0.328 0.096 -0.083
0.304 0.092 -0.077
0.301 0.094 -0.076
0.294 0.095 -0.075
0.293 0.097 -0.075
0.288 0.098 -0.073
0.293 0.103 -0.075
0.293 0.106 -0.075
0.302 0.112 -0.077
0.327 0.124 -0.084
0.329 0.129 -0.085
0.350 0.158 -0.091
0.349 0.161 -0.091
0.352 0.181 -0.092
0.356 0.188 -0.094
0.356 0.191 -0.094
0.343 0.188 -0.091
0.333 0.186 -0.088
0.336 0.192 -0.089
0.357 0.212 -0.095
0.350 0.225 -0.095
0.303 -0.421 -0.095
0.305 -0.419 -0.096
0.306 -0.415 -0.096
0.307 -0.411 -0.095
0.307 -0.405 -0.095
0.308 -0.402 -0.095
0.309 -0.397 -0.095
0.307 -0.389 -0.094
0.307 -0.384 -0.093
0.309 -0.381 -0.094
0.311 -0.378 -0.094
0.310 -0.371 -0.093
0.305 -0.360 -0.091
0.309 -0.359 -0.092
0.308 -0.353 -0.091
0.309 -0.349 -0.091
0.308 -0.343 -0.090
0.308 -0.337 -0.090
0.308 -0.332 -0.089
0.308 -0.327 -0.089
0.308 -0.322 -0.088
0.307 -0.316 -0.088
0.306 -0.311 -0.087
0.301 -0.301 -0.086
0.302 -0.297 -0.085
0.304 -0.295 -0.086
0.304 -0.290 -0.085
0.298 -0.279 -0.083
0.297 -0.275 -0.083
0.299 -0.272 -0.083
0.299 -0.268 -0.082
0.299 -0.263 -0.082
0.298 -0.258 -0.081
0.296 -0.253 -0.081
0.296 -0.248 -0.080
0.290 -0.239 -0.078
0.282 -0.230 -0.076
0.211 -0.161 -0.056
0.207 -0.155 -0.055
0.213 -0.157 -0.056
0.231 -0.167 -0.061
0.241 -0.172 -0.063
0.236 -0.165 -0.062
0.219 -0.151 -0.057
0.224 -0.151 -0.058
0.222 -0.148 -0.058
0.210 -0.137 -0.054
0.213 -0.136 -0.055
0.219 -0.138 -0.056
0.220 -0.136 -0.056
0.220 -0.133 -0.056
0.218 -0.130 -0.056
0.219 -0.128 -0.056
0.214 -0.123 -0.054
0.207 -0.116 -0.052
0.209 -0.115 -0.053
0.210 -0.113 -0.053
0.229 -0.121 -0.058
0.240 -0.125 -0.060
0.247 -0.126 -0.062
0.242 -0.120 -0.060
0.242 -0.118 -0.061
0.252 -0.120 -0.063
0.307 -0.143 -0.076
0.314 -0.144 -0.078
0.318 -0.142 -0.079
0.318 -0.139 -0.079
0.305 -0.130 -0.076
0.270 -0.110 -0.067
0.263 -0.102 -0.065
0.271 -0.102 -0.067
0.360 -0.125 -0.088
0.362 -0.122 -0.088
0.367 -0.121 -0.090
0.372 -0.119 -0.091
0.379 -0.117 -0.092
0.386 -0.116 -0.094
0.390 -0.113 -0.095
0.400 -0.112 -0.097
0.410 -0.111 -0.099
0.419 -0.110 -0.101
0.425 -0.107 -0.103
0.433 -0.105 -0.105
0.444 -0.104 -0.107
0.407 -0.087 -0.098
0.394 -0.081 -0.095
0.386 -0.076 -0.093
0.276 -0.049 -0.066
0.271 -0.046 -0.065
0.284 -0.045 -0.068
0.289 -0.043 -0.069
0.289 -0.041 -0.069
0.278 -0.037 -0.067
0.290 -0.036 -0.070
0.297 -0.034 -0.071
0.294 -0.031 -0.070
0.293 -0.028 -0.070
0.295 -0.025 -0.071
0.278 -0.019 -0.067
0.277 -0.016 -0.066
0.278 -0.014 -0.067
0.289 -0.012 -0.069
0.304 -0.010 -0.073
0.318 -0.007 -0.076
0.307 -0.004 -0.073
0.299 -0.001 -0.072
0.301 0.001 -0.072
0.303 0.004 -0.073
0.306 0.007 -0.073
0.308 0.010 -0.074
0.308 0.013 -0.074
0.310 0.015 -0.074
0.311 0.018 -0.075
0.312 0.021 -0.075
0.314 0.024 -0.075
0.315 0.027 -0.076
0.315 0.030 -0.076
0.315 0.033 -0.076
0.316 0.036 -0.076
0.316 0.039 -0.076
0.317 0.042 -0.076
0.316 0.045 -0.076
0.315 0.047 -0.076
0.317 0.051 -0.076
0.317 0.054 -0.076
0.316 0.056 -0.076
0.315 0.059 -0.076
0.314 0.062 -0.076
0.315 0.065 -0.076
0.313 0.068 -0.076
0.313 0.070 -0.076
0.314 0.074 -0.076
0.319 0.078 -0.077
0.319 0.081 -0.077
0.313 0.082 -0.076
0.308 0.084 -0.075
0.315 0.089 -0.077
0.318 0.093 -0.078
0.318 0.096 -0.078
0.309 0.096 -0.076
0.306 0.098 -0.075
0.298 0.099 -0.073
0.281 0.098 -0.069
0.307 0.110 -0.075
0.306 0.113 -0.075
0.308 0.117 -0.076
0.333 0.150 -0.083
0.330 0.152 -0.083
0.343 0.177 -0.087
0.349 0.187 -0.089
0.344 0.188 -0.088
0.330 0.185 -0.084
0.360 0.214 -0.093
0.361 0.218 -0.093
0.366 0.275 -0.098
0.303 -0.421 -0.092
0.303 -0.416 -0.091
0.303 -0.410 -0.091
0.302 -0.403 -0.090
0.302 -0.399 -0.090
0.306 -0.398 -0.091
0.309 -0.396 -0.091
0.307 -0.389 -0.090
0.306 -0.382 -0.089
0.307 -0.378 -0.089
0.307 -0.373 -0.089
0.308 -0.368 -0.089
0.305 -0.359 -0.087
0.305 -0.354 -0.087
0.309 -0.353 -0.088
0.307 -0.346 -0.087
0.305 -0.338 -0.086
0.304 -0.332 -0.085
0.306 -0.330 -0.085
0.307 -0.325 -0.085
0.306 -0.319 -0.084
0.305 -0.313 -0.084
0.303 -0.307 -0.083
0.300 -0.299 -0.082
0.300 -0.295 -0.081
0.302 -0.292 -0.081
0.300 -0.286 -0.081
0.298 -0.280 -0.080
0.298 -0.275 -0.080
0.298 -0.271 -0.079
0.299 -0.267 -0.079
0.299 -0.263 -0.079
0.299 -0.259 -0.078
0.296 -0.253 -0.077
0.294 -0.246 -0.076
0.291 -0.240 -0.076
0.290 -0.236 -0.075
0.227 -0.176 -0.058
0.215 -0.164 -0.055
0.203 -0.152 -0.052
0.212 -0.156 -0.054
0.224 -0.162 -0.057
0.231 -0.164 -0.058
0.224 -0.157 -0.056
0.216 -0.148 -0.054
0.225 -0.152 -0.056
0.224 -0.149 -0.056
0.216 -0.141 -0.054
0.214 -0.137 -0.053
0.217 -0.136 -0.054
0.216 -0.133 -0.053
0.214 -0.130 -0.053
0.218 -0.130 -0.053
0.219 -0.128 -0.054
0.216 -0.124 -0.053
0.207 -0.117 -0.051
0.208 -0.114 -0.050
0.209 -0.113 -0.051
0.214 -0.114 -0.052
0.242 -0.126 -0.058
0.244 -0.124 -0.059
0.242 -0.121 -0.058
0.243 -0.119 -0.058
0.245 -0.117 -0.059
0.309 -0.144 -0.074
0.312 -0.143 -0.075
0.316 -0.141 -0.075
0.316 -0.138 -0.075
0.311 -0.133 -0.074
0.268 -0.109 -0.064
0.254 -0.101 -0.060
0.265 -0.102 -0.062
0.270 -0.102 -0.064
0.357 -0.124 -0.084
0.363 -0.122 -0.085
0.367 -0.120 -0.086
0.372 -0.119 -0.087
0.383 -0.118 -0.090
0.387 -0.116 -0.090
0.393 -0.114 -0.092
0.399 -0.112 -0.093
0.406 -0.110 -0.095
0.416 -0.109 -0.097
0.424 -0.107 -0.098
0.438 -0.106 -0.102
0.444 -0.104 -0.103
0.403 -0.086 -0.093
0.393 -0.081 -0.091
0.378 -0.074 -0.087
0.367 -0.069 -0.085
0.278 -0.049 -0.064
0.280 -0.047 -0.065
0.282 -0.045 -0.065
0.288 -0.043 -0.066
0.295 -0.042 -0.068
0.284 -0.038 -0.066
0.291 -0.036 -0.067
0.304 -0.035 -0.070
0.311 -0.033 -0.072
0.308 -0.029 -0.071
0.305 -0.026 -0.070
0.298 -0.023 -0.068
0.289 -0.020 -0.066
0.289 -0.017 -0.067
0.296 -0.015 -0.068
0.290 -0.012 -0.067
0.305 -0.010 -0.070
0.319 -0.007 -0.073
0.302 -0.004 -0.069
0.301 -0.001 -0.069
0.303 0.001 -0.070
0.305 0.004 -0.070
0.308 0.007 -0.071
0.309 0.010 -0.071
0.311 0.013 -0.072
0.313 0.016 -0.072
0.314 0.018 -0.072
0.314 0.021 -0.072
0.316 0.024 -0.073
0.318 0.027 -0.073
0.317 0.030 -0.073
0.317 0.033 -0.073
0.317 0.036 -0.073
0.317 0.039 -0.073
0.317 0.042 -0.073
0.318 0.045 -0.073
0.317 0.048 -0.073
0.317 0.051 -0.073
0.318 0.054 -0.074
0.317 0.057 -0.074
0.316 0.059 -0.073
0.316 0.062 -0.073
0.316 0.065 -0.073
0.315 0.068 -0.073
0.314 0.070 -0.073
0.313 0.073 -0.073
0.313 0.076 -0.073
0.315 0.080 -0.074
0.312 0.082 -0.073
0.309 0.084 -0.072
0.316 0.089 -0.074
0.314 0.092 -0.074
0.310 0.093 -0.073
0.313 0.097 -0.073
0.310 0.099 -0.073
0.303 0.100 -0.071
0.303 0.106 -0.072
0.303 0.109 -0.072
0.302 0.115 -0.072
0.303 0.118 -0.072
0.325 0.147 -0.078
0.317 0.146 -0.076
0.349 0.184 -0.085
0.345 0.185 -0.084
0.347 0.190 -0.085
0.338 0.189 -0.083
0.330 0.188 -0.081
0.361 0.214 -0.089
0.365 0.220 -0.090
0.370 0.228 -0.092
0.356 0.236 -0.089
0.325 0.220 -0.082
0.349 0.262 -0.090
0.297 -0.412 -0.086
0.302 -0.414 -0.087
0.302 -0.409 -0.087
0.302 -0.403 -0.087
0.301 -0.397 -0.086
0.303 -0.394 -0.086
0.304 -0.390 -0.086
0.305 -0.385 -0.086
0.304 -0.379 -0.085
0.301 -0.371 -0.084
0.303 -0.367 -0.084
0.304 -0.363 -0.084
0.304 -0.358 -0.084
0.304 -0.352 -0.083
0.304 -0.348 -0.083
0.306 -0.344 -0.083
0.305 -0.338 -0.082
0.303 -0.331 -0.081
0.304 -0.327 -0.081
0.304 -0.322 -0.081
0.302 -0.315 -0.080
0.302 -0.310 -0.080
0.301 -0.305 -0.079
0.301 -0.300 -0.079
0.301 -0.295 -0.078
0.301 -0.290 -0.078
0.300 -0.286 -0.077
0.300 -0.281 -0.077
0.299 -0.275 -0.076
0.297 -0.269 -0.076
0.298 -0.266 -0.076
0.298 -0.262 -0.075
0.296 -0.256 -0.075
0.295 -0.251 -0.074
0.293 -0.246 -0.073
0.294 -0.242 -0.073
0.295 -0.239 -0.073
0.289 -0.230 -0.071
0.276 -0.216 -0.068
0.272 -0.210 -0.067
0.205 -0.153 -0.050
0.220 -0.161 -0.053
0.222 -0.160 -0.054
0.229 -0.162 -0.055
0.229 -0.160 -0.055
0.224 -0.153 -0.054
0.228 -0.154 -0.055
0.229 -0.152 -0.055
0.219 -0.142 -0.052
0.219 -0.140 -0.052
0.220 -0.138 -0.052
0.212 -0.131 -0.050
0.207 -0.125 -0.049
0.211 -0.125 -0.050
0.220 -0.128 -0.052
0.220 -0.126 -0.052
0.208 -0.117 -0.049
0.207 -0.114 -0.048
0.208 -0.112 -0.048
0.212 -0.112 -0.049
0.241 -0.125 -0.056
0.243 -0.123 -0.056
0.244 -0.121 -0.056
0.243 -0.118 -0.056
0.245 -0.117 -0.056
0.307 -0.143 -0.071
0.311 -0.142 -0.071
0.314 -0.140 -0.072
0.317 -0.138 -0.072
0.311 -0.132 -0.071
0.264 -0.107 -0.060
0.253 -0.100 -0.057
0.257 -0.099 -0.058
0.271 -0.102 -0.061
0.358 -0.124 -0.081
0.361 -0.122 -0.081
0.366 -0.120 -0.082
0.372 -0.118 -0.084
0.380 -0.117 -0.085
0.386 -0.116 -0.087
0.391 -0.113 -0.088
0.399 -0.112 -0.089
0.406 -0.110 -0.091
0.411 -0.107 -0.092
0.422 -0.106 -0.094
0.434 -0.105 -0.097
0.439 -0.102 -0.098
0.421 -0.094 -0.094
0.405 -0.087 -0.090
0.384 -0.079 -0.085
0.372 -0.073 -0.083
0.363 -0.068 -0.081
0.288 -0.051 -0.064
0.284 -0.048 -0.063
0.285 -0.045 -0.063
0.292 -0.044 -0.065
0.287 -0.040 -0.064
0.285 -0.038 -0.063
0.288 -0.035 -0.064
0.294 -0.033 -0.065
0.306 -0.032 -0.068
0.313 -0.030 -0.069
0.309 -0.027 -0.068
0.299 -0.023 -0.066
0.292 -0.020 -0.064
0.306 -0.018 -0.067
0.292 -0.015 -0.064
0.301 -0.012 -0.066
0.316 -0.010 -0.070
0.311 -0.007 -0.069
0.301 -0.004 -0.067
0.304 -0.001 -0.067
0.306 0.001 -0.067
0.307 0.004 -0.068
0.309 0.007 -0.068
0.310 0.010 -0.068
0.311 0.013 -0.069
0.314 0.016 -0.069
0.315 0.019 -0.070
0.315 0.021 -0.070
0.318 0.025 -0.070
0.319 0.027 -0.071
0.319 0.030 -0.071
0.319 0.033 -0.071
0.319 0.036 -0.071
0.318 0.039 -0.071
0.318 0.042 -0.071
0.319 0.045 -0.071
0.319 0.048 -0.071
0.318 0.051 -0.071
0.318 0.054 -0.071
0.318 0.057 -0.071
0.318 0.059 -0.071
0.317 0.062 -0.071
0.317 0.065 -0.071
0.316 0.068 -0.070
0.315 0.071 -0.070
0.313 0.073 -0.070
0.312 0.076 -0.070
0.312 0.079 -0.070
0.312 0.082 -0.070
0.314 0.085 -0.070
0.321 0.090 -0.072
0.314 0.091 -0.071
0.308 0.093 -0.069
0.306 0.095 -0.069
0.309 0.099 -0.070
0.305 0.101 -0.069
0.297 0.101 -0.067
0.299 0.105 -0.068
0.299 0.107 -0.068
0.314 0.116 -0.071
0.311 0.118 -0.071
0.311 0.121 -0.071
0.319 0.144 -0.073
0.317 0.146 -0.073
0.347 0.197 -0.082
0.354 0.206 -0.084
0.364 0.215 -0.086
0.369 0.222 -0.088
0.376 0.231 -0.090
0.372 0.233 -0.089
0.366 0.234 -0.088
0.360 0.243 -0.087
0.319 0.227 -0.078
0.299 -0.414 -0.083
0.300 -0.410 -0.083
0.301 -0.407 -0.083
0.303 -0.404 -0.083
0.303 -0.399 -0.083
0.302 -0.392 -0.082
0.303 -0.388 -0.082
0.303 -0.383 -0.082
0.299 -0.372 -0.080
0.302 -0.370 -0.081
0.304 -0.368 -0.081
0.302 -0.360 -0.080
0.303 -0.356 -0.080
0.305 -0.353 -0.080
0.305 -0.348 -0.080
0.304 -0.342 -0.079
0.304 -0.337 -0.079
0.304 -0.332 -0.078
0.304 -0.327 -0.078
0.304 -0.322 -0.077
0.302 -0.315 -0.077
0.302 -0.310 -0.076
0.303 -0.306 -0.076
0.303 -0.301 -0.076
0.301 -0.295 -0.075
0.302 -0.291 -0.075
0.302 -0.287 -0.075
0.302 -0.282 -0.074
0.297 -0.274 -0.073
0.297 -0.269 -0.072
0.297 -0.265 -0.072
0.296 -0.260 -0.072
0.296 -0.256 -0.071
0.294 -0.250 -0.071
0.295 -0.247 -0.071
0.297 -0.245 -0.071
0.298 -0.241 -0.071
0.298 -0.238 -0.071
0.234 -0.175 -0.055
0.223 -0.164 -0.052
0.227 -0.164 -0.053
0.227 -0.161 -0.053
0.235 -0.164 -0.054
0.237 -0.163 -0.055
0.238 -0.160 -0.055
0.233 -0.154 -0.053
0.221 -0.143 -0.050
0.221 -0.141 -0.050
0.222 -0.139 -0.050
0.208 -0.128 -0.047
0.206 -0.125 -0.047
0.207 -0.123 -0.047
0.215 -0.125 -0.048
0.221 -0.126 -0.050
0.208 -0.117 -0.047
0.208 -0.114 -0.046
0.208 -0.112 -0.046
0.211 -0.111 -0.047
0.235 -0.122 -0.052
0.241 -0.122 -0.053
0.250 -0.124 -0.055
0.241 -0.118 -0.053
0.242 -0.115 -0.053
0.310 -0.141 -0.068
0.314 -0.140 -0.069
0.318 -0.138 -0.070
0.306 -0.130 -0.067
0.293 -0.122 -0.064
0.282 -0.115 -0.062
0.271 -0.105 -0.059
0.264 -0.099 -0.057
0.248 -0.091 -0.054
0.358 -0.124 -0.077
0.360 -0.121 -0.078
0.363 -0.119 -0.078
0.369 -0.117 -0.079
0.376 -0.116 -0.081
0.383 -0.115 -0.082
0.389 -0.112 -0.083
0.395 -0.111 -0.085
0.404 -0.109 -0.086
0.412 -0.107 -0.088
0.421 -0.106 -0.090
0.437 -0.106 -0.093
0.442 -0.103 -0.094
0.430 -0.096 -0.092
0.377 -0.077 -0.080
0.366 -0.072 -0.078
0.290 -0.051 -0.062
0.286 -0.048 -0.061
0.287 -0.046 -0.061
0.292 -0.044 -0.062
0.286 -0.040 -0.061
0.285 -0.038 -0.061
0.287 -0.035 -0.061
0.293 -0.033 -0.062
0.295 -0.031 -0.062
0.300 -0.029 -0.064
0.305 -0.026 -0.065
0.298 -0.023 -0.063
0.297 -0.020 -0.063
0.290 -0.017 -0.061
0.289 -0.014 -0.061
0.307 -0.013 -0.065
0.310 -0.010 -0.066
0.300 -0.007 -0.063
0.303 -0.004 -0.064
0.306 -0.001 -0.065
0.307 0.001 -0.065
0.308 0.004 -0.065
0.310 0.007 -0.066
0.310 0.010 -0.066
0.312 0.013 -0.066
0.314 0.016 -0.067
0.316 0.019 -0.067
0.317 0.021 -0.067
0.317 0.024 -0.067
0.319 0.027 -0.068
0.318 0.030 -0.067
0.319 0.033 -0.068
0.320 0.036 -0.068
0.319 0.039 -0.068
0.320 0.042 -0.068
0.321 0.045 -0.068
0.320 0.048 -0.068
0.319 0.051 -0.068
0.320 0.054 -0.068
0.320 0.057 -0.068
0.319 0.060 -0.068
0.318 0.062 -0.068
0.318 0.065 -0.068
0.316 0.068 -0.068
0.315 0.071 -0.067
0.315 0.074 -0.067
0.313 0.076 -0.067
0.312 0.079 -0.067
0.313 0.082 -0.067
0.317 0.086 -0.068
0.322 0.091 -0.069
0.318 0.093 -0.069
0.315 0.095 -0.068
0.314 0.097 -0.068
0.309 0.099 -0.067
0.306 0.101 -0.066
0.302 0.102 -0.066
0.298 0.104 -0.065
0.301 0.111 -0.066
0.317 0.120 -0.069
0.314 0.122 -0.069
0.325 0.146 -0.072
0.353 0.193 -0.079
0.354 0.197 -0.080
0.352 0.200 -0.080
0.351 0.203 -0.080
0.357 0.211 -0.081
0.357 0.215 -0.081
0.349 0.214 -0.080
0.360 0.225 -0.082
0.361 0.230 -0.083
0.380 0.251 -0.088
0.367 0.247 -0.085
0.331 0.231 -0.077
0.322 0.263 -0.078
0.294 -0.407 -0.078
0.297 -0.406 -0.078
0.298 -0.402 -0.078
0.301 -0.402 -0.079
0.302 -0.397 -0.079
0.302 -0.392 -0.079
0.302 -0.386 -0.078
0.304 -0.384 -0.078
0.303 -0.378 -0.078
0.304 -0.373 -0.078
0.306 -0.371 -0.078
0.302 -0.360 -0.076
0.303 -0.356 -0.076
0.307 -0.355 -0.077
0.306 -0.349 -0.076
0.305 -0.343 -0.076
0.305 -0.338 -0.075
0.305 -0.333 -0.075
0.306 -0.328 -0.075
0.305 -0.322 -0.074
0.304 -0.316 -0.074
0.303 -0.311 -0.073
0.303 -0.306 -0.073
0.303 -0.301 -0.072
0.301 -0.295 -0.072
0.302 -0.291 -0.072
0.302 -0.287 -0.071
0.300 -0.281 -0.071
0.300 -0.275 -0.070
0.299 -0.271 -0.070
0.299 -0.266 -0.069
0.299 -0.262 -0.069
0.299 -0.259 -0.069
0.303 -0.257 -0.069
0.300 -0.251 -0.069
0.302 -0.249 -0.069
0.304 -0.246 -0.069
0.301 -0.240 -0.068
0.309 -0.242 -0.070
0.299 -0.230 -0.067
0.230 -0.171 -0.051
0.230 -0.169 -0.051
0.224 -0.161 -0.050
0.224 -0.159 -0.050
0.235 -0.164 -0.052
0.239 -0.164 -0.053
0.241 -0.163 -0.053
0.242 -0.160 -0.053
0.235 -0.153 -0.051
0.223 -0.142 -0.048
0.225 -0.141 -0.049
0.208 -0.128 -0.045
0.207 -0.125 -0.045
0.205 -0.121 -0.044
0.209 -0.122 -0.045
0.219 -0.125 -0.047
0.208 -0.117 -0.045
0.207 -0.114 -0.044
0.208 -0.112 -0.044
0.209 -0.110 -0.044
0.225 -0.117 -0.048
0.240 -0.122 -0.051
0.248 -0.123 -0.053
0.241 -0.117 -0.051
0.241 -0.115 -0.051
0.253 -0.118 -0.053
0.310 -0.141 -0.065
0.313 -0.139 -0.066
0.317 -0.138 -0.066
0.303 -0.129 -0.063
0.287 -0.119 -0.060
0.285 -0.115 -0.059
0.281 -0.111 -0.058
0.271 -0.104 -0.056
0.262 -0.099 -0.054
0.247 -0.090 -0.051
0.357 -0.124 -0.074
0.359 -0.121 -0.074
0.362 -0.118 -0.075
0.365 -0.116 -0.075
0.373 -0.115 -0.077
0.378 -0.113 -0.078
0.388 -0.112 -0.080
0.394 -0.110 -0.081
0.404 -0.109 -0.083
0.412 -0.107 -0.084
0.418 -0.105 -0.085
0.435 -0.105 -0.089
0.440 -0.103 -0.090
0.380 -0.078 -0.077
0.365 -0.072 -0.074
0.285 -0.051 -0.058
0.285 -0.048 -0.058
0.285 -0.045 -0.058
0.288 -0.043 -0.058
0.292 -0.041 -0.059
0.289 -0.038 -0.059
0.293 -0.036 -0.059
0.295 -0.033 -0.060
0.300 -0.031 -0.061
0.303 -0.029 -0.061
0.306 -0.026 -0.062
0.298 -0.023 -0.060
0.291 -0.020 -0.059
0.297 -0.018 -0.060
0.301 -0.015 -0.061
0.302 -0.012 -0.061
0.308 -0.010 -0.062
0.300 -0.007 -0.061
0.301 -0.004 -0.061
0.306 -0.001 -0.062
0.307 0.001 -0.062
0.309 0.004 -0.063
0.311 0.007 -0.063
0.312 0.010 -0.063
0.314 0.013 -0.064
0.316 0.016 -0.064
0.317 0.019 -0.064
0.318 0.022 -0.064
0.317 0.024 -0.064
0.318 0.027 -0.064
0.319 0.030 -0.065
0.319 0.033 -0.065
0.320 0.036 -0.065
0.320 0.039 -0.065
0.321 0.042 -0.065
0.321 0.045 -0.065
0.321 0.048 -0.065
0.320 0.051 -0.065
0.322 0.054 -0.066
0.321 0.057 -0.066
0.321 0.060 -0.065
0.319 0.063 -0.065
0.318 0.065 -0.065
0.317 0.068 -0.065
0.317 0.071 -0.065
0.316 0.074 -0.065
0.315 0.077 -0.065
0.313 0.079 -0.064
0.313 0.082 -0.064
0.325 0.088 -0.067
0.316 0.089 -0.065
0.315 0.092 -0.065
0.321 0.096 -0.066
0.319 0.099 -0.066
0.313 0.100 -0.065
0.304 0.100 -0.063
0.310 0.105 -0.064
0.309 0.108 -0.064
0.310 0.111 -0.065
0.311 0.115 -0.065
0.316 0.142 -0.067
0.327 0.150 -0.069
0.339 0.178 -0.073
0.335 0.179 -0.072
0.348 0.190 -0.075
0.349 0.195 -0.075
0.358 0.203 -0.077
0.355 0.206 -0.077
0.350 0.207 -0.076
0.341 0.205 -0.074
0.348 0.213 -0.076
0.341 0.213 -0.075
0.351 0.228 -0.077
0.354 0.252 -0.079
0.353 0.260 -0.080
0.258 -0.357 -0.065
0.297 -0.391 -0.074
0.297 -0.385 -0.074
0.292 -0.374 -0.072
0.302 -0.380 -0.074
0.304 -0.378 -0.074
0.304 -0.372 -0.074
0.299 -0.361 -0.073
0.298 -0.355 -0.072
0.304 -0.356 -0.073
0.305 -0.353 -0.073
0.306 -0.348 -0.073
0.305 -0.342 -0.072
0.303 -0.335 -0.071
0.305 -0.332 -0.072
0.305 -0.327 -0.071
0.302 -0.319 -0.070
0.302 -0.315 -0.070
0.304 -0.311 -0.070
0.303 -0.306 -0.069
0.302 -0.300 -0.069
0.303 -0.296 -0.069
0.303 -0.292 -0.069
0.301 -0.286 -0.068
0.301 -0.280 -0.067
0.303 -0.279 -0.068
0.304 -0.275 -0.068
0.304 -0.270 -0.067
0.305 -0.267 -0.067
0.306 -0.264 -0.067
0.305 -0.259 -0.067
0.306 -0.256 -0.067
0.306 -0.251 -0.066
0.307 -0.248 -0.066
0.309 -0.246 -0.067
0.318 -0.249 -0.068
0.223 -0.163 -0.047
0.220 -0.158 -0.047
0.219 -0.155 -0.046
0.221 -0.154 -0.047
0.238 -0.163 -0.050
0.240 -0.161 -0.050
0.240 -0.159 -0.050
0.236 -0.153 -0.049
0.226 -0.144 -0.047
0.225 -0.141 -0.047
0.209 -0.128 -0.043
0.207 -0.125 -0.043
0.207 -0.123 -0.043
0.205 -0.120 -0.042
0.215 -0.122 -0.044
0.215 -0.120 -0.044
0.206 -0.113 -0.042
0.207 -0.112 -0.042
0.208 -0.110 -0.042
0.217 -0.112 -0.044
0.241 -0.122 -0.049
0.244 -0.121 -0.049
0.242 -0.118 -0.049
0.242 -0.115 -0.049
0.249 -0.116 -0.050
0.312 -0.142 -0.062
0.312 -0.139 -0.062
0.312 -0.136 -0.062
0.305 -0.130 -0.061
0.293 -0.121 -0.058
0.283 -0.115 -0.056
0.275 -0.109 -0.055
0.265 -0.102 -0.053
0.266 -0.100 -0.053
0.354 -0.123 -0.070
0.358 -0.121 -0.071
0.362 -0.118 -0.071
0.367 -0.117 -0.072
0.371 -0.114 -0.073
0.379 -0.113 -0.074
0.387 -0.112 -0.076
0.397 -0.111 -0.078
0.398 -0.108 -0.078
0.406 -0.106 -0.079
0.416 -0.105 -0.081
0.420 -0.102 -0.082
0.429 -0.100 -0.084
0.424 -0.095 -0.083
0.380 -0.078 -0.074
0.366 -0.072 -0.071
0.350 -0.065 -0.068
0.284 -0.050 -0.055
0.284 -0.048 -0.055
0.285 -0.045 -0.055
0.286 -0.043 -0.055
0.292 -0.041 -0.057
0.292 -0.038 -0.057
0.288 -0.035 -0.056
0.303 -0.034 -0.059
0.309 -0.032 -0.060
0.319 -0.030 -0.062
0.320 -0.028 -0.062
0.293 -0.023 -0.057
0.292 -0.020 -0.056
0.299 -0.018 -0.058
0.308 -0.015 -0.059
0.307 -0.013 -0.059
0.294 -0.009 -0.057
0.302 -0.007 -0.058
0.304 -0.004 -0.059
0.304 -0.001 -0.059
0.307 0.001 -0.059
0.310 0.004 -0.060
0.312 0.007 -0.060
0.313 0.010 -0.061
0.315 0.013 -0.061
0.317 0.016 -0.061
0.318 0.019 -0.062
0.317 0.021 -0.061
0.326 0.025 -0.063
0.325 0.028 -0.063
0.320 0.030 -0.062
0.320 0.033 -0.062
0.320 0.036 -0.062
0.324 0.040 -0.063
0.329 0.043 -0.064
0.321 0.045 -0.062
0.320 0.048 -0.062
0.321 0.051 -0.062
0.321 0.054 -0.062
0.322 0.057 -0.063
0.322 0.060 -0.063
0.320 0.063 -0.062
0.319 0.066 -0.062
0.318 0.068 -0.062
0.318 0.071 -0.062
0.317 0.074 -0.062
0.316 0.077 -0.062
0.315 0.080 -0.062
0.314 0.082 -0.062
0.317 0.086 -0.062
0.318 0.089 -0.062
0.314 0.091 -0.062
0.317 0.095 -0.063
0.319 0.099 -0.063
0.313 0.100 -0.062
0.304 0.100 -0.060
0.310 0.105 -0.061
0.314 0.110 -0.062
0.312 0.112 -0.062
0.306 0.116 -0.061
0.327 0.150 -0.066
0.299 0.141 -0.060
0.300 0.147 -0.061
0.327 0.171 -0.067
0.339 0.181 -0.070
0.341 0.186 -0.070
0.351 0.195 -0.072
0.353 0.201 -0.073
0.351 0.203 -0.073
0.349 0.206 -0.072
0.353 0.213 -0.073
0.358 0.220 -0.075
0.348 0.234 -0.074
0.368 0.266 -0.079
0.355 0.261 -0.076
0.338 0.285 -0.075
0.229 -0.317 -0.055
0.240 -0.328 -0.058
0.243 -0.328 -0.058
0.254 -0.339 -0.061
0.277 -0.355 -0.065
0.293 -0.353 -0.068
0.297 -0.353 -0.068
0.301 -0.353 -0.069
0.300 -0.346 -0.068
0.296 -0.337 -0.067
0.296 -0.332 -0.067
0.300 -0.331 -0.067
0.302 -0.328 -0.067
0.301 -0.323 -0.067
0.300 -0.317 -0.066
0.302 -0.313 -0.066
0.303 -0.310 -0.066
0.304 -0.306 -0.066
0.303 -0.301 -0.066
0.304 -0.297 -0.066
0.306 -0.294 -0.066
0.307 -0.291 -0.066
0.305 -0.284 -0.065
0.307 -0.281 -0.065
0.308 -0.278 -0.065
0.308 -0.274 -0.065
0.308 -0.270 -0.065
0.309 -0.266 -0.065
0.308 -0.261 -0.064
0.308 -0.257 -0.064
0.309 -0.254 -0.064
0.310 -0.250 -0.064
0.311 -0.247 -0.064
0.311 -0.243 -0.064
0.307 -0.236 -0.063
0.299 -0.226 -0.061
0.213 -0.154 -0.043
0.214 -0.151 -0.043
0.218 -0.151 -0.044
0.230 -0.157 -0.046
0.234 -0.157 -0.047
0.233 -0.154 -0.046
0.228 -0.148 -0.045
0.219 -0.139 -0.043
0.217 -0.136 -0.043
0.204 -0.125 -0.040
0.205 -0.123 -0.040
0.204 -0.121 -0.040
0.205 -0.119 -0.040
0.208 -0.118 -0.041
0.215 -0.120 -0.042
0.205 -0.112 -0.040
0.206 -0.111 -0.040
0.207 -0.109 -0.040
0.211 -0.109 -0.041
0.240 -0.121 -0.046
0.242 -0.120 -0.046
0.248 -0.120 -0.048
0.242 -0.115 -0.046
0.245 -0.114 -0.047
0.311 -0.141 -0.059
0.312 -0.139 -0.059
0.310 -0.135 -0.059
0.285 -0.118 -0.054
0.276 -0.112 -0.052
0.253 -0.098 -0.048
0.264 -0.099 -0.050
0.353 -0.122 -0.066
0.355 -0.120 -0.067
0.366 -0.120 -0.069
0.369 -0.117 -0.069
0.373 -0.115 -0.070
0.379 -0.113 -0.071
0.385 -0.111 -0.072
0.394 -0.110 -0.073
0.398 -0.107 -0.074
0.399 -0.104 -0.074
0.407 -0.102 -0.076
0.418 -0.101 -0.078
0.426 -0.099 -0.079
0.423 -0.094 -0.078
0.372 -0.076 -0.069
0.361 -0.071 -0.067
0.352 -0.066 -0.065
0.286 -0.051 -0.053
0.285 -0.048 -0.053
0.284 -0.045 -0.052
0.288 -0.043 -0.053
0.286 -0.040 -0.053
0.286 -0.038 -0.053
0.283 -0.035 -0.052
0.292 -0.033 -0.054
0.320 -0.033 -0.059
0.331 -0.031 -0.061
0.288 -0.022 -0.053
0.284 -0.019 -0.052
0.296 -0.017 -0.055
0.307 -0.015 -0.056
0.311 -0.013 -0.057
0.299 -0.010 -0.055
0.303 -0.007 -0.056
0.304 -0.004 -0.056
0.306 -0.001 -0.056
0.309 0.001 -0.057
0.310 0.004 -0.057
0.312 0.007 -0.057
0.313 0.010 -0.058
0.316 0.013 -0.058
0.317 0.016 -0.058
0.319 0.019 -0.059
0.322 0.022 -0.059
0.315 0.024 -0.058
0.317 0.027 -0.058
0.320 0.030 -0.059
0.320 0.033 -0.059
0.319 0.036 -0.059
0.319 0.039 -0.059
0.321 0.042 -0.059
0.320 0.045 -0.059
0.332 0.050 -0.061
0.321 0.051 -0.059
0.321 0.054 -0.059
0.321 0.057 -0.060
0.321 0.060 -0.060
0.321 0.063 -0.060
0.320 0.066 -0.059
0.319 0.068 -0.059
0.318 0.071 -0.059
0.317 0.074 -0.059
0.317 0.077 -0.059
0.316 0.080 -0.059
0.314 0.082 -0.059
0.313 0.085 -0.059
0.318 0.089 -0.060
0.313 0.091 -0.059
0.313 0.094 -0.059
0.315 0.097 -0.059
0.314 0.100 -0.059
0.308 0.101 -0.058
0.312 0.106 -0.059
0.307 0.107 -0.058
0.307 0.110 -0.058
0.311 0.117 -0.059
0.295 0.114 -0.056
0.329 0.151 -0.063
0.312 0.147 -0.060
0.320 0.167 -0.062
0.334 0.178 -0.065
0.346 0.189 -0.068
0.353 0.196 -0.069
0.358 0.211 -0.071
0.363 0.218 -0.072
0.357 0.223 -0.071
0.343 0.218 -0.068
0.330 0.217 -0.066
0.350 0.252 -0.071
0.242 -0.335 -0.055
0.238 -0.325 -0.054
0.242 -0.327 -0.055
0.247 -0.328 -0.056
0.253 -0.332 -0.057
0.269 -0.344 -0.060
0.265 -0.333 -0.059
0.257 -0.319 -0.057
0.262 -0.321 -0.058
0.289 -0.344 -0.063
0.288 -0.337 -0.062
0.284 -0.328 -0.061
0.289 -0.324 -0.062
0.294 -0.325 -0.063
0.298 -0.323 -0.063
0.300 -0.321 -0.063
0.299 -0.315 -0.063
0.300 -0.311 -0.063
0.302 -0.309 -0.063
0.304 -0.306 -0.063
0.308 -0.305 -0.063
0.307 -0.299 -0.063
0.308 -0.296 -0.063
0.311 -0.294 -0.063
0.313 -0.292 -0.063
0.312 -0.286 -0.063
0.312 -0.281 -0.063
0.312 -0.277 -0.062
0.312 -0.273 -0.062
0.311 -0.267 -0.062
0.309 -0.262 -0.061
0.310 -0.258 -0.061
0.311 -0.255 -0.061
0.313 -0.252 -0.061
0.312 -0.248 -0.061
0.310 -0.242 -0.060
0.307 -0.236 -0.060
0.297 -0.225 -0.058
0.223 -0.163 -0.043
0.216 -0.155 -0.041
0.215 -0.152 -0.041
0.211 -0.147 -0.040
0.218 -0.149 -0.041
0.224 -0.151 -0.043
0.208 -0.137 -0.039
0.201 -0.130 -0.038
0.201 -0.128 -0.038
0.202 -0.126 -0.038
0.203 -0.125 -0.038
0.205 -0.123 -0.038
0.204 -0.121 -0.038
0.201 -0.117 -0.037
0.207 -0.118 -0.038
0.211 -0.118 -0.039
0.206 -0.113 -0.038
0.205 -0.110 -0.038
0.206 -0.109 -0.038
0.208 -0.107 -0.038
0.236 -0.119 -0.043
0.238 -0.118 -0.043
0.246 -0.119 -0.045
0.241 -0.115 -0.044
0.244 -0.113 -0.044
0.296 -0.132 -0.054
0.228 -0.097 -0.041
0.219 -0.091 -0.039
0.221 -0.090 -0.040
0.223 -0.088 -0.040
0.214 -0.082 -0.038
0.260 -0.095 -0.047
0.267 -0.095 -0.048
0.353 -0.122 -0.063
0.355 -0.119 -0.063
0.360 -0.117 -0.064
0.369 -0.117 -0.066
0.373 -0.115 -0.066
0.377 -0.112 -0.067
0.385 -0.111 -0.068
0.392 -0.110 -0.070
0.401 -0.108 -0.071
0.405 -0.105 -0.072
0.411 -0.103 -0.073
0.418 -0.101 -0.074
0.427 -0.099 -0.075
0.426 -0.095 -0.075
0.382 -0.082 -0.067
0.367 -0.075 -0.065
0.361 -0.071 -0.064
0.348 -0.065 -0.061
0.287 -0.051 -0.050
0.285 -0.048 -0.050
0.280 -0.044 -0.049
0.285 -0.043 -0.050
0.293 -0.041 -0.051
0.282 -0.037 -0.050
0.280 -0.034 -0.049
0.289 -0.033 -0.051
0.313 -0.033 -0.055
0.321 -0.031 -0.056
0.310 -0.027 -0.054
0.289 -0.022 -0.051
0.288 -0.020 -0.050
0.299 -0.018 -0.052
0.306 -0.015 -0.054
0.305 -0.012 -0.053
0.302 -0.010 -0.053
0.302 -0.007 -0.053
0.305 -0.004 -0.053
0.307 -0.001 -0.054
0.310 0.001 -0.054
0.311 0.004 -0.054
0.312 0.007 -0.055
0.315 0.010 -0.055
0.316 0.013 -0.055
0.318 0.016 -0.056
0.319 0.019 -0.056
0.317 0.021 -0.056
0.317 0.024 -0.056
0.319 0.027 -0.056
0.318 0.030 -0.056
0.319 0.033 -0.056
0.318 0.036 -0.056
0.319 0.039 -0.056
0.321 0.042 -0.056
0.321 0.045 -0.056
0.321 0.048 -0.056
0.336 0.053 -0.059
0.322 0.054 -0.057
0.322 0.057 -0.057
0.321 0.060 -0.057
0.321 0.063 -0.057
0.320 0.066 -0.057
0.319 0.068 -0.056
0.318 0.071 -0.056
0.317 0.074 -0.056
0.316 0.077 -0.056
0.316 0.080 -0.056
0.314 0.082 -0.056
0.313 0.085 -0.056
0.319 0.089 -0.057
0.316 0.092 -0.056
0.314 0.094 -0.056
0.314 0.097 -0.056
0.314 0.100 -0.056
0.312 0.103 -0.056
0.305 0.103 -0.055
0.301 0.105 -0.054
0.301 0.108 -0.054
0.304 0.112 -0.055
0.348 0.152 -0.063
0.340 0.156 -0.062
0.314 0.147 -0.057
0.348 0.190 -0.065
0.360 0.200 -0.067
0.350 0.198 -0.065
0.352 0.203 -0.066
0.355 0.209 -0.067
0.329 0.209 -0.062
0.331 0.215 -0.063
0.336 0.222 -0.064
0.334 0.225 -0.064
0.338 0.235 -0.065
0.237 -0.328 -0.051
0.248 -0.338 -0.053
0.250 -0.337 -0.054
0.251 -0.334 -0.054
0.251 -0.329 -0.054
0.254 -0.329 -0.054
0.261 -0.333 -0.055
0.256 -0.322 -0.054
0.258 -0.320 -0.054
0.259 -0.316 -0.054
0.265 -0.320 -0.055
0.279 -0.331 -0.058
0.280 -0.327 -0.057
0.274 -0.316 -0.056
0.291 -0.316 -0.058
0.288 -0.308 -0.058
0.286 -0.301 -0.057
0.291 -0.302 -0.058
0.299 -0.305 -0.059
0.307 -0.309 -0.060
0.309 -0.306 -0.060
0.306 -0.298 -0.059
0.307 -0.295 -0.059
0.311 -0.294 -0.060
0.314 -0.292 -0.060
0.316 -0.290 -0.060
0.316 -0.285 -0.060
0.315 -0.279 -0.060
0.313 -0.274 -0.059
0.313 -0.269 -0.059
0.312 -0.264 -0.059
0.310 -0.258 -0.058
0.311 -0.255 -0.058
0.313 -0.253 -0.058
0.309 -0.246 -0.057
0.311 -0.243 -0.057
0.308 -0.237 -0.057
0.230 -0.168 -0.042
0.220 -0.158 -0.040
0.219 -0.155 -0.040
0.216 -0.150 -0.039
0.205 -0.140 -0.037
0.211 -0.142 -0.038
0.214 -0.141 -0.038
0.202 -0.131 -0.036
0.203 -0.129 -0.036
0.205 -0.128 -0.036
0.206 -0.126 -0.036
0.210 -0.127 -0.037
0.213 -0.126 -0.037
0.213 -0.124 -0.037
0.215 -0.123 -0.038
0.211 -0.118 -0.037
0.211 -0.116 -0.037
0.221 -0.117 -0.039
0.224 -0.116 -0.039
0.225 -0.114 -0.039
0.227 -0.112 -0.039
0.223 -0.108 -0.038
0.211 -0.100 -0.036
0.209 -0.097 -0.036
0.216 -0.098 -0.037
0.215 -0.095 -0.037
0.220 -0.096 -0.038
0.215 -0.091 -0.037
0.214 -0.089 -0.037
0.215 -0.087 -0.037
0.214 -0.084 -0.036
0.207 -0.080 -0.035
0.210 -0.079 -0.036
0.353 -0.119 -0.060
0.358 -0.117 -0.060
0.364 -0.115 -0.061
0.370 -0.114 -0.062
0.376 -0.112 -0.063
0.382 -0.110 -0.064
0.396 -0.110 -0.066
0.403 -0.109 -0.068
0.410 -0.107 -0.069
0.414 -0.104 -0.069
0.420 -0.101 -0.070
0.432 -0.100 -0.072
0.430 -0.096 -0.072
0.374 -0.076 -0.062
0.371 -0.072 -0.062
0.286 -0.051 -0.048
0.282 -0.047 -0.047
0.279 -0.044 -0.046
0.290 -0.043 -0.048
0.293 -0.041 -0.049
0.282 -0.037 -0.047
0.282 -0.034 -0.047
0.281 -0.032 -0.047
0.299 -0.031 -0.050
0.315 -0.030 -0.052
0.300 -0.026 -0.050
0.294 -0.023 -0.049
0.297 -0.020 -0.049
0.301 -0.018 -0.050
0.302 -0.015 -0.050
0.302 -0.012 -0.050
0.301 -0.010 -0.050
0.302 -0.007 -0.050
0.305 -0.004 -0.050
0.308 -0.001 -0.051
0.311 0.001 -0.052
0.313 0.004 -0.052
0.313 0.007 -0.052
0.315 0.010 -0.052
0.316 0.013 -0.052
0.322 0.016 -0.053
0.318 0.019 -0.053
0.317 0.021 -0.053
0.315 0.024 -0.052
0.317 0.027 -0.053
0.316 0.030 -0.053
0.317 0.033 -0.053
0.316 0.036 -0.053
0.318 0.039 -0.053
0.319 0.042 -0.053
0.322 0.045 -0.054
0.322 0.048 -0.054
0.321 0.051 -0.053
0.331 0.056 -0.055
0.322 0.057 -0.054
0.322 0.060 -0.054
0.321 0.063 -0.054
0.321 0.066 -0.054
0.320 0.068 -0.054
0.318 0.071 -0.053
0.317 0.074 -0.053
0.317 0.077 -0.053
0.316 0.080 -0.053
0.315 0.082 -0.053
0.315 0.085 -0.053
0.319 0.089 -0.054
0.319 0.093 -0.054
0.316 0.095 -0.053
0.318 0.098 -0.054
0.323 0.103 -0.055
0.317 0.104 -0.054
0.310 0.105 -0.053
0.304 0.106 -0.052
0.304 0.109 -0.052
0.312 0.115 -0.053
0.351 0.161 -0.061
0.343 0.161 -0.060
0.316 0.151 -0.055
0.312 0.163 -0.055
0.302 0.185 -0.054
0.314 0.196 -0.056
0.343 0.226 -0.062
0.332 0.235 -0.061
0.314 0.239 -0.058
0.252 -0.348 -0.051
0.252 -0.344 -0.051
0.254 -0.342 -0.052
0.255 -0.339 -0.052
0.253 -0.332 -0.051
0.252 -0.326 -0.051
0.253 -0.323 -0.051
0.261 -0.328 -0.052
0.265 -0.329 -0.052
0.267 -0.326 -0.053
0.269 -0.324 -0.053
0.274 -0.325 -0.053
0.273 -0.319 -0.053
0.281 -0.295 -0.053
0.287 -0.298 -0.054
0.293 -0.299 -0.055
0.303 -0.304 -0.056
0.304 -0.300 -0.056
0.298 -0.291 -0.055
0.298 -0.286 -0.055
0.305 -0.288 -0.055
0.311 -0.289 -0.056
0.316 -0.289 -0.057
0.316 -0.285 -0.057
0.315 -0.279 -0.056
0.316 -0.276 -0.056
0.315 -0.271 -0.056
0.316 -0.267 -0.056
0.312 -0.260 -0.055
0.313 -0.257 -0.055
0.311 -0.251 -0.055
0.304 -0.237 -0.053
0.217 -0.164 -0.037
0.227 -0.168 -0.039
0.228 -0.167 -0.039
0.224 -0.161 -0.038
0.221 -0.156 -0.038
0.214 -0.149 -0.036
0.211 -0.144 -0.036
0.208 -0.140 -0.035
0.212 -0.139 -0.036
0.213 -0.138 -0.036
0.218 -0.138 -0.037
0.220 -0.137 -0.037
0.220 -0.135 -0.037
0.219 -0.132 -0.037
0.217 -0.128 -0.036
0.215 -0.125 -0.036
0.217 -0.123 -0.036
0.215 -0.120 -0.036
0.210 -0.115 -0.035
0.212 -0.114 -0.035
0.221 -0.116 -0.036
0.223 -0.115 -0.037
0.222 -0.112 -0.036
0.219 -0.108 -0.036
0.213 -0.103 -0.035
0.204 -0.097 -0.033
0.206 -0.096 -0.034
0.209 -0.095 -0.034
0.216 -0.096 -0.035
0.212 -0.092 -0.034
0.210 -0.089 -0.034
0.211 -0.087 -0.034
0.211 -0.085 -0.034
0.210 -0.083 -0.034
0.208 -0.080 -0.033
0.207 -0.077 -0.033
0.362 -0.115 -0.058
0.369 -0.113 -0.059
0.375 -0.111 -0.060
0.380 -0.109 -0.060
0.391 -0.109 -0.062
0.403 -0.109 -0.064
0.408 -0.106 -0.065
0.413 -0.104 -0.065
0.421 -0.102 -0.067
0.434 -0.101 -0.069
0.428 -0.095 -0.068
0.399 -0.085 -0.063
0.383 -0.078 -0.060
0.370 -0.072 -0.058
0.285 -0.050 -0.045
0.280 -0.047 -0.044
0.282 -0.045 -0.044
0.287 -0.043 -0.045
0.286 -0.040 -0.045
0.284 -0.037 -0.045
0.283 -0.035 -0.044
0.285 -0.032 -0.045
0.292 -0.030 -0.046
0.310 -0.029 -0.049
0.306 -0.026 -0.048
0.296 -0.023 -0.046
0.296 -0.020 -0.046
0.302 -0.018 -0.047
0.303 -0.015 -0.047
0.300 -0.012 -0.047
0.301 -0.010 -0.047
0.302 -0.007 -0.047
0.307 -0.004 -0.048
0.308 -0.001 -0.048
0.310 0.001 -0.049
0.314 0.004 -0.049
0.315 0.007 -0.049
0.314 0.010 -0.049
0.323 0.013 -0.051
0.317 0.016 -0.050
0.318 0.019 -0.050
0.316 0.021 -0.050
0.314 0.024 -0.049
0.314 0.027 -0.049
0.314 0.030 -0.049
0.314 0.033 -0.049
0.315 0.036 -0.049
0.315 0.038 -0.049
0.315 0.041 -0.050
0.320 0.045 -0.050
0.321 0.048 -0.051
0.322 0.051 -0.051
0.321 0.054 -0.051
0.324 0.057 -0.051
0.322 0.060 -0.051
0.322 0.063 -0.051
0.321 0.066 -0.051
0.320 0.068 -0.051
0.318 0.071 -0.050
0.318 0.074 -0.050
0.318 0.077 -0.050
0.317 0.080 -0.050
0.316 0.082 -0.050
0.316 0.085 -0.050
0.317 0.089 -0.051
0.320 0.093 -0.051
0.316 0.094 -0.050
0.325 0.100 -0.052
0.328 0.105 -0.053
0.320 0.105 -0.051
0.310 0.105 -0.050
0.305 0.106 -0.049
0.306 0.109 -0.049
0.293 0.114 -0.047
0.357 0.163 -0.058
0.345 0.161 -0.056
0.307 0.154 -0.051
0.302 0.154 -0.050
0.263 -0.362 -0.050
0.252 -0.344 -0.048
0.255 -0.344 -0.049
0.258 -0.342 -0.049
0.258 -0.337 -0.049
0.255 -0.329 -0.048
0.258 -0.329 -0.048
0.266 -0.334 -0.050
0.276 -0.342 -0.051
0.272 -0.332 -0.050
0.273 -0.328 -0.050
0.272 -0.323 -0.050
0.280 -0.295 -0.050
0.287 -0.297 -0.051
0.290 -0.296 -0.051
0.283 -0.284 -0.049
0.294 -0.290 -0.051
0.294 -0.286 -0.051
0.297 -0.284 -0.051
0.301 -0.284 -0.052
0.305 -0.283 -0.052
0.299 -0.273 -0.051
0.303 -0.273 -0.051
0.310 -0.275 -0.052
0.312 -0.272 -0.052
0.313 -0.269 -0.052
0.310 -0.262 -0.052
0.314 -0.261 -0.052
0.320 -0.262 -0.053
0.325 -0.262 -0.054
0.220 -0.168 -0.036
0.210 -0.158 -0.034
0.213 -0.158 -0.035
0.223 -0.162 -0.036
0.219 -0.157 -0.035
0.217 -0.153 -0.035
0.211 -0.147 -0.034
0.212 -0.145 -0.034
0.212 -0.142 -0.034
0.211 -0.139 -0.034
0.215 -0.139 -0.034
0.219 -0.139 -0.035
0.220 -0.137 -0.035
0.223 -0.137 -0.035
0.219 -0.132 -0.035
0.212 -0.125 -0.033
0.210 -0.122 -0.033
0.213 -0.121 -0.033
0.218 -0.122 -0.034
0.214 -0.117 -0.033
0.214 -0.115 -0.033
0.217 -0.114 -0.034
0.216 -0.112 -0.033
0.216 -0.109 -0.033
0.216 -0.107 -0.033
0.214 -0.104 -0.033
0.219 -0.104 -0.034
0.208 -0.096 -0.032
0.223 -0.101 -0.034
0.218 -0.097 -0.033
0.216 -0.094 -0.033
0.216 -0.091 -0.033
0.208 -0.086 -0.032
0.207 -0.084 -0.031
0.206 -0.081 -0.031
0.207 -0.080 -0.031
0.213 -0.080 -0.032
0.292 -0.095 -0.044
0.369 -0.113 -0.055
0.372 -0.111 -0.056
0.379 -0.109 -0.057
0.396 -0.110 -0.059
0.403 -0.108 -0.060
0.407 -0.106 -0.061
0.412 -0.103 -0.061
0.420 -0.101 -0.063
0.428 -0.099 -0.064
0.425 -0.095 -0.063
0.383 -0.078 -0.057
0.368 -0.072 -0.055
0.356 -0.066 -0.053
0.283 -0.050 -0.042
0.279 -0.047 -0.041
0.282 -0.045 -0.042
0.282 -0.042 -0.042
0.281 -0.039 -0.042
0.281 -0.037 -0.042
0.286 -0.035 -0.042
0.284 -0.032 -0.042
0.297 -0.031 -0.044
0.307 -0.029 -0.045
0.308 -0.026 -0.046
0.295 -0.023 -0.044
0.295 -0.020 -0.044
0.300 -0.018 -0.044
0.305 -0.015 -0.045
0.299 -0.012 -0.044
0.301 -0.010 -0.044
0.305 -0.007 -0.045
0.308 -0.004 -0.045
0.309 -0.001 -0.046
0.311 0.001 -0.046
0.315 0.004 -0.046
0.316 0.007 -0.047
0.315 0.010 -0.047
0.320 0.013 -0.047
0.317 0.016 -0.047
0.316 0.018 -0.047
0.315 0.021 -0.047
0.314 0.024 -0.046
0.314 0.027 -0.046
0.313 0.030 -0.046
0.313 0.032 -0.046
0.313 0.035 -0.046
0.314 0.038 -0.047
0.316 0.041 -0.047
0.318 0.045 -0.047
0.320 0.048 -0.047
0.321 0.051 -0.048
0.325 0.054 -0.048
0.325 0.058 -0.048
0.323 0.060 -0.048
0.323 0.063 -0.048
0.322 0.066 -0.048
0.320 0.069 -0.048
0.319 0.071 -0.048
0.319 0.074 -0.048
0.318 0.077 -0.047
0.317 0.080 -0.047
0.316 0.082 -0.047
0.315 0.085 -0.047
0.315 0.088 -0.047
0.317 0.092 -0.048
0.310 0.093 -0.047
0.329 0.101 -0.049
0.327 0.104 -0.049
0.320 0.105 -0.048
0.310 0.105 -0.047
0.307 0.107 -0.046
0.298 0.106 -0.045
0.299 0.110 -0.045
0.286 0.111 -0.044
0.243 -0.336 -0.044
0.248 -0.337 -0.044
0.253 -0.340 -0.045
0.258 -0.342 -0.046
0.262 -0.343 -0.046
0.262 -0.339 -0.046
0.264 -0.336 -0.046
0.268 -0.337 -0.047
0.270 -0.334 -0.047
0.276 -0.337 -0.048
0.177 -0.203 -0.030
0.173 -0.196 -0.029
0.193 -0.215 -0.033
0.196 -0.215 -0.033
0.197 -0.214 -0.033
0.208 -0.222 -0.035
0.284 -0.294 -0.047
0.289 -0.294 -0.047
0.288 -0.289 -0.047
0.289 -0.285 -0.047
0.295 -0.287 -0.048
0.298 -0.285 -0.048
0.304 -0.287 -0.049
0.297 -0.276 -0.048
0.297 -0.271 -0.047
0.300 -0.270 -0.048
0.303 -0.269 -0.048
0.304 -0.265 -0.048
0.301 -0.259 -0.047
0.300 -0.253 -0.047
0.304 -0.252 -0.047
0.312 -0.256 -0.049
0.211 -0.162 -0.032
0.210 -0.158 -0.032
0.212 -0.157 -0.032
0.213 -0.155 -0.032
0.210 -0.151 -0.032
0.209 -0.147 -0.031
0.208 -0.144 -0.031
0.213 -0.145 -0.032
0.207 -0.139 -0.031
0.217 -0.143 -0.032
0.212 -0.137 -0.032
0.213 -0.136 -0.032
0.212 -0.132 -0.031
0.213 -0.131 -0.032
0.216 -0.130 -0.032
0.208 -0.123 -0.031
0.200 -0.116 -0.029
0.201 -0.114 -0.030
0.200 -0.112 -0.029
0.212 -0.116 -0.031
0.215 -0.115 -0.031
0.198 -0.104 -0.029
0.211 -0.109 -0.031
0.207 -0.105 -0.030
0.217 -0.107 -0.031
0.222 -0.107 -0.032
0.220 -0.104 -0.032
0.221 -0.102 -0.032
0.228 -0.103 -0.033
0.227 -0.101 -0.033
0.228 -0.099 -0.033
0.222 -0.094 -0.032
0.214 -0.088 -0.030
0.207 -0.084 -0.030
0.205 -0.081 -0.029
0.209 -0.080 -0.030
0.219 -0.082 -0.031
0.230 -0.084 -0.033
0.242 -0.086 -0.034
0.277 -0.090 -0.039
0.281 -0.089 -0.040
0.398 -0.111 -0.056
0.402 -0.108 -0.056
0.406 -0.105 -0.057
0.412 -0.103 -0.058
0.419 -0.101 -0.059
0.427 -0.099 -0.060
0.425 -0.095 -0.059
0.383 -0.078 -0.053
0.367 -0.072 -0.051
0.282 -0.050 -0.039
0.282 -0.047 -0.039
0.281 -0.045 -0.039
0.281 -0.042 -0.039
0.280 -0.039 -0.039
0.280 -0.037 -0.039
0.282 -0.034 -0.039
0.286 -0.032 -0.040
0.296 -0.031 -0.041
0.302 -0.029 -0.042
0.295 -0.025 -0.041
0.291 -0.022 -0.040
0.291 -0.020 -0.040
0.304 -0.018 -0.042
0.308 -0.015 -0.043
0.300 -0.012 -0.041
0.301 -0.010 -0.042
0.305 -0.007 -0.042
0.308 -0.004 -0.043
0.310 -0.001 -0.043
0.313 0.001 -0.043
0.314 0.004 -0.043
0.315 0.007 -0.044
0.319 0.010 -0.044
0.318 0.013 -0.044
0.317 0.016 -0.044
0.316 0.018 -0.044
0.315 0.021 -0.044
0.315 0.024 -0.044
0.314 0.027 -0.044
0.312 0.030 -0.043
0.311 0.032 -0.043
0.312 0.035 -0.043
0.314 0.038 -0.044
0.316 0.041 -0.044
0.317 0.044 -0.044
0.318 0.047 -0.044
0.323 0.051 -0.045
0.325 0.055 -0.045
0.325 0.057 -0.045
0.323 0.060 -0.045
0.322 0.063 -0.045
0.322 0.066 -0.045
0.322 0.069 -0.045
0.320 0.071 -0.045
0.319 0.074 -0.045
0.318 0.077 -0.045
0.316 0.080 -0.044
0.315 0.082 -0.044
0.315 0.085 -0.044
0.315 0.088 -0.044
0.316 0.091 -0.045
0.306 0.091 -0.043
0.312 0.096 -0.044
0.324 0.103 -0.046
0.321 0.105 -0.046
0.313 0.106 -0.044
0.310 0.108 -0.044
0.299 0.107 -0.042
0.298 0.109 -0.043
0.304 0.155 -0.044
0.236 -0.325 -0.040
0.247 -0.337 -0.041
0.251 -0.337 -0.042
0.260 -0.345 -0.043
0.264 -0.345 -0.044
0.262 -0.339 -0.043
0.265 -0.337 -0.043
0.261 -0.328 -0.043
0.263 -0.325 -0.043
0.248 -0.298 -0.040
0.175 -0.205 -0.028
0.169 -0.194 -0.027
0.173 -0.196 -0.027
0.186 -0.207 -0.029
0.190 -0.209 -0.030
0.190 -0.206 -0.030
0.201 -0.215 -0.031
0.286 -0.291 -0.044
0.291 -0.291 -0.044
0.294 -0.290 -0.045
0.295 -0.286 -0.045
0.301 -0.288 -0.045
0.305 -0.287 -0.046
