VERSION .7
FIELDS x y z
SIZE 4 4 4
TYPE F F F
COUNT 1 1 1
WIDTH     2434
HEIGHT 1
VIEWPOINT 0 0 0 1 0 0 0
POINTS     2434
DATA ascii
1.340 -0.632 -0.918
1.347 -0.620 -0.922
1.328 -0.597 -0.906
1.328 -0.582 -0.905
1.322 -0.565 -0.899
1.324 -0.552 -0.898
1.336 -0.542 -0.905
1.339 -0.529 -0.906
1.338 -0.515 -0.904
1.331 -0.498 -0.898
1.320 -0.480 -0.889
1.321 -0.466 -0.888
1.324 -0.453 -0.888
1.322 -0.439 -0.886
1.309 -0.421 -0.876
1.308 -0.407 -0.874
1.324 -0.398 -0.884
1.322 -0.384 -0.881
1.326 -0.372 -0.883
1.322 -0.357 -0.879
1.315 -0.342 -0.874
1.308 -0.327 -0.868
1.439 -0.984 -1.015
1.424 -0.956 -1.001
1.404 -0.925 -0.984
1.400 -0.904 -0.978
1.370 -0.851 -0.952
1.376 -0.838 -0.953
1.360 -0.796 -0.937
1.359 -0.779 -0.934
1.371 -0.770 -0.940
1.381 -0.760 -0.945
1.365 -0.734 -0.931
1.348 -0.710 -0.917
1.321 -0.681 -0.897
1.328 -0.669 -0.900
1.324 -0.652 -0.895
1.329 -0.640 -0.897
1.328 -0.624 -0.894
1.349 -0.619 -0.906
1.350 -0.605 -0.905
1.331 -0.582 -0.890
1.331 -0.568 -0.889
1.332 -0.554 -0.888
1.335 -0.541 -0.889
1.334 -0.526 -0.886
1.335 -0.512 -0.886
1.326 -0.495 -0.878
1.332 -0.483 -0.881
1.327 -0.467 -0.876
1.317 -0.450 -0.868
1.307 -0.433 -0.860
1.304 -0.418 -0.857
1.329 -0.413 -0.873
1.326 -0.398 -0.869
1.322 -0.383 -0.866
1.321 -0.369 -0.864
1.316 -0.355 -0.860
1.318 -0.342 -0.860
1.318 -0.329 -0.860
0.330 0.038 -0.214
0.352 0.075 -0.230
1.412 -0.927 -0.971
1.407 -0.889 -0.963
1.379 -0.854 -0.940
1.384 -0.841 -0.942
1.359 -0.793 -0.920
1.363 -0.779 -0.919
1.383 -0.758 -0.929
1.351 -0.725 -0.905
1.336 -0.702 -0.893
1.334 -0.685 -0.889
1.340 -0.673 -0.891
1.346 -0.661 -0.893
1.335 -0.641 -0.884
1.337 -0.627 -0.884
1.334 -0.611 -0.880
1.340 -0.599 -0.882
1.334 -0.581 -0.876
1.335 -0.568 -0.876
1.345 -0.557 -0.880
1.331 -0.537 -0.870
1.324 -0.520 -0.864
1.322 -0.506 -0.861
1.332 -0.495 -0.866
1.333 -0.482 -0.865
1.331 -0.467 -0.863
1.321 -0.450 -0.855
1.310 -0.433 -0.847
1.331 -0.426 -0.859
1.336 -0.414 -0.861
1.330 -0.398 -0.857
1.318 -0.381 -0.848
1.309 -0.365 -0.841
1.304 -0.351 -0.837
1.310 -0.339 -0.840
0.324 0.040 -0.206
0.320 0.043 -0.204
0.319 0.046 -0.203
1.418 -0.946 -0.961
1.411 -0.923 -0.953
1.407 -0.904 -0.948
1.402 -0.883 -0.942
1.415 -0.874 -0.947
1.406 -0.851 -0.939
1.381 -0.820 -0.920
1.367 -0.795 -0.908
1.371 -0.781 -0.909
1.380 -0.770 -0.912
1.355 -0.740 -0.893
1.351 -0.723 -0.888
1.346 -0.705 -0.883
1.350 -0.691 -0.883
1.349 -0.676 -0.881
1.340 -0.656 -0.873
1.344 -0.643 -0.874
1.348 -0.630 -0.875
1.347 -0.615 -0.873
1.330 -0.593 -0.860
1.332 -0.579 -0.859
1.336 -0.566 -0.860
1.328 -0.549 -0.854
1.317 -0.530 -0.845
1.315 -0.515 -0.842
1.324 -0.505 -0.846
1.335 -0.481 -0.851
1.322 -0.463 -0.841
1.323 -0.449 -0.841
1.334 -0.439 -0.847
1.323 -0.422 -0.839
1.330 -0.411 -0.842
1.333 -0.398 -0.843
1.319 -0.380 -0.833
1.311 -0.365 -0.827
1.310 -0.351 -0.825
1.316 -0.340 -0.829
0.321 0.043 -0.201
0.331 0.047 -0.207
1.423 -0.928 -0.943
1.405 -0.882 -0.926
1.416 -0.855 -0.928
1.386 -0.820 -0.906
1.376 -0.798 -0.897
1.376 -0.782 -0.895
1.369 -0.762 -0.888
1.362 -0.742 -0.881
1.366 -0.729 -0.882
1.373 -0.701 -0.882
1.352 -0.675 -0.866
1.342 -0.655 -0.858
1.353 -0.646 -0.864
1.360 -0.634 -0.866
1.351 -0.615 -0.859
1.333 -0.592 -0.846
1.333 -0.578 -0.844
1.343 -0.568 -0.849
1.333 -0.549 -0.841
1.318 -0.529 -0.830
1.318 -0.515 -0.829
1.323 -0.503 -0.830
1.331 -0.492 -0.834
1.323 -0.476 -0.828
1.321 -0.461 -0.826
1.327 -0.449 -0.828
1.324 -0.435 -0.825
1.321 -0.420 -0.822
1.327 -0.409 -0.825
1.330 -0.396 -0.826
1.324 -0.381 -0.821
1.315 -0.365 -0.815
1.323 -0.354 -0.818
1.330 -0.342 -0.822
0.301 0.040 -0.184
0.305 0.046 -0.187
0.301 0.049 -0.185
0.199 -0.137 -0.131
0.204 -0.138 -0.134
0.205 -0.136 -0.134
1.449 -0.943 -0.942
1.424 -0.891 -0.921
1.425 -0.875 -0.919
1.420 -0.855 -0.913
1.400 -0.826 -0.898
1.387 -0.802 -0.887
1.381 -0.782 -0.881
1.372 -0.761 -0.873
1.371 -0.745 -0.871
1.373 -0.730 -0.870
1.377 -0.717 -0.870
1.359 -0.692 -0.857
1.350 -0.673 -0.849
1.350 -0.657 -0.847
1.360 -0.647 -0.852
1.359 -0.632 -0.849
1.339 -0.608 -0.835
1.333 -0.591 -0.830
1.336 -0.578 -0.831
1.345 -0.567 -0.835
1.354 -0.557 -0.839
1.330 -0.532 -0.822
1.326 -0.517 -0.818
1.328 -0.504 -0.819
1.330 -0.491 -0.818
1.324 -0.475 -0.814
1.327 -0.462 -0.814
1.324 -0.447 -0.811
1.325 -0.434 -0.810
1.324 -0.420 -0.809
1.328 -0.408 -0.810
1.328 -0.394 -0.809
1.315 -0.377 -0.800
1.324 -0.367 -0.805
1.319 -0.352 -0.801
1.322 -0.340 -0.802
0.304 0.037 -0.183
0.295 0.039 -0.178
0.295 0.042 -0.178
0.304 0.046 -0.183
0.312 0.050 -0.188
0.204 -0.140 -0.131
0.206 -0.139 -0.132
0.207 -0.137 -0.133
1.443 -0.883 -0.913
1.425 -0.855 -0.899
1.413 -0.831 -0.889
1.395 -0.804 -0.876
1.384 -0.766 -0.864
1.376 -0.746 -0.857
1.378 -0.731 -0.856
1.361 -0.707 -0.844
1.343 -0.682 -0.831
1.357 -0.659 -0.836
1.363 -0.647 -0.838
1.329 -0.588 -0.812
1.340 -0.578 -0.817
1.348 -0.567 -0.821
1.343 -0.537 -0.815
1.341 -0.522 -0.812
1.337 -0.506 -0.809
1.334 -0.491 -0.806
1.328 -0.475 -0.800
1.320 -0.458 -0.794
1.324 -0.446 -0.796
1.329 -0.434 -0.798
1.328 -0.421 -0.796
1.328 -0.407 -0.795
1.299 -0.385 -0.777
1.321 -0.378 -0.789
1.314 -0.363 -0.784
1.311 -0.349 -0.782
1.321 -0.339 -0.787
0.276 -0.052 -0.164
0.305 -0.051 -0.180
0.317 -0.041 -0.187
0.320 0.026 -0.189
0.318 0.029 -0.188
0.313 0.032 -0.185
0.316 0.035 -0.186
0.314 0.038 -0.186
0.305 0.040 -0.180
0.301 0.042 -0.178
0.299 0.045 -0.177
0.306 0.049 -0.181
0.317 0.054 -0.188
0.136 -0.097 -0.087
0.206 -0.141 -0.130
0.207 -0.139 -0.131
0.208 -0.137 -0.131
0.209 -0.135 -0.131
1.405 -0.824 -0.867
1.399 -0.804 -0.861
1.387 -0.781 -0.852
1.378 -0.760 -0.844
1.379 -0.745 -0.842
1.377 -0.729 -0.840
1.370 -0.709 -0.833
1.355 -0.686 -0.822
1.345 -0.666 -0.814
1.352 -0.655 -0.817
1.362 -0.645 -0.821
1.358 -0.628 -0.817
1.346 -0.608 -0.808
1.339 -0.590 -0.803
1.341 -0.577 -0.802
1.348 -0.566 -0.805
1.356 -0.526 -0.806
1.356 -0.512 -0.805
1.345 -0.494 -0.797
1.328 -0.474 -0.786
1.326 -0.459 -0.783
1.325 -0.445 -0.782
1.325 -0.432 -0.781
1.329 -0.420 -0.782
1.297 -0.397 -0.762
1.319 -0.390 -0.774
1.313 -0.375 -0.770
1.309 -0.361 -0.766
1.307 -0.347 -0.765
1.318 -0.337 -0.770
0.300 -0.056 -0.174
0.327 -0.042 -0.189
0.324 -0.032 -0.187
0.304 -0.019 -0.175
0.323 0.020 -0.187
0.326 0.024 -0.188
0.327 0.027 -0.189
0.317 0.029 -0.183
0.313 0.032 -0.182
0.315 0.035 -0.182
0.328 0.040 -0.190
0.320 0.042 -0.186
0.312 0.044 -0.181
0.307 0.046 -0.178
0.304 0.049 -0.177
0.298 0.051 -0.173
0.305 0.055 -0.178
0.340 0.141 -0.204
0.142 -0.101 -0.089
0.207 -0.141 -0.128
0.208 -0.139 -0.128
0.209 -0.137 -0.129
0.210 -0.135 -0.129
1.438 -0.858 -0.873
1.381 -0.808 -0.836
1.389 -0.780 -0.837
1.374 -0.741 -0.823
1.379 -0.728 -0.824
1.378 -0.712 -0.822
1.377 -0.696 -0.819
1.359 -0.672 -0.807
1.361 -0.658 -0.807
1.372 -0.648 -0.812
1.383 -0.638 -0.816
1.373 -0.619 -0.809
1.353 -0.595 -0.796
1.347 -0.578 -0.790
1.368 -0.530 -0.798
1.365 -0.514 -0.795
1.354 -0.496 -0.787
1.338 -0.476 -0.777
1.327 -0.459 -0.769
1.323 -0.444 -0.766
1.318 -0.429 -0.762
1.310 -0.413 -0.756
1.325 -0.404 -0.764
1.321 -0.390 -0.761
1.319 -0.376 -0.758
1.313 -0.361 -0.754
1.315 -0.349 -0.755
1.319 -0.337 -0.756
0.296 -0.052 -0.169
0.322 -0.051 -0.183
0.318 -0.044 -0.181
0.331 -0.043 -0.188
0.333 -0.033 -0.189
0.319 -0.020 -0.181
0.312 0.014 -0.177
0.312 0.017 -0.177
0.315 0.020 -0.178
0.319 0.023 -0.181
0.312 0.026 -0.177
0.322 0.030 -0.183
0.316 0.032 -0.179
0.310 0.034 -0.176
0.311 0.038 -0.177
0.326 0.043 -0.186
0.311 0.044 -0.177
0.318 0.048 -0.181
0.221 -0.162 -0.136
0.170 -0.120 -0.104
0.207 -0.141 -0.126
0.209 -0.139 -0.126
0.209 -0.137 -0.126
0.210 -0.135 -0.126
1.458 -0.902 -0.872
1.390 -0.779 -0.821
1.399 -0.768 -0.824
1.405 -0.755 -0.825
1.356 -0.713 -0.795
1.369 -0.705 -0.801
1.376 -0.693 -0.803
1.373 -0.677 -0.800
1.377 -0.664 -0.801
1.392 -0.656 -0.807
0.247 -0.100 -0.142
0.249 -0.099 -0.143
1.369 -0.514 -0.781
1.364 -0.498 -0.778
1.352 -0.480 -0.770
1.331 -0.459 -0.756
1.313 -0.439 -0.745
1.305 -0.423 -0.740
1.328 -0.418 -0.752
1.330 -0.405 -0.752
1.324 -0.390 -0.747
1.322 -0.376 -0.745
1.325 -0.364 -0.747
1.319 -0.349 -0.742
1.316 -0.335 -0.740
0.298 -0.050 -0.167
0.303 -0.048 -0.169
0.303 -0.045 -0.169
0.315 -0.043 -0.175
0.325 -0.042 -0.181
0.315 -0.034 -0.175
0.297 -0.027 -0.165
0.323 -0.026 -0.179
0.330 -0.023 -0.183
0.307 0.013 -0.170
0.309 0.016 -0.172
0.304 0.019 -0.169
0.297 0.022 -0.166
0.304 0.025 -0.169
0.312 0.029 -0.174
0.310 0.031 -0.173
0.302 0.033 -0.168
0.314 0.038 -0.175
0.314 0.041 -0.175
0.321 0.045 -0.179
0.319 0.048 -0.179
0.313 0.050 -0.175
0.331 0.056 -0.185
0.337 0.060 -0.189
1.512 -1.353 -0.953
0.207 -0.141 -0.123
0.209 -0.139 -0.124
0.210 -0.137 -0.124
0.210 -0.135 -0.124
0.201 -0.127 -0.118
1.405 -0.753 -0.809
1.372 -0.720 -0.788
1.373 -0.690 -0.786
1.397 -0.671 -0.796
1.350 -0.577 -0.762
0.249 -0.101 -0.140
0.250 -0.099 -0.140
1.357 -0.509 -0.760
1.365 -0.498 -0.763
1.360 -0.482 -0.759
1.322 -0.455 -0.737
1.313 -0.438 -0.731
1.330 -0.431 -0.739
1.347 -0.423 -0.748
1.319 -0.400 -0.731
1.319 -0.387 -0.730
1.325 -0.376 -0.733
1.319 -0.361 -0.729
1.308 -0.345 -0.722
1.307 -0.332 -0.721
0.299 -0.056 -0.164
0.294 -0.052 -0.161
0.288 -0.048 -0.158
0.295 -0.046 -0.161
0.300 -0.044 -0.164
0.321 -0.044 -0.176
0.323 -0.041 -0.177
0.288 -0.029 -0.157
0.298 -0.027 -0.162
0.307 0.016 -0.168
0.296 0.019 -0.161
0.293 0.021 -0.160
0.300 0.024 -0.164
0.302 0.028 -0.165
0.299 0.030 -0.164
0.309 0.034 -0.169
0.314 0.038 -0.172
0.325 0.042 -0.178
0.319 0.045 -0.175
0.305 0.046 -0.167
0.322 0.051 -0.177
0.333 0.056 -0.183
0.330 0.059 -0.182
0.196 -0.133 -0.114
0.208 -0.138 -0.121
0.208 -0.136 -0.121
0.209 -0.134 -0.121
0.205 -0.129 -0.118
1.411 -0.819 -0.804
1.395 -0.746 -0.787
1.400 -0.733 -0.788
1.374 -0.689 -0.771
1.386 -0.680 -0.775
1.387 -0.665 -0.775
1.325 -0.579 -0.734
1.350 -0.575 -0.747
0.278 -0.113 -0.153
1.332 -0.498 -0.731
1.345 -0.489 -0.737
1.351 -0.478 -0.739
1.317 -0.452 -0.720
1.324 -0.441 -0.722
1.342 -0.434 -0.731
1.334 -0.418 -0.726
1.325 -0.402 -0.720
1.317 -0.386 -0.715
1.312 -0.371 -0.711
1.315 -0.359 -0.712
1.311 -0.345 -0.709
1.309 -0.332 -0.708
0.302 -0.056 -0.162
0.298 -0.052 -0.160
0.299 -0.050 -0.160
0.303 -0.047 -0.162
0.305 -0.045 -0.163
0.311 -0.043 -0.167
0.321 -0.041 -0.172
0.295 -0.029 -0.158
0.298 -0.027 -0.159
0.317 -0.025 -0.170
0.332 -0.023 -0.177
0.335 -0.020 -0.179
0.299 0.016 -0.160
0.306 0.019 -0.164
0.300 0.022 -0.161
0.299 0.024 -0.160
0.299 0.027 -0.160
0.302 0.030 -0.162
0.304 0.034 -0.163
0.316 0.038 -0.170
0.323 0.042 -0.174
0.311 0.043 -0.167
0.304 0.045 -0.164
0.315 0.050 -0.170
0.327 0.055 -0.176
0.321 0.057 -0.173
0.337 0.142 -0.188
0.207 -0.137 -0.118
0.208 -0.135 -0.118
0.209 -0.133 -0.118
0.208 -0.131 -0.118
1.407 -0.815 -0.786
1.407 -0.751 -0.778
1.388 -0.725 -0.766
1.377 -0.704 -0.758
1.385 -0.693 -0.761
1.354 -0.576 -0.734
1.320 -0.493 -0.710
1.326 -0.481 -0.712
1.324 -0.467 -0.710
1.329 -0.455 -0.712
1.337 -0.444 -0.715
1.345 -0.433 -0.718
1.337 -0.418 -0.713
1.323 -0.400 -0.705
1.324 -0.387 -0.705
1.312 -0.371 -0.697
1.308 -0.356 -0.694
1.321 -0.347 -0.701
1.312 -0.332 -0.695
0.286 -0.053 -0.151
0.298 -0.052 -0.157
0.295 -0.043 -0.155
0.290 -0.040 -0.152
0.300 -0.038 -0.158
0.309 -0.031 -0.162
0.299 -0.027 -0.157
0.306 -0.024 -0.160
0.310 -0.022 -0.163
0.331 -0.020 -0.174
0.334 -0.017 -0.175
0.314 0.017 -0.164
0.308 0.019 -0.162
0.313 0.023 -0.164
0.310 0.025 -0.163
0.297 0.027 -0.156
0.304 0.030 -0.160
0.308 0.034 -0.162
0.315 0.038 -0.165
0.321 0.041 -0.169
0.313 0.043 -0.165
0.309 0.046 -0.163
0.312 0.049 -0.165
0.318 0.053 -0.168
0.322 0.057 -0.170
0.339 0.063 -0.179
0.315 0.087 -0.168
0.339 0.143 -0.185
0.187 0.234 -0.127
0.208 -0.138 -0.116
0.209 -0.135 -0.116
0.209 -0.133 -0.116
0.209 -0.131 -0.116
1.415 -0.769 -0.768
1.359 -0.577 -0.722
1.335 -0.497 -0.703
1.330 -0.481 -0.699
1.329 -0.468 -0.698
1.327 -0.454 -0.696
1.339 -0.444 -0.702
1.345 -0.433 -0.704
1.328 -0.414 -0.694
1.323 -0.399 -0.690
1.318 -0.384 -0.687
1.313 -0.370 -0.684
1.312 -0.357 -0.683
1.313 -0.344 -0.682
1.315 -0.332 -0.683
0.317 -0.052 -0.163
0.297 -0.043 -0.153
0.289 -0.039 -0.149
0.301 -0.038 -0.155
0.311 -0.034 -0.160
0.307 -0.030 -0.158
0.306 -0.027 -0.157
0.306 -0.021 -0.157
0.331 0.017 -0.170
0.312 0.019 -0.160
0.311 0.022 -0.160
0.320 0.026 -0.165
0.320 0.029 -0.165
0.317 0.032 -0.163
0.313 0.034 -0.161
0.317 0.038 -0.163
0.322 0.041 -0.166
0.321 0.044 -0.166
0.311 0.046 -0.161
0.318 0.050 -0.164
0.322 0.054 -0.167
0.316 0.074 -0.164
0.338 0.142 -0.181
0.184 0.224 -0.122
0.183 0.225 -0.121
0.187 0.234 -0.125
0.209 -0.137 -0.114
0.209 -0.135 -0.114
0.209 -0.133 -0.113
0.210 -0.131 -0.114
0.316 -0.164 -0.167
0.320 -0.163 -0.169
0.320 -0.159 -0.169
0.321 -0.156 -0.169
0.325 -0.155 -0.170
0.333 -0.155 -0.174
0.342 -0.156 -0.179
0.340 -0.151 -0.178
1.370 -0.580 -0.713
1.357 -0.504 -0.700
1.347 -0.487 -0.694
1.335 -0.469 -0.687
1.317 -0.449 -0.677
1.331 -0.441 -0.683
1.341 -0.430 -0.687
1.330 -0.414 -0.681
1.319 -0.397 -0.674
1.317 -0.384 -0.672
1.319 -0.371 -0.673
1.315 -0.357 -0.670
1.323 -0.346 -0.673
1.325 -0.334 -0.674
0.291 -0.054 -0.147
0.292 -0.051 -0.148
0.290 -0.048 -0.147
0.295 -0.046 -0.149
0.293 -0.043 -0.148
0.298 -0.041 -0.150
0.303 -0.038 -0.153
0.295 -0.035 -0.149
0.291 -0.031 -0.147
0.291 -0.029 -0.147
0.302 -0.027 -0.152
0.313 -0.025 -0.157
0.302 -0.021 -0.152
0.290 -0.018 -0.146
0.302 -0.016 -0.152
0.314 -0.013 -0.158
0.312 0.013 -0.157
0.326 0.017 -0.164
0.311 0.019 -0.157
0.307 0.022 -0.155
0.320 0.026 -0.161
0.328 0.030 -0.165
0.330 0.033 -0.166
0.321 0.035 -0.162
0.322 0.038 -0.162
0.321 0.041 -0.162
0.320 0.044 -0.162
0.313 0.046 -0.158
0.310 0.049 -0.157
0.329 0.084 -0.168
0.313 0.086 -0.160
0.309 0.088 -0.158
0.345 0.145 -0.181
0.342 0.147 -0.179
0.191 0.229 -0.123
0.181 0.219 -0.117
0.178 0.219 -0.116
0.207 0.262 -0.136
0.148 -0.101 -0.080
0.207 -0.136 -0.111
0.208 -0.134 -0.111
0.209 -0.133 -0.111
0.210 -0.131 -0.112
0.318 -0.179 -0.166
0.327 -0.180 -0.170
0.327 -0.177 -0.170
0.320 -0.170 -0.166
0.325 -0.168 -0.168
0.327 -0.166 -0.169
0.322 -0.160 -0.166
0.324 -0.157 -0.167
0.327 -0.156 -0.168
0.338 -0.157 -0.174
0.341 -0.155 -0.175
0.342 -0.151 -0.175
1.355 -0.502 -0.684
1.346 -0.485 -0.679
1.331 -0.466 -0.670
1.320 -0.449 -0.664
1.327 -0.438 -0.667
1.336 -0.428 -0.670
1.331 -0.413 -0.667
1.324 -0.398 -0.663
1.323 -0.384 -0.662
1.326 -0.372 -0.663
1.322 -0.358 -0.660
1.324 -0.346 -0.660
1.333 -0.335 -0.664
0.278 -0.048 -0.138
0.277 -0.046 -0.137
0.282 -0.044 -0.140
0.293 -0.043 -0.145
0.297 -0.040 -0.147
0.302 -0.038 -0.149
0.289 -0.034 -0.143
0.288 -0.031 -0.142
0.293 -0.029 -0.144
0.297 -0.026 -0.146
0.301 -0.024 -0.148
0.304 -0.021 -0.150
0.294 -0.018 -0.145
0.293 -0.015 -0.144
0.313 -0.013 -0.154
0.323 -0.010 -0.159
0.325 -0.007 -0.160
0.338 -0.005 -0.166
0.300 0.013 -0.148
0.313 0.016 -0.154
0.314 0.022 -0.155
0.318 0.026 -0.157
0.319 0.029 -0.158
0.324 0.032 -0.160
0.329 0.036 -0.162
0.325 0.039 -0.161
0.315 0.040 -0.156
0.303 0.042 -0.150
0.308 0.045 -0.153
0.318 0.050 -0.158
0.338 0.059 -0.168
0.322 0.063 -0.160
0.327 0.080 -0.163
0.308 0.084 -0.155
0.326 0.106 -0.164
0.209 0.219 -0.126
0.190 0.220 -0.119
0.189 0.221 -0.118
0.194 0.231 -0.122
0.186 0.225 -0.118
0.185 0.227 -0.118
0.192 0.239 -0.123
0.158 -0.108 -0.083
0.208 -0.136 -0.109
0.208 -0.134 -0.109
0.210 -0.133 -0.109
0.211 -0.131 -0.109
0.225 -0.137 -0.117
0.321 -0.191 -0.165
0.325 -0.190 -0.167
0.326 -0.187 -0.167
0.322 -0.181 -0.165
0.323 -0.178 -0.165
0.324 -0.175 -0.165
0.325 -0.172 -0.165
0.324 -0.168 -0.164
0.323 -0.164 -0.164
0.325 -0.161 -0.164
0.324 -0.157 -0.163
0.330 -0.156 -0.166
0.336 -0.156 -0.169
0.340 -0.154 -0.170
0.339 -0.150 -0.170
0.260 -0.104 -0.129
0.258 -0.101 -0.128
1.348 -0.499 -0.667
1.328 -0.478 -0.656
1.326 -0.464 -0.654
1.326 -0.451 -0.653
1.327 -0.437 -0.653
1.326 -0.424 -0.652
1.328 -0.411 -0.652
1.328 -0.398 -0.651
1.329 -0.385 -0.650
1.330 -0.373 -0.650
1.327 -0.359 -0.648
1.323 -0.345 -0.646
0.310 -0.057 -0.150
0.277 -0.048 -0.134
0.284 -0.047 -0.138
0.290 -0.045 -0.140
0.292 -0.042 -0.141
0.301 -0.041 -0.145
0.296 -0.037 -0.143
0.302 -0.035 -0.146
0.307 -0.033 -0.148
0.300 -0.029 -0.145
0.289 -0.026 -0.139
0.292 -0.023 -0.141
0.309 -0.022 -0.149
0.306 -0.018 -0.147
0.296 -0.015 -0.143
0.305 -0.013 -0.147
0.322 -0.010 -0.155
0.327 -0.007 -0.157
0.347 -0.001 -0.167
0.333 0.017 -0.161
0.305 0.027 -0.148
0.304 0.030 -0.147
0.314 0.034 -0.152
0.314 0.040 -0.152
0.299 0.041 -0.145
0.297 0.044 -0.144
0.318 0.053 -0.154
0.316 0.062 -0.154
0.301 0.068 -0.147
0.342 0.093 -0.168
0.341 0.146 -0.171
0.220 0.211 -0.127
0.220 0.215 -0.128
0.217 0.215 -0.127
0.210 0.212 -0.123
0.205 0.211 -0.121
0.206 0.215 -0.122
0.201 0.224 -0.122
0.190 0.215 -0.116
0.187 0.215 -0.114
0.187 0.219 -0.115
0.190 0.226 -0.118
0.195 0.235 -0.121
0.192 0.236 -0.120
0.196 0.244 -0.123
0.192 0.242 -0.121
0.186 0.238 -0.118
0.298 -0.213 -0.155
0.213 -0.139 -0.109
0.209 -0.134 -0.107
0.209 -0.132 -0.106
0.209 -0.129 -0.106
0.219 -0.133 -0.111
0.318 -0.190 -0.161
0.316 -0.184 -0.159
0.314 -0.180 -0.158
0.315 -0.177 -0.158
0.318 -0.175 -0.159
0.322 -0.174 -0.161
0.321 -0.169 -0.160
0.319 -0.165 -0.159
0.322 -0.163 -0.159
0.321 -0.159 -0.159
0.325 -0.157 -0.160
0.329 -0.156 -0.162
0.333 -0.154 -0.164
0.332 -0.150 -0.163
0.332 -0.147 -0.162
1.351 -0.499 -0.654
1.321 -0.475 -0.639
1.318 -0.460 -0.636
1.326 -0.450 -0.639
1.324 -0.436 -0.637
1.320 -0.421 -0.634
1.330 -0.411 -0.639
1.330 -0.398 -0.638
1.334 -0.386 -0.639
1.328 -0.371 -0.635
1.332 -0.360 -0.637
1.329 -0.346 -0.635
0.288 -0.053 -0.136
0.294 -0.051 -0.140
0.297 -0.049 -0.141
0.297 -0.046 -0.141
0.298 -0.043 -0.141
0.298 -0.040 -0.141
0.301 -0.038 -0.142
0.308 -0.036 -0.145
0.322 -0.035 -0.152
0.306 -0.030 -0.144
0.296 -0.026 -0.140
0.303 -0.024 -0.143
0.310 -0.022 -0.146
0.309 -0.019 -0.146
0.303 -0.015 -0.143
0.302 -0.013 -0.143
0.313 -0.010 -0.148
0.320 -0.007 -0.151
0.335 -0.005 -0.158
0.341 -0.001 -0.161
0.325 0.002 -0.153
0.296 0.004 -0.140
0.294 0.007 -0.139
0.329 0.020 -0.155
0.303 0.033 -0.143
0.302 0.039 -0.143
0.309 0.042 -0.146
0.321 0.066 -0.153
0.305 0.086 -0.147
0.293 0.086 -0.141
0.312 0.110 -0.152
0.352 0.150 -0.173
0.228 0.200 -0.125
0.229 0.205 -0.127
0.230 0.209 -0.128
0.235 0.218 -0.132
0.229 0.215 -0.128
0.216 0.207 -0.122
0.212 0.206 -0.120
0.214 0.212 -0.122
0.209 0.211 -0.120
0.209 0.214 -0.121
0.207 0.216 -0.120
0.202 0.221 -0.119
0.196 0.218 -0.116
0.198 0.224 -0.118
0.190 0.218 -0.114
0.192 0.224 -0.115
0.199 0.236 -0.121
0.202 0.244 -0.123
0.198 0.242 -0.121
0.191 0.237 -0.117
0.185 0.233 -0.114
0.187 0.238 -0.115
0.307 -0.223 -0.156
0.312 -0.223 -0.159
0.311 -0.219 -0.158
0.302 -0.208 -0.153
0.219 -0.143 -0.109
0.209 -0.134 -0.104
0.209 -0.131 -0.104
0.209 -0.129 -0.104
0.215 -0.130 -0.106
0.307 -0.182 -0.152
0.313 -0.182 -0.154
0.311 -0.178 -0.153
0.313 -0.175 -0.153
0.319 -0.175 -0.156
0.320 -0.172 -0.156
0.317 -0.167 -0.154
0.316 -0.163 -0.154
0.318 -0.160 -0.154
0.324 -0.160 -0.157
0.326 -0.158 -0.157
0.325 -0.154 -0.157
0.328 -0.152 -0.158
0.331 -0.149 -0.159
0.331 -0.146 -0.158
1.323 -0.474 -0.626
1.337 -0.466 -0.631
1.323 -0.448 -0.624
1.321 -0.434 -0.622
1.322 -0.421 -0.622
1.329 -0.410 -0.624
1.337 -0.400 -0.627
1.318 -0.381 -0.618
1.321 -0.369 -0.619
1.326 -0.357 -0.620
1.324 -0.344 -0.619
0.295 -0.054 -0.137
0.294 -0.051 -0.136
0.299 -0.049 -0.139
0.300 -0.046 -0.139
0.305 -0.044 -0.141
0.309 -0.042 -0.143
0.307 -0.039 -0.142
0.309 -0.036 -0.143
0.312 -0.033 -0.144
0.307 -0.030 -0.142
0.319 -0.025 -0.147
0.309 -0.022 -0.143
0.309 -0.019 -0.143
0.314 -0.016 -0.145
0.317 -0.013 -0.146
0.312 -0.010 -0.144
0.317 -0.007 -0.146
0.323 -0.004 -0.149
0.329 -0.001 -0.152
0.315 0.007 -0.145
0.315 0.010 -0.145
0.306 0.030 -0.142
0.304 0.033 -0.141
0.303 0.053 -0.141
0.321 0.059 -0.149
0.327 0.064 -0.153
0.314 0.064 -0.147
0.300 0.064 -0.140
0.294 0.066 -0.138
0.317 0.074 -0.148
0.309 0.087 -0.145
0.310 0.091 -0.146
0.348 0.148 -0.167
0.236 0.196 -0.125
0.222 0.187 -0.118
0.220 0.189 -0.118
0.222 0.194 -0.119
0.224 0.200 -0.122
0.227 0.205 -0.123
0.228 0.210 -0.125
0.223 0.210 -0.123
0.221 0.211 -0.122
0.222 0.215 -0.123
0.217 0.214 -0.121
0.215 0.216 -0.120
0.215 0.220 -0.121
0.216 0.224 -0.122
0.209 0.221 -0.119
0.209 0.224 -0.120
0.188 0.233 -0.113
0.185 0.233 -0.112
0.186 0.238 -0.113
0.185 0.239 -0.112
0.320 -0.253 -0.162
0.320 -0.249 -0.162
0.320 -0.244 -0.161
0.328 -0.247 -0.165
0.320 -0.236 -0.160
0.318 -0.230 -0.158
0.320 -0.228 -0.159
0.319 -0.223 -0.158
0.309 -0.213 -0.153
0.209 -0.134 -0.102
0.208 -0.131 -0.101
0.209 -0.129 -0.101
0.215 -0.130 -0.104
0.296 -0.175 -0.143
0.308 -0.179 -0.148
0.311 -0.177 -0.149
0.312 -0.174 -0.149
0.316 -0.173 -0.151
0.312 -0.168 -0.149
0.312 -0.164 -0.148
0.313 -0.161 -0.149
0.317 -0.160 -0.150
0.322 -0.159 -0.152
0.325 -0.157 -0.154
0.327 -0.154 -0.154
0.329 -0.151 -0.154
0.332 -0.150 -0.156
0.333 -0.147 -0.156
0.358 -0.135 -0.166
0.361 -0.133 -0.167
1.338 -0.452 -0.617
1.319 -0.433 -0.607
1.321 -0.420 -0.607
1.333 -0.411 -0.612
1.337 -0.399 -0.613
1.328 -0.383 -0.608
1.312 -0.366 -0.601
1.295 -0.348 -0.592
1.283 -0.333 -0.586
0.310 -0.057 -0.141
0.298 -0.052 -0.135
0.296 -0.048 -0.134
0.300 -0.046 -0.136
0.311 -0.045 -0.141
0.324 -0.044 -0.146
0.318 -0.040 -0.144
0.299 -0.035 -0.135
0.305 -0.033 -0.138
0.307 -0.030 -0.139
0.297 -0.026 -0.134
0.320 -0.025 -0.145
0.317 -0.022 -0.143
0.307 -0.018 -0.139
0.320 -0.016 -0.144
0.320 -0.013 -0.144
0.311 -0.010 -0.140
0.309 -0.007 -0.139
0.318 -0.004 -0.144
0.322 -0.001 -0.145
0.315 0.002 -0.142
0.316 0.005 -0.142
0.316 0.007 -0.143
0.311 0.016 -0.141
0.344 0.047 -0.156
0.340 0.050 -0.155
0.320 0.059 -0.146
0.319 0.065 -0.145
0.306 0.065 -0.140
0.304 0.068 -0.139
0.312 0.073 -0.143
0.330 0.086 -0.151
0.330 0.090 -0.152
0.316 0.089 -0.145
0.317 0.092 -0.146
0.324 0.098 -0.149
0.325 0.104 -0.150
0.309 0.106 -0.143
0.302 0.112 -0.141
0.354 0.154 -0.167
0.257 0.192 -0.131
0.261 0.201 -0.133
0.241 0.196 -0.124
0.231 0.191 -0.120
0.222 0.187 -0.116
0.220 0.188 -0.115
0.220 0.192 -0.116
0.222 0.197 -0.117
0.220 0.199 -0.117
0.219 0.202 -0.117
0.219 0.204 -0.117
0.222 0.211 -0.120
0.225 0.218 -0.122
0.229 0.225 -0.125
0.219 0.220 -0.120
0.227 0.236 -0.126
0.220 0.232 -0.123
0.196 0.221 -0.112
0.205 0.234 -0.117
0.209 0.242 -0.120
0.186 0.229 -0.109
0.190 0.239 -0.112
0.179 0.227 -0.106
0.181 0.233 -0.107
0.322 -0.267 -0.161
0.327 -0.267 -0.163
0.328 -0.263 -0.163
0.327 -0.258 -0.162
0.322 -0.250 -0.159
0.326 -0.249 -0.160
0.332 -0.249 -0.163
0.332 -0.245 -0.162
0.325 -0.235 -0.158
0.324 -0.230 -0.157
0.320 -0.224 -0.155
0.310 -0.213 -0.150
0.247 -0.164 -0.118
0.235 -0.153 -0.112
0.210 -0.134 -0.100
0.209 -0.131 -0.099
0.210 -0.129 -0.099
0.213 -0.128 -0.101
0.309 -0.179 -0.145
0.310 -0.176 -0.145
0.311 -0.173 -0.146
0.311 -0.170 -0.145
0.310 -0.166 -0.144
0.311 -0.163 -0.144
0.313 -0.161 -0.145
0.317 -0.159 -0.147
0.321 -0.158 -0.148
0.327 -0.157 -0.151
0.329 -0.155 -0.151
0.330 -0.152 -0.152
0.333 -0.150 -0.153
0.336 -0.148 -0.154
0.282 -0.112 -0.128
0.359 -0.135 -0.163
0.370 -0.136 -0.168
0.377 -0.135 -0.170
0.378 -0.131 -0.171
1.325 -0.434 -0.597
1.319 -0.419 -0.593
1.323 -0.407 -0.594
1.321 -0.393 -0.593
1.323 -0.381 -0.592
1.320 -0.367 -0.591
1.298 -0.349 -0.580
0.311 -0.057 -0.138
0.298 -0.051 -0.132
0.294 -0.048 -0.130
0.297 -0.046 -0.132
0.313 -0.045 -0.139
0.322 -0.044 -0.143
0.320 -0.040 -0.141
0.307 -0.036 -0.136
0.300 -0.032 -0.133
0.301 -0.029 -0.133
0.301 -0.027 -0.133
0.303 -0.024 -0.134
0.302 -0.021 -0.133
0.309 -0.019 -0.136
0.306 -0.016 -0.135
0.308 -0.013 -0.136
0.305 -0.010 -0.134
0.306 -0.007 -0.135
0.315 -0.004 -0.139
0.321 -0.001 -0.142
0.318 0.002 -0.141
0.304 0.004 -0.134
0.298 0.007 -0.131
0.304 0.010 -0.134
0.300 0.015 -0.132
0.313 0.019 -0.138
0.322 0.026 -0.143
0.319 0.028 -0.141
0.316 0.031 -0.140
0.305 0.036 -0.135
0.340 0.046 -0.151
0.336 0.049 -0.149
0.310 0.051 -0.138
0.315 0.055 -0.140
0.324 0.066 -0.144
0.317 0.067 -0.142
0.310 0.069 -0.139
0.308 0.071 -0.138
0.317 0.080 -0.142
0.331 0.087 -0.149
0.327 0.092 -0.147
0.324 0.097 -0.146
0.337 0.105 -0.152
0.328 0.105 -0.148
0.326 0.108 -0.147
0.327 0.111 -0.148
0.350 0.152 -0.161
0.262 0.178 -0.128
0.255 0.176 -0.124
0.252 0.177 -0.124
0.254 0.182 -0.125
0.248 0.181 -0.122
0.246 0.183 -0.122
0.249 0.188 -0.124
0.254 0.195 -0.127
0.257 0.201 -0.129
0.246 0.196 -0.124
0.239 0.194 -0.121
0.232 0.192 -0.118
0.223 0.188 -0.114
0.221 0.189 -0.113
0.219 0.191 -0.113
0.214 0.190 -0.111
0.215 0.194 -0.112
0.217 0.199 -0.113
0.219 0.204 -0.115
0.221 0.210 -0.117
0.223 0.216 -0.118
0.220 0.216 -0.117
0.230 0.230 -0.123
0.234 0.238 -0.126
0.240 0.248 -0.130
0.230 0.241 -0.125
0.234 0.254 -0.129
0.201 0.226 -0.112
0.212 0.241 -0.118
0.212 0.246 -0.119
0.217 0.255 -0.122
0.206 0.254 -0.118
0.177 0.222 -0.102
0.177 0.225 -0.103
0.186 0.239 -0.108
0.319 -0.287 -0.159
0.325 -0.287 -0.161
0.325 -0.282 -0.161
0.335 -0.287 -0.165
0.327 -0.275 -0.160
0.333 -0.275 -0.163
0.332 -0.270 -0.162
0.331 -0.265 -0.161
0.330 -0.260 -0.160
0.329 -0.254 -0.158
0.325 -0.247 -0.156
0.329 -0.246 -0.157
0.328 -0.241 -0.156
0.326 -0.236 -0.155
0.319 -0.227 -0.151
0.318 -0.222 -0.150
0.312 -0.214 -0.147
0.305 -0.206 -0.143
0.215 -0.137 -0.100
0.208 -0.130 -0.097
0.209 -0.128 -0.097
0.212 -0.127 -0.098
0.307 -0.178 -0.141
0.309 -0.176 -0.142
0.312 -0.173 -0.142
0.310 -0.169 -0.141
0.309 -0.165 -0.141
0.310 -0.162 -0.141
0.314 -0.161 -0.142
0.316 -0.159 -0.143
0.321 -0.157 -0.145
0.326 -0.157 -0.147
0.330 -0.155 -0.148
0.332 -0.152 -0.149
0.332 -0.149 -0.149
0.335 -0.147 -0.150
0.335 -0.130 -0.149
0.356 -0.134 -0.158
0.370 -0.135 -0.163
0.376 -0.134 -0.166
0.378 -0.131 -0.167
0.384 -0.129 -0.169
0.389 -0.127 -0.171
1.324 -0.420 -0.582
1.318 -0.405 -0.578
1.319 -0.392 -0.578
1.319 -0.379 -0.577
1.316 -0.366 -0.576
1.295 -0.347 -0.566
1.284 -0.332 -0.560
0.283 -0.049 -0.123
0.278 -0.045 -0.120
0.292 -0.045 -0.126
0.298 -0.043 -0.129
0.305 -0.041 -0.132
0.308 -0.039 -0.133
0.301 -0.035 -0.130
0.300 -0.032 -0.129
0.301 -0.029 -0.130
0.301 -0.027 -0.130
0.296 -0.023 -0.128
0.298 -0.021 -0.129
0.302 -0.018 -0.130
0.306 -0.016 -0.132
0.306 -0.013 -0.132
0.305 -0.010 -0.132
0.313 -0.007 -0.135
0.318 -0.004 -0.137
0.317 -0.001 -0.137
0.313 0.002 -0.135
0.309 0.004 -0.133
0.293 0.007 -0.126
0.306 0.010 -0.132
0.285 0.015 -0.123
0.316 0.025 -0.136
0.326 0.029 -0.141
0.317 0.049 -0.138
0.333 0.061 -0.145
0.334 0.068 -0.146
0.326 0.069 -0.142
0.301 0.067 -0.132
0.310 0.072 -0.135
0.314 0.076 -0.137
0.326 0.082 -0.143
0.328 0.085 -0.144
0.322 0.087 -0.141
0.326 0.091 -0.143
0.324 0.097 -0.143
0.328 0.105 -0.145
0.322 0.110 -0.143
0.314 0.110 -0.139
0.355 0.154 -0.160
0.289 0.181 -0.135
0.280 0.178 -0.132
0.270 0.176 -0.128
0.265 0.175 -0.125
0.260 0.176 -0.124
0.258 0.177 -0.123
0.254 0.178 -0.121
0.250 0.178 -0.120
0.249 0.181 -0.120
0.244 0.180 -0.118
0.250 0.188 -0.121
0.270 0.207 -0.131
0.264 0.207 -0.129
0.258 0.205 -0.127
0.245 0.199 -0.121
0.239 0.197 -0.119
0.226 0.189 -0.112
0.223 0.190 -0.111
0.221 0.192 -0.111
0.220 0.194 -0.111
0.218 0.196 -0.110
0.218 0.200 -0.111
0.225 0.209 -0.115
0.222 0.210 -0.114
0.213 0.205 -0.110
0.212 0.208 -0.110
0.210 0.209 -0.110
0.212 0.215 -0.111
0.226 0.236 -0.120
0.223 0.238 -0.119
0.221 0.239 -0.118
0.212 0.249 -0.117
0.217 0.266 -0.121
0.192 0.247 -0.109
0.330 -0.316 -0.164
0.329 -0.309 -0.162
0.329 -0.305 -0.162
0.331 -0.301 -0.162
0.330 -0.296 -0.161
0.328 -0.289 -0.159
0.333 -0.289 -0.161
0.335 -0.286 -0.161
0.334 -0.280 -0.160
0.335 -0.277 -0.160
0.334 -0.271 -0.159
0.331 -0.265 -0.157
0.330 -0.259 -0.156
0.324 -0.250 -0.153
0.323 -0.245 -0.151
0.322 -0.240 -0.150
0.324 -0.238 -0.151
0.316 -0.227 -0.146
0.315 -0.223 -0.146
0.314 -0.219 -0.145
0.314 -0.215 -0.144
0.304 -0.204 -0.139
0.216 -0.137 -0.098
0.207 -0.129 -0.094
0.209 -0.128 -0.094
0.209 -0.126 -0.094
0.305 -0.176 -0.137
0.308 -0.175 -0.138
0.309 -0.172 -0.138
0.308 -0.168 -0.137
0.308 -0.164 -0.137
0.309 -0.162 -0.137
0.312 -0.159 -0.138
0.317 -0.159 -0.140
0.319 -0.156 -0.141
0.325 -0.156 -0.143
0.327 -0.153 -0.144
0.330 -0.151 -0.145
0.333 -0.149 -0.146
0.326 -0.142 -0.142
0.327 -0.136 -0.142
0.345 -0.133 -0.149
0.357 -0.134 -0.154
0.361 -0.132 -0.156
0.373 -0.133 -0.161
0.380 -0.131 -0.164
0.386 -0.130 -0.166
0.387 -0.126 -0.166
0.391 -0.124 -0.168
1.319 -0.404 -0.565
1.318 -0.391 -0.564
1.314 -0.377 -0.562
1.309 -0.363 -0.559
1.296 -0.347 -0.553
0.343 -0.066 -0.145
0.293 -0.053 -0.124
0.286 -0.049 -0.121
0.284 -0.046 -0.120
0.286 -0.044 -0.121
0.291 -0.042 -0.123
0.296 -0.040 -0.125
0.295 -0.037 -0.124
0.296 -0.034 -0.125
0.300 -0.032 -0.127
0.308 -0.030 -0.130
0.305 -0.027 -0.129
0.299 -0.024 -0.126
0.298 -0.021 -0.126
0.307 -0.018 -0.129
0.309 -0.016 -0.130
0.308 -0.013 -0.130
0.311 -0.010 -0.131
0.317 -0.007 -0.134
0.323 -0.004 -0.136
0.320 -0.001 -0.135
0.318 0.002 -0.134
0.315 0.004 -0.133
0.316 0.007 -0.133
0.308 0.010 -0.130
0.297 0.013 -0.125
0.287 0.015 -0.121
0.325 0.020 -0.137
0.320 0.022 -0.135
0.315 0.025 -0.133
0.326 0.029 -0.138
0.348 0.037 -0.147
0.305 0.047 -0.129
0.331 0.067 -0.141
0.317 0.070 -0.135
0.314 0.073 -0.134
0.335 0.081 -0.143
0.328 0.082 -0.140
0.323 0.084 -0.138
0.317 0.085 -0.136
0.312 0.087 -0.134
0.308 0.089 -0.132
0.320 0.096 -0.138
0.328 0.102 -0.141
0.321 0.103 -0.139
0.309 0.102 -0.133
0.304 0.103 -0.131
0.310 0.111 -0.134
0.358 0.155 -0.157
0.288 0.163 -0.130
0.280 0.161 -0.127
0.277 0.163 -0.126
0.278 0.167 -0.126
0.278 0.170 -0.127
0.278 0.174 -0.127
0.270 0.172 -0.124
0.268 0.174 -0.123
0.266 0.176 -0.123
0.263 0.177 -0.122
0.263 0.180 -0.122
0.262 0.183 -0.122
0.252 0.180 -0.118
0.250 0.181 -0.117
0.244 0.180 -0.115
0.279 0.214 -0.133
0.274 0.214 -0.131
0.261 0.207 -0.125
0.255 0.206 -0.123
0.244 0.201 -0.118
0.232 0.194 -0.113
0.227 0.193 -0.111
0.224 0.194 -0.110
0.222 0.195 -0.109
0.222 0.199 -0.110
0.231 0.211 -0.115
0.229 0.212 -0.114
0.221 0.209 -0.111
0.213 0.205 -0.108
0.210 0.205 -0.106
0.211 0.209 -0.107
0.214 0.216 -0.110
0.208 0.214 -0.107
0.215 0.225 -0.111
0.223 0.253 -0.118
0.216 0.249 -0.115
0.321 -0.330 -0.158
0.324 -0.329 -0.159
0.330 -0.329 -0.161
0.334 -0.328 -0.163
0.334 -0.324 -0.162
0.333 -0.318 -0.161
0.333 -0.312 -0.160
0.332 -0.306 -0.159
0.335 -0.304 -0.160
0.334 -0.299 -0.159
0.330 -0.290 -0.156
0.328 -0.284 -0.155
0.330 -0.281 -0.155
0.330 -0.276 -0.154
0.327 -0.270 -0.152
0.325 -0.263 -0.151
0.327 -0.260 -0.151
0.322 -0.253 -0.148
0.322 -0.248 -0.148
0.319 -0.241 -0.146
0.318 -0.236 -0.145
0.316 -0.231 -0.143
0.316 -0.227 -0.143
0.313 -0.221 -0.141
0.314 -0.218 -0.141
0.310 -0.212 -0.139
0.305 -0.204 -0.136
0.208 -0.130 -0.092
0.208 -0.127 -0.092
0.212 -0.127 -0.093
0.302 -0.174 -0.132
0.302 -0.171 -0.132
0.304 -0.169 -0.133
0.305 -0.166 -0.133
0.305 -0.163 -0.133
0.308 -0.160 -0.133
0.311 -0.159 -0.134
0.314 -0.157 -0.135
0.319 -0.156 -0.137
0.322 -0.154 -0.138
0.326 -0.153 -0.140
0.328 -0.150 -0.140
0.330 -0.147 -0.141
0.326 -0.142 -0.139
0.319 -0.133 -0.135
0.328 -0.126 -0.139
0.356 -0.134 -0.151
0.362 -0.132 -0.153
0.371 -0.132 -0.156
0.378 -0.131 -0.159
0.383 -0.128 -0.161
0.386 -0.126 -0.162
0.389 -0.123 -0.163
0.403 -0.123 -0.169
1.303 -0.386 -0.545
1.312 -0.376 -0.548
1.307 -0.362 -0.545
1.298 -0.347 -0.541
1.293 -0.333 -0.538
0.339 -0.068 -0.141
0.333 -0.064 -0.138
0.291 -0.050 -0.120
0.290 -0.047 -0.120
0.291 -0.045 -0.120
0.295 -0.042 -0.122
0.300 -0.040 -0.124
0.298 -0.037 -0.123
0.296 -0.034 -0.122
0.304 -0.032 -0.125
0.312 -0.030 -0.128
0.310 -0.027 -0.128
0.303 -0.024 -0.125
0.303 -0.021 -0.125
0.309 -0.019 -0.127
0.308 -0.016 -0.127
0.301 -0.012 -0.124
0.301 -0.010 -0.124
0.312 -0.007 -0.128
0.317 -0.004 -0.131
0.318 -0.001 -0.131
0.314 0.002 -0.129
0.308 0.004 -0.127
0.305 0.007 -0.126
0.305 0.010 -0.126
0.305 0.013 -0.125
0.308 0.016 -0.127
0.309 0.019 -0.127
0.316 0.025 -0.130
0.321 0.028 -0.132
0.343 0.040 -0.142
0.304 0.044 -0.126
0.316 0.052 -0.131
0.312 0.054 -0.129
0.304 0.056 -0.126
0.327 0.069 -0.136
0.324 0.072 -0.135
0.345 0.080 -0.144
0.333 0.080 -0.139
0.318 0.080 -0.133
0.314 0.081 -0.131
0.313 0.084 -0.131
0.306 0.085 -0.128
0.315 0.094 -0.132
0.324 0.100 -0.136
0.321 0.102 -0.135
0.305 0.100 -0.128
0.304 0.103 -0.128
0.311 0.109 -0.132
0.316 0.120 -0.134
0.332 0.143 -0.142
0.322 0.164 -0.140
0.304 0.165 -0.133
0.287 0.159 -0.126
0.282 0.159 -0.124
0.278 0.160 -0.123
0.275 0.161 -0.122
0.276 0.165 -0.122
0.276 0.169 -0.123
0.272 0.169 -0.121
0.274 0.174 -0.123
0.273 0.177 -0.123
0.270 0.178 -0.122
0.268 0.180 -0.121
0.267 0.183 -0.121
0.265 0.185 -0.121
0.263 0.187 -0.120
0.260 0.188 -0.119
0.250 0.184 -0.115
0.261 0.196 -0.121
0.276 0.211 -0.128
0.278 0.216 -0.130
0.270 0.214 -0.126
0.259 0.208 -0.122
0.234 0.196 -0.111
0.230 0.195 -0.109
0.226 0.195 -0.108
0.224 0.196 -0.107
0.233 0.208 -0.112
0.240 0.219 -0.117
0.238 0.220 -0.116
0.233 0.219 -0.114
0.221 0.211 -0.109
0.219 0.213 -0.108
0.219 0.217 -0.109
0.219 0.221 -0.110
0.215 0.220 -0.108
0.207 0.215 -0.104
0.321 -0.362 -0.159
0.330 -0.361 -0.162
0.333 -0.359 -0.163
0.332 -0.352 -0.161
0.331 -0.346 -0.160
0.330 -0.340 -0.159
0.333 -0.337 -0.159
0.334 -0.333 -0.160
0.334 -0.328 -0.159
0.333 -0.322 -0.158
0.333 -0.317 -0.157
0.332 -0.311 -0.156
0.333 -0.306 -0.155
0.332 -0.301 -0.155
0.331 -0.295 -0.153
0.328 -0.288 -0.151
0.326 -0.282 -0.150
0.328 -0.278 -0.150
0.329 -0.275 -0.150
0.324 -0.267 -0.147
0.320 -0.258 -0.145
0.318 -0.253 -0.143
0.320 -0.250 -0.144
0.319 -0.246 -0.143
0.317 -0.240 -0.142
0.315 -0.234 -0.140
0.316 -0.231 -0.140
0.317 -0.227 -0.140
0.317 -0.223 -0.139
0.311 -0.216 -0.137
0.311 -0.211 -0.136
0.306 -0.205 -0.133
0.209 -0.130 -0.090
0.209 -0.127 -0.090
0.208 -0.125 -0.089
0.214 -0.126 -0.092
0.296 -0.171 -0.127
0.299 -0.169 -0.127
0.300 -0.166 -0.127
0.302 -0.164 -0.128
0.305 -0.162 -0.129
0.306 -0.159 -0.129
0.309 -0.157 -0.130
0.313 -0.156 -0.132
0.317 -0.155 -0.133
0.321 -0.153 -0.134
0.325 -0.152 -0.136
0.327 -0.149 -0.136
0.328 -0.146 -0.137
0.332 -0.145 -0.138
0.320 -0.136 -0.133
0.308 -0.128 -0.128
0.318 -0.122 -0.131
0.358 -0.134 -0.147
0.361 -0.132 -0.149
0.368 -0.131 -0.151
0.376 -0.130 -0.154
0.380 -0.127 -0.156
0.383 -0.125 -0.157
0.396 -0.125 -0.162
0.400 -0.122 -0.163
0.416 -0.123 -0.169
1.306 -0.374 -0.532
1.307 -0.361 -0.532
1.282 -0.342 -0.521
1.289 -0.332 -0.524
0.357 -0.071 -0.144
0.342 -0.065 -0.138
0.298 -0.054 -0.120
0.292 -0.050 -0.118
0.288 -0.047 -0.116
0.293 -0.045 -0.118
0.299 -0.043 -0.120
0.302 -0.041 -0.122
0.296 -0.037 -0.119
0.298 -0.034 -0.120
0.304 -0.032 -0.122
0.315 -0.031 -0.126
0.311 -0.027 -0.125
0.306 -0.024 -0.123
0.304 -0.021 -0.122
0.305 -0.018 -0.122
0.301 -0.015 -0.121
0.299 -0.012 -0.120
0.293 -0.009 -0.118
0.307 -0.007 -0.123
0.317 -0.004 -0.127
0.318 -0.001 -0.128
0.311 0.002 -0.125
0.305 0.004 -0.123
0.301 0.007 -0.121
0.301 0.010 -0.121
0.309 0.013 -0.124
0.315 0.016 -0.126
0.311 0.019 -0.125
0.311 0.022 -0.125
0.317 0.025 -0.128
0.316 0.028 -0.127
0.315 0.031 -0.127
0.349 0.044 -0.141
0.330 0.048 -0.133
0.324 0.050 -0.131
0.311 0.051 -0.126
0.330 0.067 -0.134
0.339 0.072 -0.137
0.337 0.074 -0.137
0.339 0.078 -0.138
0.336 0.081 -0.137
0.312 0.078 -0.127
0.318 0.082 -0.130
0.318 0.092 -0.130
0.319 0.095 -0.131
0.315 0.097 -0.129
0.311 0.099 -0.128
0.303 0.099 -0.124
0.320 0.118 -0.132
0.319 0.138 -0.134
0.318 0.140 -0.133
0.316 0.143 -0.133
0.314 0.145 -0.132
0.316 0.150 -0.133
0.313 0.151 -0.132
0.297 0.147 -0.126
0.312 0.158 -0.132
0.304 0.161 -0.130
0.294 0.159 -0.126
0.292 0.161 -0.125
0.288 0.162 -0.124
0.281 0.162 -0.121
0.281 0.165 -0.122
0.282 0.168 -0.122
0.288 0.176 -0.125
0.281 0.175 -0.123
0.278 0.176 -0.122
0.276 0.178 -0.121
0.271 0.178 -0.119
0.267 0.179 -0.118
0.268 0.183 -0.119
0.272 0.189 -0.121
0.275 0.195 -0.123
0.264 0.191 -0.118
0.259 0.190 -0.116
0.273 0.205 -0.123
0.282 0.215 -0.127
0.227 0.220 -0.109
0.331 -0.388 -0.162
0.334 -0.386 -0.163
0.330 -0.377 -0.160
0.333 -0.374 -0.161
0.338 -0.374 -0.162
0.339 -0.370 -0.162
0.337 -0.363 -0.161
0.336 -0.355 -0.159
0.335 -0.349 -0.158
0.333 -0.342 -0.157
0.333 -0.336 -0.156
0.333 -0.331 -0.155
0.332 -0.325 -0.154
0.332 -0.320 -0.153
0.326 -0.310 -0.150
0.328 -0.306 -0.150
0.329 -0.303 -0.150
0.328 -0.296 -0.149
0.327 -0.291 -0.148
0.326 -0.286 -0.147
0.326 -0.281 -0.146
0.327 -0.277 -0.146
0.327 -0.273 -0.145
0.324 -0.266 -0.143
0.318 -0.256 -0.140
0.317 -0.252 -0.139
0.319 -0.249 -0.140
0.318 -0.244 -0.139
0.316 -0.239 -0.138
0.316 -0.234 -0.137
0.316 -0.230 -0.136
0.317 -0.227 -0.136
0.314 -0.221 -0.135
0.310 -0.214 -0.133
0.306 -0.208 -0.130
0.306 -0.204 -0.130
0.301 -0.197 -0.128
0.209 -0.130 -0.088
0.209 -0.127 -0.088
0.211 -0.126 -0.088
0.212 -0.124 -0.088
0.302 -0.160 -0.124
0.305 -0.159 -0.126
0.308 -0.157 -0.127
0.312 -0.156 -0.128
0.318 -0.155 -0.130
0.320 -0.153 -0.131
0.323 -0.151 -0.132
0.326 -0.149 -0.133
0.328 -0.146 -0.133
0.330 -0.144 -0.134
0.315 -0.131 -0.127
0.305 -0.120 -0.123
0.356 -0.133 -0.143
0.361 -0.131 -0.145
0.363 -0.128 -0.145
0.370 -0.127 -0.148
0.379 -0.127 -0.152
0.380 -0.123 -0.152
0.387 -0.122 -0.154
0.397 -0.121 -0.158
0.402 -0.119 -0.160
1.260 -0.336 -0.500
1.270 -0.326 -0.503
0.366 -0.073 -0.144
0.350 -0.067 -0.138
0.293 -0.053 -0.116
0.291 -0.050 -0.115
0.289 -0.047 -0.114
0.292 -0.045 -0.115
0.296 -0.042 -0.116
0.297 -0.040 -0.117
0.289 -0.036 -0.114
0.289 -0.033 -0.113
0.310 -0.033 -0.122
0.307 -0.030 -0.120
0.302 -0.027 -0.119
0.302 -0.024 -0.118
0.303 -0.021 -0.119
0.303 -0.018 -0.119
0.307 -0.016 -0.120
0.305 -0.013 -0.119
0.309 -0.010 -0.121
0.314 -0.007 -0.123
0.319 -0.004 -0.125
0.317 -0.001 -0.124
0.314 0.002 -0.123
0.306 0.004 -0.120
0.308 0.007 -0.121
0.313 0.010 -0.123
0.319 0.013 -0.125
0.325 0.017 -0.128
0.308 0.019 -0.121
0.306 0.021 -0.120
0.316 0.028 -0.124
0.320 0.031 -0.125
0.311 0.033 -0.122
0.339 0.043 -0.133
0.327 0.050 -0.129
0.317 0.052 -0.125
0.325 0.062 -0.128
0.324 0.065 -0.128
0.324 0.068 -0.128
0.345 0.076 -0.137
0.332 0.076 -0.131
0.326 0.081 -0.129
0.320 0.083 -0.127
0.310 0.083 -0.124
0.302 0.084 -0.120
0.326 0.094 -0.130
0.321 0.096 -0.128
0.294 0.093 -0.118
0.294 0.096 -0.118
0.306 0.103 -0.123
0.318 0.111 -0.128
0.319 0.114 -0.128
0.321 0.118 -0.130
0.319 0.121 -0.129
0.322 0.125 -0.130
0.310 0.130 -0.126
0.316 0.136 -0.129
0.321 0.141 -0.131
0.318 0.144 -0.130
0.312 0.144 -0.128
0.310 0.147 -0.128
0.300 0.145 -0.124
0.308 0.152 -0.127
0.295 0.149 -0.122
0.295 0.152 -0.122
0.296 0.156 -0.123
0.295 0.159 -0.123
0.296 0.163 -0.124
0.295 0.165 -0.124
0.287 0.164 -0.120
0.290 0.170 -0.122
0.294 0.175 -0.124
0.291 0.177 -0.123
0.296 0.184 -0.126
0.287 0.185 -0.123
0.271 0.178 -0.116
0.267 0.179 -0.115
0.330 -0.399 -0.159
0.329 -0.392 -0.158
0.335 -0.392 -0.160
0.334 -0.386 -0.158
0.334 -0.380 -0.158
0.332 -0.372 -0.156
0.335 -0.371 -0.157
0.338 -0.368 -0.158
0.337 -0.361 -0.156
0.333 -0.352 -0.154
0.332 -0.345 -0.153
0.331 -0.339 -0.152
0.329 -0.331 -0.150
0.329 -0.326 -0.149
0.330 -0.323 -0.149
0.323 -0.311 -0.145
0.323 -0.306 -0.145
0.325 -0.303 -0.145
0.324 -0.297 -0.144
0.323 -0.291 -0.143
0.325 -0.289 -0.143
0.326 -0.285 -0.143
0.324 -0.279 -0.141
0.322 -0.272 -0.140
0.320 -0.267 -0.139
0.322 -0.264 -0.139
0.322 -0.260 -0.139
0.320 -0.253 -0.137
0.317 -0.247 -0.135
0.316 -0.242 -0.134
0.316 -0.238 -0.134
0.315 -0.233 -0.133
0.314 -0.228 -0.132
0.313 -0.224 -0.132
0.311 -0.219 -0.130
0.308 -0.213 -0.129
0.306 -0.208 -0.127
0.305 -0.203 -0.126
0.299 -0.196 -0.124
0.212 -0.131 -0.087
0.209 -0.127 -0.085
0.209 -0.125 -0.085
0.212 -0.124 -0.086
0.227 -0.130 -0.092
0.252 -0.142 -0.102
0.246 -0.136 -0.099
0.246 -0.133 -0.099
0.302 -0.156 -0.121
0.309 -0.157 -0.124
0.313 -0.156 -0.125
0.317 -0.154 -0.127
0.319 -0.152 -0.127
0.321 -0.149 -0.128
0.325 -0.148 -0.129
0.328 -0.146 -0.130
0.325 -0.141 -0.129
0.323 -0.134 -0.127
0.358 -0.134 -0.140
0.359 -0.131 -0.140
0.363 -0.129 -0.142
0.373 -0.128 -0.146
0.377 -0.126 -0.147
0.380 -0.123 -0.148
0.386 -0.121 -0.150
0.396 -0.121 -0.154
0.401 -0.118 -0.155
0.407 -0.116 -0.158
1.273 -0.339 -0.492
1.248 -0.320 -0.482
0.386 -0.081 -0.149
0.371 -0.074 -0.142
0.300 -0.054 -0.115
0.293 -0.050 -0.113
0.301 -0.049 -0.115
0.294 -0.045 -0.113
0.296 -0.042 -0.113
0.298 -0.040 -0.114
0.293 -0.037 -0.112
0.298 -0.034 -0.114
0.304 -0.032 -0.116
0.300 -0.029 -0.115
0.295 -0.026 -0.113
0.300 -0.023 -0.114
0.306 -0.021 -0.117
0.309 -0.019 -0.118
0.307 -0.016 -0.117
0.314 -0.013 -0.120
0.321 -0.010 -0.122
0.328 -0.008 -0.125
0.326 -0.004 -0.124
0.321 0.002 -0.122
0.318 0.007 -0.121
0.320 0.010 -0.122
0.324 0.014 -0.124
0.316 0.016 -0.121
0.326 0.020 -0.125
0.305 0.021 -0.117
0.300 0.024 -0.115
0.313 0.028 -0.120
0.324 0.032 -0.124
0.321 0.034 -0.123
0.313 0.036 -0.120
0.325 0.041 -0.125
0.331 0.045 -0.127
0.326 0.047 -0.125
0.317 0.055 -0.122
0.315 0.057 -0.121
0.318 0.061 -0.123
0.318 0.064 -0.122
0.318 0.070 -0.123
0.317 0.073 -0.123
0.309 0.074 -0.120
0.309 0.077 -0.120
0.315 0.081 -0.122
0.302 0.081 -0.117
0.312 0.087 -0.121
0.321 0.096 -0.125
0.302 0.093 -0.118
0.297 0.094 -0.116
0.300 0.098 -0.117
0.309 0.104 -0.121
0.314 0.109 -0.123
0.317 0.113 -0.124
0.313 0.115 -0.123
0.311 0.117 -0.122
0.322 0.125 -0.127
0.335 0.133 -0.133
0.323 0.132 -0.128
0.318 0.133 -0.126
0.320 0.137 -0.127
0.320 0.141 -0.127
0.319 0.144 -0.127
0.311 0.143 -0.124
0.308 0.146 -0.124
0.312 0.150 -0.125
0.305 0.151 -0.123
0.295 0.149 -0.119
0.293 0.151 -0.118
0.294 0.155 -0.119
0.299 0.161 -0.122
0.304 0.167 -0.124
0.300 0.168 -0.123
0.296 0.170 -0.121
0.317 0.192 -0.131
0.305 0.189 -0.126
0.311 -0.412 -0.150
0.324 -0.418 -0.155
0.330 -0.415 -0.157
0.329 -0.407 -0.155
0.333 -0.407 -0.157
0.331 -0.398 -0.155
0.332 -0.394 -0.155
0.335 -0.392 -0.156
0.336 -0.388 -0.156
0.333 -0.379 -0.153
0.332 -0.372 -0.152
0.332 -0.367 -0.152
0.334 -0.363 -0.152
0.332 -0.355 -0.150
0.330 -0.348 -0.148
0.329 -0.342 -0.147
0.328 -0.335 -0.146
0.327 -0.329 -0.145
0.326 -0.323 -0.144
0.321 -0.313 -0.141
0.321 -0.308 -0.140
0.324 -0.306 -0.141
0.325 -0.302 -0.141
0.324 -0.296 -0.140
0.323 -0.291 -0.139
0.325 -0.288 -0.139
0.325 -0.283 -0.139
0.321 -0.276 -0.136
0.317 -0.268 -0.134
0.316 -0.263 -0.133
0.320 -0.261 -0.134
0.322 -0.259 -0.135
0.318 -0.251 -0.133
0.317 -0.247 -0.132
0.316 -0.241 -0.131
0.312 -0.234 -0.129
0.309 -0.228 -0.127
0.310 -0.225 -0.127
0.310 -0.221 -0.127
0.310 -0.217 -0.126
0.307 -0.212 -0.125
0.304 -0.206 -0.123
0.302 -0.201 -0.122
0.299 -0.196 -0.121
0.230 -0.145 -0.092
0.221 -0.136 -0.088
0.208 -0.126 -0.083
0.209 -0.125 -0.083
0.210 -0.123 -0.083
0.214 -0.122 -0.085
0.249 -0.140 -0.098
0.246 -0.136 -0.097
0.246 -0.133 -0.097
0.252 -0.133 -0.099
0.309 -0.157 -0.120
0.313 -0.155 -0.122
0.316 -0.154 -0.123
0.318 -0.151 -0.124
0.321 -0.149 -0.124
0.324 -0.147 -0.125
0.326 -0.145 -0.126
0.327 -0.142 -0.126
0.360 -0.135 -0.138
0.361 -0.131 -0.137
0.366 -0.129 -0.139
0.374 -0.128 -0.142
0.378 -0.126 -0.144
0.383 -0.124 -0.145
0.387 -0.122 -0.147
0.392 -0.119 -0.148
0.407 -0.120 -0.154
0.414 -0.118 -0.156
0.424 -0.117 -0.160
0.385 -0.080 -0.144
0.383 -0.076 -0.143
0.297 -0.054 -0.111
0.300 -0.051 -0.112
0.299 -0.048 -0.112
0.301 -0.046 -0.112
0.298 -0.043 -0.111
0.301 -0.040 -0.112
0.302 -0.038 -0.113
0.301 -0.035 -0.112
0.300 -0.032 -0.112
0.296 -0.029 -0.110
0.290 -0.025 -0.108
0.298 -0.023 -0.111
0.309 -0.021 -0.115
0.306 -0.018 -0.114
0.309 -0.016 -0.115
0.313 -0.013 -0.117
0.327 -0.010 -0.122
0.327 -0.007 -0.122
0.317 -0.004 -0.118
0.327 -0.001 -0.121
0.326 0.002 -0.121
0.315 0.004 -0.117
0.310 0.007 -0.115
0.313 0.010 -0.116
0.310 0.013 -0.115
0.325 0.017 -0.121
0.331 0.020 -0.123
0.313 0.022 -0.117
0.302 0.024 -0.113
0.309 0.027 -0.115
0.322 0.031 -0.120
0.322 0.034 -0.120
0.325 0.038 -0.121
0.328 0.041 -0.123
0.320 0.043 -0.120
0.322 0.046 -0.121
0.325 0.050 -0.121
0.322 0.052 -0.120
0.325 0.056 -0.122
0.317 0.057 -0.119
0.309 0.059 -0.116
0.305 0.061 -0.114
0.311 0.065 -0.117
0.313 0.069 -0.118
0.306 0.073 -0.115
0.303 0.075 -0.114
0.303 0.078 -0.115
0.313 0.084 -0.119
0.329 0.091 -0.125
0.329 0.094 -0.125
0.312 0.093 -0.119
0.328 0.101 -0.125
0.312 0.099 -0.119
0.316 0.103 -0.121
0.304 0.102 -0.116
0.317 0.110 -0.121
0.333 0.119 -0.128
0.325 0.119 -0.125
0.319 0.120 -0.122
0.338 0.131 -0.130
0.335 0.133 -0.129
0.334 0.136 -0.129
0.322 0.135 -0.125
0.321 0.137 -0.124
0.321 0.141 -0.125
0.318 0.143 -0.124
0.318 0.146 -0.124
0.316 0.149 -0.124
0.312 0.151 -0.122
0.310 0.153 -0.122
0.308 0.155 -0.121
0.336 0.177 -0.133
0.356 0.195 -0.141
0.358 0.201 -0.143
0.320 -0.424 -0.150
0.334 -0.436 -0.156
0.328 -0.422 -0.153
0.335 -0.426 -0.156
0.335 -0.420 -0.155
0.328 -0.406 -0.151
0.327 -0.398 -0.150
0.332 -0.399 -0.151
0.334 -0.396 -0.152
0.336 -0.392 -0.152
0.334 -0.384 -0.150
0.332 -0.377 -0.149
0.331 -0.370 -0.148
0.330 -0.364 -0.147
0.330 -0.358 -0.146
0.329 -0.352 -0.145
0.330 -0.347 -0.144
0.329 -0.341 -0.143
0.327 -0.334 -0.142
0.324 -0.325 -0.140
0.326 -0.322 -0.140
0.321 -0.313 -0.137
0.322 -0.309 -0.137
0.324 -0.305 -0.137
0.324 -0.301 -0.137
0.321 -0.293 -0.135
0.321 -0.288 -0.134
0.321 -0.284 -0.134
0.319 -0.277 -0.132
0.316 -0.271 -0.131
0.315 -0.266 -0.130
0.315 -0.261 -0.129
0.313 -0.255 -0.128
0.313 -0.251 -0.127
0.316 -0.249 -0.128
0.316 -0.246 -0.128
0.312 -0.238 -0.126
0.307 -0.231 -0.124
0.307 -0.227 -0.123
0.308 -0.223 -0.123
0.309 -0.220 -0.123
0.309 -0.216 -0.122
0.300 -0.207 -0.119
0.301 -0.204 -0.119
0.301 -0.200 -0.118
0.298 -0.194 -0.117
0.219 -0.135 -0.085
0.209 -0.127 -0.081
0.209 -0.124 -0.081
0.210 -0.122 -0.081
0.214 -0.122 -0.082
0.251 -0.141 -0.096
0.246 -0.135 -0.094
0.246 -0.133 -0.094
0.248 -0.131 -0.095
0.308 -0.156 -0.117
0.310 -0.154 -0.118
0.314 -0.152 -0.119
0.318 -0.151 -0.120
0.321 -0.149 -0.121
0.323 -0.147 -0.122
0.324 -0.144 -0.122
0.328 -0.142 -0.123
0.344 -0.132 -0.128
0.360 -0.134 -0.134
0.363 -0.131 -0.135
0.366 -0.129 -0.136
0.372 -0.128 -0.138
0.379 -0.126 -0.140
0.384 -0.124 -0.142
0.387 -0.121 -0.143
0.391 -0.119 -0.144
0.419 -0.123 -0.154
0.422 -0.120 -0.155
0.430 -0.118 -0.158
0.445 -0.118 -0.163
0.380 -0.079 -0.139
0.377 -0.075 -0.137
0.367 -0.070 -0.134
0.301 -0.054 -0.110
0.295 -0.050 -0.107
0.294 -0.048 -0.107
0.299 -0.045 -0.109
0.301 -0.043 -0.110
0.304 -0.041 -0.110
0.302 -0.038 -0.110
0.303 -0.035 -0.110
0.297 -0.031 -0.108
0.295 -0.029 -0.107
0.293 -0.026 -0.106
0.300 -0.023 -0.109
0.303 -0.021 -0.110
0.306 -0.018 -0.111
0.304 -0.015 -0.110
0.315 -0.013 -0.114
0.320 -0.010 -0.116
0.318 -0.007 -0.115
0.326 -0.004 -0.118
0.333 -0.001 -0.121
0.336 0.002 -0.122
0.314 0.004 -0.114
0.313 0.007 -0.113
0.304 0.010 -0.110
0.311 0.013 -0.113
0.324 0.016 -0.117
0.333 0.020 -0.121
0.324 0.022 -0.118
0.309 0.024 -0.112
0.308 0.027 -0.112
0.314 0.030 -0.114
0.322 0.034 -0.117
0.335 0.039 -0.122
0.340 0.042 -0.124
0.326 0.044 -0.119
0.310 0.045 -0.113
0.322 0.049 -0.117
0.327 0.053 -0.119
0.326 0.056 -0.119
0.320 0.058 -0.117
0.311 0.059 -0.114
0.306 0.061 -0.112
0.310 0.065 -0.113
0.319 0.070 -0.117
0.298 0.074 -0.109
0.334 0.089 -0.123
0.328 0.091 -0.121
0.321 0.092 -0.118
0.333 0.099 -0.123
0.343 0.105 -0.127
0.298 0.100 -0.111
0.348 0.124 -0.130
0.332 0.122 -0.124
0.328 0.123 -0.123
0.334 0.129 -0.125
0.340 0.135 -0.128
0.339 0.138 -0.127
0.339 0.141 -0.128
0.326 0.139 -0.123
0.335 0.147 -0.127
0.327 0.147 -0.124
0.318 0.146 -0.121
0.309 0.145 -0.117
0.316 0.152 -0.121
0.335 0.165 -0.128
0.332 -0.444 -0.152
0.339 -0.447 -0.155
0.342 -0.446 -0.156
0.334 -0.430 -0.151
0.335 -0.425 -0.151
0.334 -0.419 -0.150
0.329 -0.406 -0.147
0.326 -0.397 -0.145
0.330 -0.396 -0.146
0.335 -0.396 -0.148
0.333 -0.388 -0.146
0.332 -0.382 -0.145
0.333 -0.377 -0.145
0.332 -0.370 -0.144
0.330 -0.363 -0.143
0.329 -0.356 -0.141
0.329 -0.350 -0.141
0.329 -0.345 -0.140
0.329 -0.340 -0.139
0.325 -0.331 -0.137
0.322 -0.323 -0.135
0.322 -0.318 -0.134
0.324 -0.315 -0.135
0.322 -0.308 -0.133
0.321 -0.302 -0.132
0.321 -0.297 -0.132
0.319 -0.291 -0.130
0.318 -0.285 -0.130
0.317 -0.280 -0.129
0.317 -0.275 -0.128
0.314 -0.269 -0.126
0.315 -0.265 -0.126
0.314 -0.260 -0.125
0.312 -0.254 -0.124
0.311 -0.249 -0.123
0.313 -0.247 -0.124
0.313 -0.242 -0.123
0.313 -0.238 -0.123
0.308 -0.231 -0.120
0.307 -0.226 -0.119
0.307 -0.222 -0.119
0.308 -0.219 -0.119
0.307 -0.214 -0.118
0.300 -0.206 -0.115
0.299 -0.202 -0.115
0.296 -0.197 -0.113
0.295 -0.192 -0.112
0.289 -0.185 -0.110
0.209 -0.127 -0.079
0.209 -0.124 -0.079
0.210 -0.122 -0.079
0.212 -0.121 -0.080
0.252 -0.141 -0.094
