VERSION .7
FIELDS x y z
SIZE 4 4 4
TYPE F F F
COUNT 1 1 1
WIDTH     2438
HEIGHT 1
VIEWPOINT 0 0 0 1 0 0 0
POINTS     2438
DATA ascii
1.359 -0.685 -0.793
1.361 -0.671 -0.792
1.388 -0.669 -0.807
1.342 -0.589 -0.774
1.333 -0.571 -0.767
0.239 -0.097 -0.137
0.244 -0.097 -0.140
1.351 -0.507 -0.771
1.348 -0.492 -0.768
1.347 -0.478 -0.766
1.340 -0.462 -0.762
1.348 -0.451 -0.765
1.353 -0.439 -0.767
1.318 -0.414 -0.746
1.318 -0.401 -0.745
1.319 -0.388 -0.745
1.317 -0.374 -0.743
1.312 -0.360 -0.739
1.318 -0.349 -0.742
1.325 -0.337 -0.745
0.318 -0.053 -0.177
0.300 -0.044 -0.167
0.302 -0.042 -0.168
0.313 -0.040 -0.175
0.295 -0.035 -0.165
0.289 -0.031 -0.161
0.307 -0.028 -0.171
0.316 -0.022 -0.176
0.310 -0.019 -0.172
0.275 0.012 -0.153
0.282 0.015 -0.157
0.304 0.019 -0.169
0.316 0.023 -0.176
0.307 0.025 -0.171
0.309 0.028 -0.172
0.310 0.031 -0.173
0.306 0.034 -0.170
0.310 0.037 -0.173
0.309 0.040 -0.173
0.312 0.044 -0.174
0.320 0.048 -0.179
0.336 0.054 -0.188
0.337 0.057 -0.189
0.324 0.058 -0.182
0.221 -0.164 -0.134
0.165 -0.116 -0.099
0.177 -0.122 -0.106
0.203 -0.137 -0.121
0.210 -0.140 -0.124
0.210 -0.137 -0.124
0.210 -0.135 -0.124
0.202 -0.127 -0.119
1.438 -0.888 -0.843
1.429 -0.865 -0.835
1.423 -0.845 -0.830
1.415 -0.823 -0.823
1.393 -0.794 -0.808
1.379 -0.771 -0.798
1.377 -0.754 -0.795
1.388 -0.744 -0.800
1.377 -0.723 -0.791
1.374 -0.706 -0.788
1.365 -0.686 -0.781
1.374 -0.676 -0.784
1.387 -0.667 -0.790
1.390 -0.608 -0.786
1.394 -0.595 -0.787
0.244 -0.099 -0.137
0.246 -0.097 -0.138
1.356 -0.508 -0.759
1.347 -0.491 -0.753
1.340 -0.475 -0.748
1.338 -0.460 -0.746
1.339 -0.447 -0.745
1.328 -0.430 -0.738
1.318 -0.413 -0.732
1.314 -0.399 -0.728
1.320 -0.388 -0.731
1.324 -0.376 -0.733
1.320 -0.361 -0.729
1.326 -0.350 -0.732
1.328 -0.337 -0.732
0.334 -0.062 -0.183
0.322 -0.057 -0.176
0.322 -0.054 -0.176
0.314 -0.046 -0.172
0.311 -0.043 -0.170
0.315 -0.040 -0.172
0.299 -0.033 -0.163
0.297 -0.029 -0.162
0.317 -0.028 -0.173
0.309 -0.022 -0.168
0.304 -0.019 -0.166
0.293 0.016 -0.160
0.305 0.019 -0.166
0.310 0.022 -0.169
0.305 0.025 -0.167
0.306 0.028 -0.167
0.301 0.030 -0.164
0.300 0.033 -0.164
0.314 0.038 -0.172
0.318 0.041 -0.174
0.317 0.044 -0.174
0.322 0.048 -0.176
0.333 0.053 -0.183
0.327 0.055 -0.179
0.326 0.058 -0.179
0.197 -0.133 -0.115
0.209 -0.139 -0.122
0.210 -0.137 -0.122
0.210 -0.134 -0.121
0.205 -0.129 -0.118
1.400 -0.797 -0.796
1.387 -0.773 -0.787
1.388 -0.758 -0.785
1.392 -0.744 -0.786
1.367 -0.670 -0.765
1.362 -0.653 -0.761
1.400 -0.611 -0.776
1.397 -0.595 -0.773
0.251 -0.102 -0.138
0.247 -0.098 -0.136
1.343 -0.475 -0.734
1.337 -0.459 -0.730
1.336 -0.445 -0.729
1.332 -0.430 -0.726
1.324 -0.414 -0.720
1.315 -0.398 -0.715
1.311 -0.384 -0.712
1.318 -0.373 -0.714
1.323 -0.361 -0.717
1.330 -0.350 -0.719
1.332 -0.337 -0.720
0.321 -0.059 -0.173
0.311 -0.055 -0.167
0.309 -0.051 -0.166
0.305 -0.045 -0.163
0.314 -0.043 -0.168
0.318 -0.038 -0.170
0.310 -0.034 -0.166
0.306 -0.030 -0.164
0.302 -0.027 -0.162
0.309 -0.025 -0.165
0.305 0.016 -0.163
0.311 0.019 -0.166
0.314 0.023 -0.168
0.310 0.025 -0.166
0.301 0.027 -0.161
0.303 0.030 -0.162
0.305 0.034 -0.164
0.319 0.038 -0.171
0.320 0.041 -0.172
0.317 0.044 -0.170
0.314 0.047 -0.169
0.322 0.054 -0.173
0.304 0.054 -0.164
0.304 0.060 -0.164
0.330 0.072 -0.179
0.352 0.148 -0.196
0.209 -0.138 -0.119
0.209 -0.136 -0.119
0.209 -0.133 -0.118
0.210 -0.131 -0.118
1.427 -0.826 -0.797
1.414 -0.802 -0.788
1.400 -0.779 -0.778
1.366 -0.581 -0.740
1.345 -0.475 -0.721
1.337 -0.458 -0.716
1.336 -0.444 -0.715
1.334 -0.430 -0.712
1.330 -0.415 -0.709
1.324 -0.400 -0.705
1.311 -0.383 -0.698
1.311 -0.370 -0.697
1.316 -0.359 -0.699
1.330 -0.349 -0.705
1.327 -0.336 -0.703
0.301 -0.056 -0.158
0.297 -0.052 -0.156
0.286 -0.047 -0.151
0.305 -0.042 -0.160
0.318 -0.040 -0.167
0.313 -0.034 -0.164
0.304 -0.030 -0.159
0.292 -0.026 -0.153
0.294 -0.023 -0.154
0.295 -0.021 -0.155
0.300 -0.018 -0.157
0.310 -0.013 -0.162
0.327 0.014 -0.171
0.313 0.017 -0.164
0.311 0.019 -0.163
0.315 0.023 -0.165
0.310 0.025 -0.163
0.300 0.027 -0.157
0.301 0.030 -0.158
0.312 0.034 -0.164
0.311 0.037 -0.164
0.319 0.041 -0.168
0.312 0.043 -0.164
0.305 0.045 -0.160
0.314 0.050 -0.166
0.316 0.053 -0.167
0.317 0.056 -0.167
0.309 0.058 -0.163
0.310 0.079 -0.165
0.356 0.150 -0.194
0.153 -0.105 -0.086
0.162 -0.109 -0.090
0.209 -0.138 -0.116
0.209 -0.135 -0.116
0.209 -0.133 -0.116
0.211 -0.132 -0.117
1.420 -0.788 -0.773
1.407 -0.765 -0.764
1.358 -0.576 -0.721
1.339 -0.499 -0.705
1.343 -0.486 -0.706
1.342 -0.472 -0.705
1.340 -0.458 -0.703
1.328 -0.441 -0.696
1.332 -0.429 -0.697
1.340 -0.418 -0.700
1.335 -0.403 -0.697
1.324 -0.386 -0.690
1.314 -0.370 -0.684
1.316 -0.358 -0.684
1.325 -0.347 -0.689
1.333 -0.337 -0.692
0.290 -0.054 -0.150
0.291 -0.051 -0.150
0.294 -0.049 -0.152
0.284 -0.042 -0.146
0.293 -0.040 -0.151
0.301 -0.038 -0.155
0.308 -0.036 -0.158
0.300 -0.032 -0.154
0.297 -0.029 -0.152
0.287 -0.026 -0.147
0.292 -0.023 -0.150
0.296 -0.021 -0.152
0.303 -0.018 -0.155
0.301 -0.015 -0.155
0.315 -0.013 -0.162
0.309 0.016 -0.159
0.304 0.019 -0.156
0.305 0.022 -0.157
0.304 0.025 -0.156
0.302 0.027 -0.155
0.311 0.031 -0.160
0.313 0.034 -0.161
0.308 0.037 -0.158
0.304 0.039 -0.157
0.312 0.043 -0.161
0.310 0.046 -0.160
0.307 0.048 -0.159
0.320 0.054 -0.166
0.316 0.056 -0.164
0.329 0.138 -0.176
0.176 0.214 -0.117
0.181 0.223 -0.120
0.183 0.229 -0.122
0.208 -0.137 -0.114
0.209 -0.135 -0.114
0.210 -0.133 -0.114
0.211 -0.131 -0.114
0.299 -0.159 -0.158
0.312 -0.159 -0.165
0.327 -0.163 -0.172
0.330 -0.161 -0.173
0.329 -0.157 -0.173
0.338 -0.157 -0.177
0.338 -0.154 -0.177
1.372 -0.581 -0.714
1.340 -0.498 -0.692
1.335 -0.482 -0.688
1.337 -0.469 -0.688
1.335 -0.455 -0.686
1.329 -0.440 -0.682
1.334 -0.428 -0.683
1.343 -0.418 -0.688
1.338 -0.403 -0.684
1.326 -0.386 -0.677
1.316 -0.370 -0.671
1.311 -0.356 -0.668
1.322 -0.346 -0.673
0.299 -0.055 -0.151
0.310 -0.054 -0.157
0.313 -0.052 -0.158
0.301 -0.047 -0.152
0.284 -0.041 -0.143
0.296 -0.040 -0.149
0.305 -0.039 -0.154
0.301 -0.035 -0.152
0.296 -0.032 -0.149
0.288 -0.028 -0.145
0.285 -0.025 -0.144
0.294 -0.023 -0.148
0.306 -0.021 -0.154
0.312 -0.019 -0.157
0.316 -0.016 -0.159
0.316 -0.013 -0.159
0.311 0.013 -0.157
0.306 0.016 -0.154
0.307 0.019 -0.154
0.299 0.021 -0.151
0.297 0.024 -0.149
0.301 0.027 -0.152
0.308 0.031 -0.155
0.311 0.034 -0.157
0.307 0.036 -0.155
0.308 0.040 -0.156
0.319 0.044 -0.161
0.313 0.046 -0.158
0.327 0.051 -0.165
0.329 0.055 -0.167
0.296 0.055 -0.150
0.316 0.065 -0.161
0.320 0.081 -0.163
0.334 0.092 -0.171
0.338 0.145 -0.177
0.181 0.209 -0.115
0.170 0.200 -0.109
0.175 0.209 -0.113
0.178 0.216 -0.115
0.188 0.231 -0.122
0.178 0.223 -0.117
0.177 0.225 -0.116
0.137 -0.094 -0.074
0.208 -0.137 -0.111
0.209 -0.135 -0.112
0.210 -0.133 -0.112
0.209 -0.130 -0.111
0.210 -0.128 -0.111
0.315 -0.177 -0.165
0.321 -0.177 -0.167
0.320 -0.173 -0.167
0.312 -0.165 -0.162
0.319 -0.166 -0.166
0.322 -0.164 -0.167
0.327 -0.163 -0.169
0.331 -0.161 -0.170
0.331 -0.157 -0.170
0.331 -0.154 -0.170
0.342 -0.155 -0.175
0.345 -0.153 -0.176
1.359 -0.504 -0.687
1.341 -0.484 -0.677
1.344 -0.471 -0.677
1.332 -0.453 -0.670
1.331 -0.440 -0.669
1.339 -0.429 -0.672
1.320 -0.410 -0.662
1.319 -0.396 -0.660
1.325 -0.385 -0.662
1.319 -0.370 -0.659
1.316 -0.357 -0.657
1.312 -0.343 -0.654
1.315 -0.331 -0.655
0.314 -0.058 -0.155
0.316 -0.055 -0.156
0.322 -0.053 -0.159
0.302 -0.047 -0.149
0.297 -0.043 -0.147
0.301 -0.041 -0.149
0.307 -0.039 -0.152
0.301 -0.035 -0.149
0.300 -0.032 -0.148
0.296 -0.029 -0.146
0.294 -0.026 -0.145
0.295 -0.023 -0.145
0.314 -0.022 -0.155
0.331 -0.020 -0.163
0.316 -0.016 -0.156
0.311 -0.013 -0.153
0.313 -0.010 -0.154
0.328 0.008 -0.162
0.303 0.013 -0.149
0.305 0.016 -0.150
0.311 0.022 -0.153
0.300 0.024 -0.148
0.296 0.027 -0.146
0.302 0.030 -0.149
0.307 0.033 -0.151
0.314 0.037 -0.155
0.320 0.041 -0.158
0.315 0.043 -0.156
0.322 0.047 -0.159
0.322 0.051 -0.160
0.326 0.057 -0.162
0.316 0.071 -0.157
0.303 0.083 -0.152
0.299 0.085 -0.150
0.345 0.148 -0.177
0.212 0.222 -0.129
0.187 0.213 -0.116
0.183 0.212 -0.115
0.178 0.209 -0.112
0.176 0.210 -0.111
0.182 0.220 -0.115
0.179 0.220 -0.114
0.187 0.233 -0.120
0.206 -0.135 -0.107
0.207 -0.133 -0.108
0.209 -0.132 -0.109
0.209 -0.130 -0.108
0.224 -0.136 -0.116
0.312 -0.186 -0.161
0.315 -0.184 -0.162
0.317 -0.182 -0.163
0.320 -0.180 -0.164
0.318 -0.175 -0.162
0.317 -0.171 -0.161
0.318 -0.168 -0.162
0.322 -0.167 -0.164
0.325 -0.165 -0.164
0.325 -0.161 -0.164
0.327 -0.159 -0.165
0.328 -0.156 -0.165
0.332 -0.154 -0.167
0.335 -0.152 -0.168
0.339 -0.150 -0.170
1.353 -0.501 -0.669
1.347 -0.471 -0.664
1.333 -0.453 -0.656
1.321 -0.436 -0.650
1.324 -0.423 -0.650
1.319 -0.409 -0.647
1.319 -0.396 -0.647
1.319 -0.382 -0.645
1.325 -0.371 -0.648
1.321 -0.357 -0.645
1.317 -0.343 -0.643
0.308 -0.057 -0.149
0.312 -0.054 -0.151
0.302 -0.050 -0.146
0.297 -0.046 -0.143
0.299 -0.043 -0.144
0.302 -0.041 -0.146
0.309 -0.039 -0.149
0.323 -0.038 -0.156
0.309 -0.033 -0.149
0.301 -0.030 -0.145
0.304 -0.027 -0.146
0.298 -0.024 -0.144
0.306 -0.021 -0.148
0.324 -0.020 -0.156
0.312 -0.016 -0.150
0.304 -0.013 -0.147
0.312 -0.010 -0.151
0.326 -0.007 -0.157
0.329 -0.004 -0.158
0.309 0.013 -0.149
0.302 0.016 -0.146
0.321 0.026 -0.155
0.312 0.031 -0.151
0.313 0.034 -0.151
0.323 0.038 -0.156
0.338 0.043 -0.164
0.335 0.046 -0.162
0.305 0.045 -0.148
0.315 0.049 -0.153
0.325 0.054 -0.158
0.331 0.058 -0.161
0.331 0.061 -0.161
0.313 0.061 -0.152
0.351 0.086 -0.172
0.314 0.092 -0.155
0.366 0.157 -0.184
0.226 0.217 -0.131
0.232 0.226 -0.135
0.223 0.226 -0.131
0.214 0.220 -0.126
0.211 0.220 -0.125
0.208 0.221 -0.124
0.199 0.222 -0.120
0.188 0.213 -0.114
0.184 0.211 -0.112
0.181 0.212 -0.111
0.180 0.214 -0.111
0.178 0.215 -0.111
0.178 0.218 -0.111
0.190 0.236 -0.119
0.190 0.240 -0.120
0.186 0.237 -0.117
0.211 -0.138 -0.108
0.208 -0.134 -0.106
0.208 -0.131 -0.106
0.209 -0.129 -0.106
0.223 -0.135 -0.113
0.313 -0.186 -0.158
0.314 -0.183 -0.158
0.314 -0.180 -0.158
0.315 -0.177 -0.158
0.320 -0.176 -0.160
0.316 -0.170 -0.158
0.317 -0.167 -0.158
0.320 -0.165 -0.159
0.324 -0.164 -0.160
0.319 -0.158 -0.158
0.325 -0.157 -0.160
0.328 -0.155 -0.161
0.331 -0.153 -0.162
0.335 -0.151 -0.164
0.333 -0.147 -0.163
1.366 -0.504 -0.661
1.357 -0.488 -0.656
1.342 -0.468 -0.648
1.335 -0.453 -0.644
1.340 -0.441 -0.645
1.334 -0.426 -0.641
1.326 -0.410 -0.637
1.314 -0.394 -0.630
1.327 -0.384 -0.635
1.329 -0.372 -0.636
1.330 -0.359 -0.636
1.323 -0.344 -0.632
0.294 -0.054 -0.139
0.302 -0.052 -0.143
0.294 -0.048 -0.140
0.291 -0.045 -0.138
0.290 -0.042 -0.137
0.288 -0.039 -0.136
0.309 -0.039 -0.146
0.314 -0.037 -0.148
0.305 -0.033 -0.144
0.297 -0.029 -0.140
0.302 -0.027 -0.143
0.298 -0.024 -0.141
0.301 -0.021 -0.142
0.305 -0.018 -0.144
0.309 -0.016 -0.146
0.303 -0.013 -0.143
0.304 -0.010 -0.144
0.313 -0.007 -0.148
0.311 -0.004 -0.147
0.317 -0.001 -0.149
0.326 0.002 -0.154
0.330 0.008 -0.156
0.324 0.011 -0.153
0.302 0.016 -0.143
0.345 0.044 -0.163
0.338 0.046 -0.160
0.308 0.048 -0.146
0.334 0.059 -0.159
0.328 0.061 -0.156
0.310 0.082 -0.149
0.308 0.084 -0.148
0.311 0.091 -0.149
0.325 0.108 -0.157
0.360 0.153 -0.177
0.235 0.202 -0.129
0.221 0.194 -0.122
0.215 0.192 -0.119
0.220 0.200 -0.122
0.210 0.195 -0.118
0.222 0.209 -0.125
0.224 0.215 -0.127
0.223 0.217 -0.127
0.218 0.216 -0.124
0.215 0.217 -0.123
0.207 0.212 -0.120
0.213 0.222 -0.123
0.204 0.219 -0.119
0.200 0.219 -0.118
0.195 0.217 -0.115
0.193 0.218 -0.115
0.193 0.222 -0.115
0.191 0.223 -0.115
0.186 0.221 -0.113
0.178 0.218 -0.109
0.181 0.224 -0.111
0.184 0.231 -0.113
0.184 0.234 -0.113
0.315 -0.229 -0.161
0.314 -0.220 -0.159
0.217 -0.142 -0.109
0.209 -0.134 -0.104
0.208 -0.131 -0.104
0.209 -0.129 -0.104
0.215 -0.130 -0.106
0.309 -0.184 -0.153
0.312 -0.182 -0.154
0.312 -0.178 -0.153
0.314 -0.176 -0.154
0.318 -0.174 -0.155
0.315 -0.169 -0.154
0.316 -0.166 -0.154
0.318 -0.164 -0.154
0.318 -0.161 -0.154
0.320 -0.158 -0.155
0.324 -0.157 -0.156
0.328 -0.155 -0.158
0.331 -0.153 -0.159
0.334 -0.151 -0.160
0.334 -0.147 -0.160
0.345 -0.131 -0.164
1.344 -0.482 -0.635
1.341 -0.467 -0.633
1.341 -0.454 -0.632
1.349 -0.443 -0.635
1.339 -0.427 -0.630
1.325 -0.409 -0.622
1.322 -0.395 -0.620
1.328 -0.384 -0.623
1.338 -0.374 -0.626
1.335 -0.360 -0.624
1.310 -0.340 -0.612
0.295 -0.054 -0.137
0.294 -0.051 -0.136
0.295 -0.048 -0.137
0.291 -0.045 -0.135
0.286 -0.041 -0.132
0.284 -0.039 -0.132
0.286 -0.036 -0.132
0.300 -0.035 -0.139
0.300 -0.032 -0.139
0.296 -0.029 -0.137
0.297 -0.026 -0.137
0.300 -0.024 -0.138
0.301 -0.021 -0.139
0.307 -0.019 -0.142
0.305 -0.016 -0.141
0.303 -0.013 -0.140
0.302 -0.010 -0.139
0.314 -0.007 -0.145
0.311 -0.004 -0.144
0.315 -0.001 -0.145
0.304 0.002 -0.140
0.294 0.004 -0.135
0.314 0.007 -0.145
0.340 0.037 -0.158
0.339 0.046 -0.157
0.306 0.045 -0.142
0.331 0.058 -0.154
0.302 0.064 -0.141
0.316 0.070 -0.147
0.328 0.086 -0.154
0.326 0.089 -0.153
0.315 0.089 -0.148
0.309 0.090 -0.145
0.323 0.101 -0.152
0.319 0.103 -0.151
0.343 0.121 -0.163
0.358 0.152 -0.172
0.351 0.153 -0.169
0.237 0.194 -0.126
0.231 0.191 -0.123
0.228 0.193 -0.122
0.224 0.192 -0.120
0.222 0.194 -0.120
0.220 0.196 -0.119
0.214 0.194 -0.117
0.211 0.195 -0.116
0.208 0.195 -0.114
0.212 0.202 -0.117
0.212 0.206 -0.118
0.214 0.212 -0.120
0.211 0.212 -0.118
0.214 0.219 -0.121
0.203 0.211 -0.115
0.199 0.210 -0.113
0.203 0.218 -0.116
0.210 0.229 -0.121
0.212 0.239 -0.123
0.183 0.226 -0.109
0.184 0.231 -0.111
0.181 0.231 -0.109
0.181 0.234 -0.110
0.325 -0.252 -0.164
0.327 -0.250 -0.165
0.325 -0.244 -0.163
0.324 -0.239 -0.162
0.329 -0.239 -0.164
0.328 -0.234 -0.163
0.321 -0.225 -0.159
0.314 -0.216 -0.155
0.239 -0.159 -0.117
0.232 -0.151 -0.113
0.210 -0.134 -0.102
0.210 -0.132 -0.102
0.209 -0.129 -0.102
0.211 -0.128 -0.102
0.307 -0.182 -0.148
0.310 -0.180 -0.149
0.312 -0.178 -0.150
0.314 -0.175 -0.150
0.314 -0.172 -0.150
0.314 -0.169 -0.150
0.314 -0.165 -0.150
0.316 -0.162 -0.150
0.317 -0.159 -0.150
0.321 -0.158 -0.152
0.324 -0.156 -0.153
0.327 -0.154 -0.154
0.332 -0.153 -0.156
0.335 -0.151 -0.157
0.334 -0.147 -0.156
0.356 -0.134 -0.165
0.363 -0.134 -0.168
1.345 -0.454 -0.620
1.344 -0.441 -0.619
1.330 -0.423 -0.612
1.328 -0.409 -0.610
1.325 -0.395 -0.608
1.335 -0.385 -0.612
1.337 -0.373 -0.612
1.332 -0.358 -0.609
1.298 -0.336 -0.593
0.299 -0.055 -0.136
0.292 -0.051 -0.132
0.293 -0.048 -0.133
0.297 -0.046 -0.134
0.293 -0.042 -0.133
0.293 -0.040 -0.133
0.286 -0.036 -0.129
0.285 -0.033 -0.129
0.300 -0.032 -0.136
0.308 -0.030 -0.139
0.305 -0.027 -0.138
0.300 -0.024 -0.136
0.305 -0.021 -0.138
0.308 -0.019 -0.139
0.305 -0.016 -0.138
0.299 -0.012 -0.135
0.317 -0.010 -0.143
0.312 -0.007 -0.141
0.311 -0.004 -0.140
0.308 -0.001 -0.139
0.302 0.002 -0.136
0.302 0.004 -0.136
0.304 0.007 -0.137
0.308 0.010 -0.139
0.297 0.013 -0.134
0.298 0.046 -0.135
0.326 0.057 -0.148
0.327 0.070 -0.149
0.316 0.070 -0.145
0.297 0.069 -0.136
0.284 0.069 -0.130
0.343 0.090 -0.157
0.334 0.091 -0.153
0.316 0.089 -0.145
0.306 0.089 -0.141
0.324 0.098 -0.149
0.332 0.103 -0.153
0.337 0.119 -0.157
0.352 0.153 -0.166
0.255 0.187 -0.129
0.249 0.185 -0.126
0.248 0.188 -0.126
0.247 0.190 -0.126
0.241 0.189 -0.123
0.237 0.189 -0.122
0.233 0.190 -0.121
0.227 0.188 -0.118
0.224 0.189 -0.117
0.223 0.191 -0.117
0.221 0.193 -0.117
0.219 0.194 -0.116
0.215 0.194 -0.114
0.212 0.194 -0.113
0.210 0.196 -0.112
0.212 0.201 -0.114
0.219 0.212 -0.119
0.219 0.216 -0.119
0.222 0.222 -0.122
0.216 0.219 -0.119
0.209 0.216 -0.116
0.207 0.218 -0.115
0.205 0.230 -0.117
0.204 0.234 -0.117
0.205 0.238 -0.118
0.193 0.242 -0.114
0.182 0.231 -0.107
0.180 0.233 -0.107
0.328 -0.272 -0.164
0.333 -0.272 -0.166
0.336 -0.269 -0.167
0.328 -0.259 -0.162
0.325 -0.252 -0.160
0.324 -0.247 -0.159
0.324 -0.243 -0.159
0.326 -0.240 -0.159
0.328 -0.237 -0.159
0.330 -0.235 -0.160
0.318 -0.222 -0.154
0.312 -0.214 -0.151
0.213 -0.136 -0.101
0.210 -0.131 -0.100
0.209 -0.129 -0.099
0.211 -0.127 -0.100
0.309 -0.179 -0.145
0.310 -0.177 -0.146
0.311 -0.173 -0.145
0.312 -0.171 -0.146
0.312 -0.167 -0.146
0.313 -0.164 -0.146
0.312 -0.160 -0.145
0.314 -0.158 -0.146
0.318 -0.157 -0.147
0.324 -0.156 -0.149
0.327 -0.154 -0.150
0.332 -0.153 -0.152
0.334 -0.150 -0.153
0.332 -0.146 -0.152
0.300 -0.119 -0.137
0.308 -0.119 -0.140
0.360 -0.136 -0.163
0.367 -0.135 -0.166
0.376 -0.134 -0.170
0.377 -0.131 -0.170
1.324 -0.420 -0.595
1.324 -0.407 -0.595
1.322 -0.394 -0.593
1.327 -0.382 -0.594
1.324 -0.369 -0.593
1.311 -0.352 -0.586
1.292 -0.334 -0.577
0.316 -0.061 -0.140
0.296 -0.054 -0.131
0.287 -0.050 -0.127
0.289 -0.047 -0.128
0.291 -0.045 -0.129
0.299 -0.043 -0.132
0.304 -0.041 -0.135
0.292 -0.037 -0.129
0.283 -0.033 -0.125
0.295 -0.032 -0.130
0.307 -0.030 -0.136
0.305 -0.027 -0.135
0.304 -0.024 -0.134
0.300 -0.021 -0.132
0.307 -0.018 -0.136
0.302 -0.015 -0.133
0.308 -0.013 -0.136
0.306 -0.010 -0.135
0.313 -0.007 -0.138
0.311 -0.004 -0.137
0.318 -0.001 -0.140
0.308 0.002 -0.136
0.301 0.004 -0.133
0.302 0.007 -0.133
0.310 0.013 -0.137
0.309 0.030 -0.137
0.314 0.049 -0.139
0.319 0.056 -0.142
0.332 0.071 -0.148
0.335 0.075 -0.150
0.302 0.070 -0.135
0.315 0.079 -0.141
0.329 0.086 -0.148
0.332 0.090 -0.149
0.326 0.091 -0.146
0.322 0.097 -0.145
0.336 0.105 -0.152
0.327 0.108 -0.148
0.359 0.156 -0.165
0.266 0.176 -0.129
0.255 0.173 -0.124
0.267 0.184 -0.130
0.261 0.183 -0.128
0.259 0.185 -0.127
0.243 0.177 -0.120
0.247 0.183 -0.122
0.247 0.187 -0.123
0.243 0.187 -0.121
0.240 0.188 -0.120
0.240 0.192 -0.121
0.235 0.191 -0.119
0.226 0.187 -0.115
0.224 0.188 -0.114
0.221 0.189 -0.113
0.220 0.191 -0.113
0.217 0.192 -0.112
0.215 0.194 -0.112
0.212 0.195 -0.111
0.216 0.202 -0.113
0.220 0.208 -0.116
0.224 0.216 -0.118
0.226 0.222 -0.120
0.225 0.225 -0.120
0.214 0.217 -0.115
0.204 0.211 -0.110
0.199 0.220 -0.110
0.217 0.243 -0.120
0.206 0.235 -0.115
0.203 0.235 -0.114
0.204 0.240 -0.115
0.210 0.251 -0.119
0.211 0.260 -0.121
0.177 0.221 -0.102
0.182 0.231 -0.105
0.180 0.232 -0.104
0.326 -0.293 -0.163
0.327 -0.289 -0.162
0.328 -0.285 -0.162
0.332 -0.284 -0.164
0.329 -0.277 -0.162
0.331 -0.274 -0.162
0.334 -0.272 -0.163
0.332 -0.265 -0.161
0.332 -0.261 -0.160
0.320 -0.247 -0.154
0.317 -0.241 -0.152
0.319 -0.239 -0.153
0.324 -0.238 -0.154
0.327 -0.236 -0.156
0.319 -0.227 -0.151
0.318 -0.222 -0.150
0.314 -0.215 -0.148
0.214 -0.136 -0.100
0.208 -0.130 -0.096
0.209 -0.128 -0.097
0.211 -0.127 -0.097
0.305 -0.177 -0.140
0.307 -0.174 -0.141
0.308 -0.171 -0.141
0.308 -0.168 -0.140
0.310 -0.166 -0.141
0.311 -0.163 -0.141
0.312 -0.160 -0.142
0.314 -0.158 -0.142
0.319 -0.157 -0.144
0.323 -0.155 -0.145
0.327 -0.154 -0.147
0.331 -0.152 -0.149
0.334 -0.150 -0.149
0.332 -0.146 -0.149
0.361 -0.136 -0.160
0.367 -0.135 -0.162
0.375 -0.134 -0.166
0.378 -0.131 -0.167
0.382 -0.129 -0.168
1.322 -0.419 -0.581
1.311 -0.403 -0.575
1.314 -0.391 -0.576
1.302 -0.374 -0.570
1.296 -0.360 -0.567
1.282 -0.344 -0.560
1.275 -0.329 -0.556
0.312 -0.060 -0.136
0.299 -0.054 -0.130
0.277 -0.048 -0.120
0.289 -0.047 -0.125
0.290 -0.045 -0.126
0.294 -0.042 -0.127
0.304 -0.041 -0.132
0.298 -0.037 -0.129
0.291 -0.034 -0.126
0.297 -0.032 -0.128
0.303 -0.030 -0.131
0.305 -0.027 -0.132
0.305 -0.024 -0.132
0.303 -0.021 -0.131
0.289 -0.017 -0.125
0.304 -0.015 -0.131
0.309 -0.013 -0.133
0.302 -0.010 -0.130
0.304 -0.007 -0.131
0.317 -0.004 -0.137
0.322 -0.001 -0.139
0.312 0.002 -0.134
0.301 0.004 -0.130
0.295 0.007 -0.127
0.306 0.010 -0.132
0.312 0.013 -0.134
0.295 0.021 -0.127
0.302 0.024 -0.131
0.305 0.027 -0.132
0.314 0.031 -0.136
0.347 0.041 -0.150
0.312 0.051 -0.136
0.308 0.059 -0.134
0.330 0.067 -0.144
0.344 0.073 -0.150
0.333 0.074 -0.145
0.308 0.071 -0.134
0.298 0.072 -0.130
0.314 0.079 -0.138
0.317 0.083 -0.139
0.320 0.087 -0.140
0.324 0.091 -0.142
0.326 0.095 -0.143
0.336 0.101 -0.148
0.341 0.106 -0.150
0.339 0.108 -0.150
0.327 0.108 -0.145
0.321 0.109 -0.142
0.315 0.110 -0.140
0.327 0.118 -0.145
0.317 0.121 -0.141
0.351 0.152 -0.158
0.279 0.178 -0.131
0.265 0.172 -0.125
0.260 0.172 -0.123
0.257 0.173 -0.122
0.257 0.177 -0.122
0.256 0.180 -0.123
0.253 0.181 -0.122
0.246 0.179 -0.119
0.243 0.180 -0.117
0.255 0.192 -0.124
0.257 0.197 -0.125
0.251 0.200 -0.123
0.235 0.190 -0.116
0.230 0.190 -0.114
0.226 0.190 -0.113
0.222 0.189 -0.111
0.219 0.190 -0.110
0.219 0.193 -0.110
0.216 0.194 -0.109
0.212 0.194 -0.108
0.226 0.210 -0.116
0.221 0.209 -0.114
0.222 0.214 -0.115
0.224 0.219 -0.116
0.216 0.215 -0.113
0.204 0.206 -0.107
0.201 0.207 -0.106
0.207 0.228 -0.112
0.215 0.252 -0.118
0.209 0.249 -0.116
0.210 0.255 -0.117
0.206 0.254 -0.115
0.186 0.232 -0.104
0.186 0.235 -0.105
0.177 0.228 -0.101
0.327 -0.313 -0.162
0.328 -0.309 -0.162
0.329 -0.305 -0.162
0.329 -0.300 -0.161
0.328 -0.294 -0.160
0.330 -0.291 -0.160
0.332 -0.288 -0.160
0.332 -0.283 -0.160
0.333 -0.280 -0.160
0.332 -0.274 -0.158
0.329 -0.267 -0.156
0.329 -0.263 -0.156
0.320 -0.251 -0.151
0.318 -0.245 -0.150
0.316 -0.240 -0.148
0.319 -0.238 -0.149
0.323 -0.237 -0.150
0.323 -0.233 -0.150
0.319 -0.226 -0.148
0.316 -0.220 -0.146
0.311 -0.213 -0.143
0.309 -0.207 -0.141
0.221 -0.140 -0.100
0.208 -0.130 -0.094
0.209 -0.128 -0.095
0.211 -0.127 -0.095
0.302 -0.175 -0.136
0.305 -0.173 -0.136
0.306 -0.170 -0.137
0.306 -0.166 -0.136
0.305 -0.163 -0.136
0.311 -0.162 -0.138
0.312 -0.160 -0.138
0.315 -0.158 -0.139
0.317 -0.155 -0.140
0.323 -0.155 -0.142
0.326 -0.153 -0.143
0.329 -0.151 -0.144
0.333 -0.149 -0.146
0.332 -0.145 -0.145
0.315 -0.122 -0.137
0.357 -0.134 -0.154
0.363 -0.133 -0.157
0.368 -0.131 -0.159
0.377 -0.130 -0.162
0.382 -0.129 -0.164
0.388 -0.126 -0.166
0.394 -0.125 -0.169
1.301 -0.373 -0.556
1.292 -0.358 -0.552
1.278 -0.342 -0.545
1.261 -0.325 -0.537
0.353 -0.071 -0.150
0.304 -0.055 -0.129
0.299 -0.052 -0.127
0.298 -0.048 -0.126
0.298 -0.046 -0.126
0.302 -0.044 -0.128
0.305 -0.041 -0.129
0.307 -0.039 -0.130
0.293 -0.034 -0.124
0.294 -0.031 -0.124
0.303 -0.030 -0.128
0.305 -0.027 -0.129
0.310 -0.024 -0.131
0.309 -0.021 -0.130
0.302 -0.018 -0.127
0.303 -0.015 -0.127
0.304 -0.013 -0.128
0.304 -0.010 -0.128
0.305 -0.007 -0.128
0.313 -0.004 -0.132
0.317 -0.001 -0.133
0.312 0.002 -0.131
0.304 0.004 -0.128
0.296 0.007 -0.125
0.297 0.010 -0.125
0.304 0.013 -0.128
0.306 0.016 -0.129
0.320 0.019 -0.135
0.302 0.024 -0.127
0.312 0.028 -0.132
0.356 0.042 -0.150
0.297 0.040 -0.126
0.299 0.055 -0.127
0.348 0.074 -0.148
0.337 0.075 -0.144
0.301 0.069 -0.128
0.301 0.073 -0.129
0.307 0.077 -0.131
0.313 0.081 -0.134
0.320 0.086 -0.137
0.318 0.089 -0.136
0.330 0.096 -0.142
0.336 0.101 -0.144
0.341 0.105 -0.147
0.330 0.105 -0.142
0.312 0.103 -0.135
0.307 0.104 -0.133
0.306 0.110 -0.133
0.308 0.114 -0.134
0.343 0.148 -0.151
0.286 0.165 -0.130
0.271 0.160 -0.123
0.274 0.164 -0.125
0.277 0.169 -0.126
0.273 0.171 -0.125
0.270 0.172 -0.124
0.269 0.174 -0.124
0.265 0.175 -0.122
0.260 0.175 -0.121
0.259 0.178 -0.121
0.258 0.180 -0.120
0.255 0.182 -0.120
0.254 0.184 -0.119
0.248 0.183 -0.117
0.265 0.200 -0.126
0.272 0.208 -0.129
0.282 0.220 -0.135
0.258 0.204 -0.124
0.250 0.202 -0.120
0.253 0.208 -0.122
0.228 0.191 -0.111
0.224 0.191 -0.109
0.222 0.192 -0.109
0.222 0.196 -0.109
0.226 0.202 -0.112
0.226 0.206 -0.112
0.222 0.206 -0.111
0.233 0.220 -0.117
0.221 0.212 -0.111
0.215 0.210 -0.109
0.213 0.211 -0.108
0.212 0.214 -0.109
0.213 0.219 -0.110
0.332 -0.332 -0.163
0.334 -0.329 -0.163
0.334 -0.324 -0.162
0.333 -0.317 -0.161
0.334 -0.314 -0.161
0.332 -0.306 -0.159
0.329 -0.298 -0.157
0.330 -0.295 -0.157
0.329 -0.289 -0.156
0.330 -0.286 -0.156
0.333 -0.283 -0.156
0.332 -0.278 -0.155
0.328 -0.270 -0.153
0.326 -0.264 -0.151
0.322 -0.257 -0.149
0.321 -0.251 -0.148
0.319 -0.246 -0.146
0.318 -0.241 -0.146
0.317 -0.236 -0.145
0.322 -0.235 -0.146
0.322 -0.232 -0.146
0.315 -0.222 -0.142
0.312 -0.217 -0.140
0.313 -0.214 -0.140
0.311 -0.208 -0.139
0.209 -0.130 -0.092
0.210 -0.128 -0.093
0.210 -0.126 -0.092
0.294 -0.170 -0.129
0.303 -0.172 -0.133
0.304 -0.169 -0.132
0.303 -0.165 -0.132
0.305 -0.162 -0.132
0.305 -0.159 -0.132
0.309 -0.158 -0.134
0.314 -0.157 -0.135
0.317 -0.155 -0.136
0.320 -0.153 -0.138
0.324 -0.152 -0.139
0.326 -0.149 -0.139
0.328 -0.147 -0.140
0.330 -0.144 -0.141
0.296 -0.126 -0.126
0.294 -0.122 -0.125
0.352 -0.132 -0.149
0.359 -0.131 -0.152
0.367 -0.131 -0.155
0.373 -0.129 -0.157
0.383 -0.128 -0.161
0.387 -0.126 -0.162
0.394 -0.124 -0.165
0.399 -0.122 -0.167
1.307 -0.375 -0.546
1.305 -0.361 -0.544
1.291 -0.345 -0.538
1.291 -0.333 -0.537
0.366 -0.073 -0.151
0.311 -0.056 -0.128
0.299 -0.052 -0.124
0.303 -0.049 -0.125
0.302 -0.046 -0.125
0.305 -0.044 -0.126
0.308 -0.041 -0.127
0.305 -0.038 -0.126
0.287 -0.033 -0.118
0.297 -0.032 -0.123
0.310 -0.030 -0.128
0.311 -0.027 -0.128
0.307 -0.024 -0.126
0.303 -0.021 -0.125
0.303 -0.018 -0.125
0.298 -0.015 -0.123
0.305 -0.013 -0.125
0.299 -0.010 -0.123
0.302 -0.007 -0.124
0.301 -0.004 -0.124
0.310 -0.001 -0.128
0.310 0.002 -0.128
0.308 0.004 -0.127
0.302 0.007 -0.124
0.303 0.010 -0.125
0.305 0.013 -0.126
0.323 0.017 -0.133
0.336 0.020 -0.139
0.320 0.022 -0.132
0.314 0.025 -0.129
0.342 0.037 -0.141
0.331 0.039 -0.137
0.315 0.040 -0.130
0.307 0.042 -0.127
0.298 0.043 -0.123
0.304 0.047 -0.126
0.318 0.058 -0.132
0.333 0.067 -0.139
0.346 0.073 -0.144
0.309 0.068 -0.128
0.312 0.072 -0.130
0.313 0.075 -0.131
0.316 0.079 -0.132
0.311 0.081 -0.130
0.314 0.085 -0.131
0.323 0.094 -0.136
0.333 0.099 -0.140
0.330 0.102 -0.139
0.304 0.103 -0.128
0.307 0.107 -0.130
0.302 0.112 -0.128
0.347 0.150 -0.149
0.309 0.160 -0.135
0.300 0.159 -0.131
0.296 0.160 -0.130
0.280 0.155 -0.123
0.281 0.158 -0.124
0.283 0.163 -0.125
0.272 0.160 -0.120
0.270 0.162 -0.120
0.273 0.167 -0.122
0.270 0.168 -0.121
0.269 0.171 -0.121
0.273 0.177 -0.123
0.276 0.182 -0.125
0.265 0.178 -0.120
0.269 0.184 -0.122
0.264 0.184 -0.120
0.261 0.185 -0.119
0.257 0.186 -0.118
0.257 0.189 -0.118
0.263 0.197 -0.122
0.279 0.213 -0.129
0.280 0.218 -0.130
0.261 0.207 -0.122
0.260 0.210 -0.122
0.255 0.209 -0.120
0.233 0.194 -0.110
0.226 0.192 -0.107
0.224 0.194 -0.107
0.228 0.200 -0.109
0.228 0.204 -0.110
0.227 0.207 -0.110
0.227 0.213 -0.111
0.227 0.217 -0.112
0.223 0.217 -0.110
0.223 0.220 -0.111
0.217 0.219 -0.108
0.214 0.219 -0.108
0.331 -0.356 -0.162
0.331 -0.351 -0.161
0.338 -0.353 -0.164
0.339 -0.348 -0.163
0.336 -0.340 -0.161
0.334 -0.333 -0.160
0.336 -0.329 -0.160
0.335 -0.323 -0.158
0.336 -0.319 -0.158
0.334 -0.313 -0.157
0.328 -0.302 -0.153
0.326 -0.295 -0.151
0.324 -0.289 -0.150
0.324 -0.284 -0.149
0.329 -0.284 -0.151
0.323 -0.275 -0.148
0.324 -0.271 -0.148
0.327 -0.268 -0.148
0.325 -0.263 -0.147
0.322 -0.256 -0.145
0.320 -0.251 -0.144
0.320 -0.246 -0.143
0.315 -0.238 -0.140
0.314 -0.234 -0.140
0.318 -0.232 -0.141
0.316 -0.227 -0.139
0.310 -0.219 -0.137
0.310 -0.215 -0.136
0.307 -0.209 -0.134
0.309 -0.206 -0.135
0.210 -0.131 -0.091
0.207 -0.127 -0.089
0.208 -0.125 -0.089
0.292 -0.168 -0.125
0.294 -0.166 -0.125
0.298 -0.165 -0.127
0.300 -0.163 -0.127
0.302 -0.160 -0.128
0.305 -0.159 -0.129
0.309 -0.158 -0.130
0.313 -0.156 -0.132
0.317 -0.155 -0.133
0.318 -0.152 -0.133
0.321 -0.150 -0.134
0.325 -0.149 -0.136
0.329 -0.147 -0.137
0.331 -0.144 -0.138
0.298 -0.124 -0.123
0.336 -0.129 -0.139
0.354 -0.133 -0.146
0.360 -0.131 -0.148
0.367 -0.130 -0.151
0.373 -0.129 -0.153
0.374 -0.125 -0.153
0.387 -0.126 -0.158
0.392 -0.124 -0.160
0.400 -0.122 -0.163
0.402 -0.119 -0.164
1.293 -0.370 -0.527
1.303 -0.360 -0.530
1.301 -0.347 -0.529
1.315 -0.338 -0.534
0.377 -0.075 -0.152
0.311 -0.056 -0.126
0.302 -0.052 -0.122
0.304 -0.049 -0.123
0.305 -0.047 -0.123
0.299 -0.043 -0.121
0.298 -0.040 -0.120
0.301 -0.038 -0.121
0.297 -0.034 -0.120
0.291 -0.031 -0.117
0.315 -0.031 -0.127
0.310 -0.027 -0.124
0.298 -0.023 -0.120
0.296 -0.021 -0.119
0.297 -0.018 -0.119
0.296 -0.015 -0.119
0.297 -0.012 -0.119
0.299 -0.010 -0.120
0.297 -0.007 -0.119
0.299 -0.004 -0.120
0.309 -0.001 -0.124
0.309 0.002 -0.124
0.311 0.004 -0.125
0.314 0.007 -0.126
0.326 0.014 -0.131
0.327 0.017 -0.132
0.345 0.024 -0.139
0.339 0.027 -0.136
0.342 0.030 -0.138
0.336 0.033 -0.135
0.327 0.035 -0.132
0.318 0.037 -0.128
0.321 0.040 -0.129
0.306 0.044 -0.124
0.345 0.060 -0.139
0.332 0.061 -0.134
0.313 0.060 -0.127
0.316 0.064 -0.128
0.318 0.067 -0.129
0.311 0.069 -0.126
0.317 0.073 -0.129
0.325 0.078 -0.132
0.324 0.081 -0.132
0.321 0.086 -0.131
0.348 0.097 -0.142
0.353 0.102 -0.145
0.343 0.102 -0.141
0.339 0.105 -0.139
0.319 0.105 -0.131
0.300 0.108 -0.124
0.299 0.110 -0.124
0.323 0.139 -0.135
0.328 0.145 -0.138
0.319 0.144 -0.134
0.314 0.145 -0.132
0.307 0.145 -0.130
0.297 0.144 -0.126
0.291 0.144 -0.123
0.298 0.151 -0.127
0.300 0.155 -0.128
0.295 0.156 -0.126
0.291 0.157 -0.124
0.289 0.160 -0.124
0.279 0.157 -0.120
0.275 0.158 -0.118
0.276 0.162 -0.119
0.278 0.166 -0.120
0.277 0.169 -0.121
0.273 0.169 -0.119
0.272 0.172 -0.119
0.283 0.183 -0.124
0.277 0.182 -0.122
0.279 0.187 -0.123
0.271 0.185 -0.120
0.273 0.190 -0.121
0.269 0.191 -0.120
0.260 0.188 -0.116
0.258 0.189 -0.116
0.260 0.195 -0.117
0.269 0.213 -0.123
0.268 0.215 -0.123
0.255 0.209 -0.117
0.246 0.204 -0.114
0.239 0.213 -0.112
0.247 0.228 -0.117
0.231 0.221 -0.111
0.232 0.226 -0.112
0.338 -0.397 -0.166
0.330 -0.382 -0.161
0.326 -0.372 -0.158
0.334 -0.375 -0.161
0.335 -0.365 -0.160
0.332 -0.357 -0.158
0.337 -0.357 -0.160
0.341 -0.355 -0.161
0.342 -0.351 -0.160
0.335 -0.339 -0.157
0.334 -0.332 -0.155
0.334 -0.327 -0.155
0.334 -0.322 -0.154
0.329 -0.312 -0.151
0.327 -0.305 -0.149
0.325 -0.298 -0.148
0.324 -0.293 -0.147
0.323 -0.287 -0.146
0.324 -0.284 -0.146
0.324 -0.279 -0.145
0.324 -0.275 -0.145
0.322 -0.269 -0.143
0.324 -0.266 -0.144
0.324 -0.261 -0.143
0.322 -0.256 -0.142
0.321 -0.251 -0.141
0.318 -0.244 -0.139
0.316 -0.238 -0.137
0.315 -0.234 -0.137
0.314 -0.229 -0.136
0.311 -0.223 -0.134
0.310 -0.218 -0.133
0.306 -0.212 -0.131
0.306 -0.208 -0.130
0.303 -0.202 -0.129
0.297 -0.195 -0.126
0.212 -0.132 -0.089
0.208 -0.127 -0.087
0.209 -0.125 -0.088
0.211 -0.123 -0.088
0.283 -0.160 -0.118
0.257 -0.142 -0.106
0.296 -0.157 -0.122
0.305 -0.158 -0.125
0.309 -0.157 -0.127
0.313 -0.156 -0.129
0.315 -0.154 -0.129
0.319 -0.152 -0.130
0.322 -0.150 -0.131
0.326 -0.149 -0.133
0.330 -0.147 -0.134
0.332 -0.145 -0.135
0.302 -0.125 -0.122
0.322 -0.127 -0.130
0.338 -0.130 -0.136
0.353 -0.132 -0.142
0.361 -0.131 -0.145
0.368 -0.131 -0.148
0.373 -0.129 -0.149
0.379 -0.127 -0.151
0.384 -0.125 -0.153
0.392 -0.123 -0.156
0.396 -0.121 -0.158
0.400 -0.118 -0.159
0.404 -0.115 -0.160
1.291 -0.344 -0.512
0.386 -0.077 -0.152
0.307 -0.056 -0.121
0.299 -0.051 -0.118
0.302 -0.049 -0.119
0.302 -0.046 -0.119
0.294 -0.042 -0.116
0.296 -0.040 -0.116
0.304 -0.038 -0.119
0.305 -0.035 -0.119
0.308 -0.033 -0.121
0.308 -0.030 -0.121
0.298 -0.026 -0.117
0.293 -0.023 -0.115
0.296 -0.020 -0.116
0.294 -0.018 -0.115
0.294 -0.015 -0.115
0.298 -0.012 -0.117
0.301 -0.010 -0.118
0.304 -0.007 -0.119
0.310 -0.004 -0.121
0.315 -0.001 -0.123
0.323 0.002 -0.126
0.313 0.004 -0.122
0.319 0.007 -0.125
0.332 0.011 -0.130
0.327 0.014 -0.128
0.317 0.016 -0.124
0.344 0.024 -0.135
0.344 0.027 -0.135
0.327 0.029 -0.128
0.324 0.032 -0.127
0.318 0.034 -0.125
0.316 0.037 -0.124
0.319 0.040 -0.125
0.319 0.046 -0.126
0.303 0.047 -0.119
0.335 0.055 -0.132
0.344 0.059 -0.136
0.331 0.060 -0.131
0.317 0.061 -0.125
0.317 0.064 -0.125
0.316 0.067 -0.125
0.324 0.071 -0.128
0.330 0.076 -0.131
0.333 0.080 -0.132
0.332 0.083 -0.132
0.327 0.085 -0.130
0.325 0.087 -0.130
0.335 0.093 -0.134
0.337 0.104 -0.135
0.325 0.107 -0.131
0.323 0.109 -0.130
0.313 0.109 -0.126
0.304 0.109 -0.123
0.334 0.126 -0.135
0.324 0.126 -0.131
0.327 0.130 -0.133
0.330 0.135 -0.134
0.321 0.135 -0.131
0.319 0.137 -0.130
0.319 0.140 -0.130
0.316 0.143 -0.129
0.310 0.143 -0.127
0.301 0.142 -0.124
0.301 0.146 -0.124
0.302 0.149 -0.125
0.302 0.153 -0.125
0.300 0.155 -0.124
0.297 0.157 -0.124
0.292 0.158 -0.122
0.292 0.161 -0.122
0.287 0.161 -0.120
0.287 0.164 -0.120
0.282 0.165 -0.119
0.283 0.169 -0.120
0.283 0.172 -0.120
0.279 0.173 -0.118
0.279 0.177 -0.119
0.285 0.194 -0.123
0.286 0.199 -0.124
0.323 -0.401 -0.157
0.331 -0.405 -0.160
0.336 -0.405 -0.161
0.335 -0.399 -0.161
0.336 -0.394 -0.160
0.337 -0.389 -0.160
0.338 -0.385 -0.160
0.342 -0.383 -0.161
0.342 -0.378 -0.160
0.340 -0.370 -0.158
0.329 -0.353 -0.153
0.332 -0.351 -0.153
0.337 -0.350 -0.155
0.335 -0.344 -0.153
0.333 -0.336 -0.152
0.331 -0.329 -0.150
0.326 -0.318 -0.147
0.328 -0.315 -0.147
0.327 -0.310 -0.146
0.325 -0.302 -0.145
0.324 -0.297 -0.144
0.321 -0.290 -0.142
0.324 -0.288 -0.142
0.324 -0.283 -0.142
0.322 -0.277 -0.141
0.319 -0.270 -0.139
0.321 -0.267 -0.139
0.323 -0.264 -0.139
0.324 -0.261 -0.139
0.322 -0.255 -0.138
0.320 -0.249 -0.136
0.318 -0.243 -0.135
0.317 -0.239 -0.134
0.315 -0.234 -0.133
0.312 -0.227 -0.131
0.310 -0.221 -0.130
0.307 -0.216 -0.129
0.306 -0.211 -0.128
0.303 -0.206 -0.126
0.302 -0.201 -0.125
0.299 -0.196 -0.124
0.215 -0.133 -0.088
0.209 -0.127 -0.085
0.210 -0.125 -0.086
0.211 -0.123 -0.086
0.255 -0.144 -0.103
0.246 -0.136 -0.099
0.248 -0.134 -0.100
0.298 -0.155 -0.120
0.308 -0.156 -0.123
0.311 -0.155 -0.124
0.315 -0.153 -0.126
0.319 -0.152 -0.127
0.324 -0.151 -0.129
0.327 -0.149 -0.130
0.328 -0.146 -0.130
0.325 -0.141 -0.129
0.303 -0.126 -0.120
0.316 -0.125 -0.124
0.339 -0.130 -0.133
0.351 -0.131 -0.137
0.357 -0.130 -0.140
0.370 -0.131 -0.145
0.375 -0.129 -0.146
0.378 -0.126 -0.147
0.385 -0.125 -0.150
0.391 -0.123 -0.152
0.394 -0.120 -0.153
0.401 -0.118 -0.155
0.406 -0.116 -0.157
0.359 -0.072 -0.138
0.305 -0.055 -0.117
0.301 -0.052 -0.115
0.304 -0.049 -0.117
0.296 -0.045 -0.113
0.293 -0.042 -0.112
0.299 -0.040 -0.114
0.306 -0.038 -0.117
0.303 -0.035 -0.116
0.304 -0.032 -0.116
0.306 -0.030 -0.117
0.294 -0.026 -0.112
0.297 -0.023 -0.114
0.305 -0.021 -0.116
0.304 -0.018 -0.116
0.290 -0.015 -0.111
0.309 -0.013 -0.118
0.313 -0.010 -0.119
0.315 -0.007 -0.120
0.325 -0.004 -0.124
0.318 0.002 -0.122
0.317 0.004 -0.121
0.325 0.008 -0.124
0.327 0.011 -0.125
0.319 0.013 -0.122
0.307 0.016 -0.117
0.318 0.019 -0.122
0.326 0.023 -0.125
0.333 0.026 -0.127
0.324 0.029 -0.124
0.316 0.031 -0.121
0.307 0.033 -0.118
0.306 0.035 -0.117
0.318 0.040 -0.122
0.323 0.044 -0.124
0.310 0.045 -0.119
0.313 0.048 -0.120
0.313 0.051 -0.120
0.326 0.056 -0.125
0.320 0.061 -0.123
0.316 0.067 -0.122
0.325 0.071 -0.125
0.328 0.075 -0.127
0.329 0.079 -0.127
0.329 0.082 -0.128
0.331 0.086 -0.128
0.330 0.088 -0.128
0.316 0.088 -0.123
0.334 0.096 -0.130
0.336 0.100 -0.131
0.320 0.098 -0.125
0.328 0.104 -0.128
0.322 0.105 -0.126
0.320 0.108 -0.126
0.319 0.111 -0.125
0.338 0.124 -0.133
0.330 0.125 -0.130
0.330 0.128 -0.130
0.330 0.132 -0.131
0.327 0.133 -0.130
0.326 0.137 -0.129
0.322 0.138 -0.128
0.319 0.140 -0.127
0.314 0.141 -0.125
0.303 0.140 -0.121
0.307 0.145 -0.123
0.311 0.150 -0.125
0.307 0.152 -0.124
0.301 0.152 -0.122
0.301 0.155 -0.122
0.304 0.160 -0.123
0.311 0.167 -0.126
0.306 0.168 -0.125
0.292 0.167 -0.120
0.296 0.173 -0.122
0.337 -0.434 -0.161
0.341 -0.434 -0.162
0.339 -0.426 -0.161
0.332 -0.411 -0.157
0.335 -0.409 -0.158
0.336 -0.404 -0.157
0.337 -0.400 -0.157
0.336 -0.394 -0.156
0.340 -0.393 -0.157
0.342 -0.389 -0.157
0.336 -0.377 -0.154
0.339 -0.374 -0.154
0.333 -0.361 -0.151
0.329 -0.353 -0.149
0.329 -0.347 -0.148
0.330 -0.342 -0.148
0.328 -0.335 -0.146
0.331 -0.333 -0.147
0.330 -0.327 -0.146
0.326 -0.318 -0.143
0.326 -0.313 -0.143
0.325 -0.308 -0.142
0.322 -0.299 -0.140
0.315 -0.288 -0.136
0.319 -0.287 -0.137
0.322 -0.285 -0.138
0.322 -0.281 -0.137
0.318 -0.273 -0.135
0.317 -0.268 -0.134
0.319 -0.265 -0.134
0.322 -0.263 -0.135
0.323 -0.259 -0.135
0.318 -0.251 -0.133
0.314 -0.244 -0.131
0.316 -0.241 -0.131
0.316 -0.238 -0.131
0.314 -0.232 -0.129
0.310 -0.225 -0.127
0.308 -0.220 -0.126
0.306 -0.215 -0.125
0.305 -0.210 -0.124
0.302 -0.205 -0.122
0.301 -0.201 -0.122
0.297 -0.194 -0.120
0.222 -0.137 -0.089
0.210 -0.127 -0.084
0.209 -0.125 -0.083
0.210 -0.123 -0.083
0.218 -0.125 -0.086
0.252 -0.141 -0.099
0.247 -0.136 -0.097
0.246 -0.133 -0.097
0.249 -0.132 -0.098
0.306 -0.155 -0.119
0.310 -0.154 -0.121
0.314 -0.152 -0.122
0.319 -0.152 -0.124
0.322 -0.150 -0.125
0.326 -0.148 -0.126
0.328 -0.146 -0.127
0.323 -0.140 -0.124
0.296 -0.122 -0.114
0.352 -0.135 -0.135
0.354 -0.132 -0.135
0.356 -0.129 -0.136
0.366 -0.129 -0.139
0.374 -0.128 -0.142
0.376 -0.125 -0.143
0.380 -0.123 -0.144
0.390 -0.122 -0.148
0.395 -0.120 -0.149
0.400 -0.118 -0.151
0.409 -0.117 -0.155
0.423 -0.116 -0.159
0.354 -0.074 -0.132
0.356 -0.071 -0.133
0.296 -0.053 -0.111
0.299 -0.051 -0.112
0.306 -0.050 -0.114
0.291 -0.044 -0.109
0.290 -0.042 -0.108
0.300 -0.040 -0.112
0.299 -0.037 -0.112
0.297 -0.034 -0.111
0.298 -0.032 -0.111
0.300 -0.029 -0.112
0.298 -0.026 -0.111
0.297 -0.023 -0.111
0.325 -0.022 -0.121
0.314 -0.019 -0.117
0.311 -0.016 -0.116
0.330 -0.014 -0.123
0.333 -0.011 -0.124
0.329 -0.008 -0.122
0.325 -0.004 -0.121
0.313 0.001 -0.116
0.319 0.004 -0.119
0.323 0.008 -0.120
0.322 0.010 -0.120
0.315 0.013 -0.117
0.316 0.016 -0.118
0.310 0.019 -0.115
0.324 0.023 -0.121
0.326 0.026 -0.121
0.326 0.029 -0.122
0.316 0.031 -0.118
0.303 0.032 -0.113
0.310 0.036 -0.116
0.319 0.040 -0.119
0.311 0.042 -0.116
0.303 0.044 -0.113
0.300 0.046 -0.112
0.312 0.051 -0.117
0.314 0.054 -0.118
0.332 0.060 -0.125
0.331 0.063 -0.124
0.328 0.066 -0.123
0.325 0.068 -0.122
0.327 0.072 -0.123
0.328 0.075 -0.124
0.332 0.079 -0.125
0.337 0.084 -0.127
0.331 0.085 -0.125
0.321 0.086 -0.121
0.325 0.090 -0.123
0.311 0.095 -0.118
0.311 0.098 -0.118
0.323 0.106 -0.123
0.315 0.106 -0.120
0.324 0.112 -0.124
0.327 0.120 -0.126
0.328 0.124 -0.126
0.334 0.129 -0.128
0.334 0.133 -0.129
0.331 0.135 -0.128
0.329 0.138 -0.127
0.326 0.140 -0.126
0.322 0.142 -0.125
0.314 0.141 -0.122
0.312 0.144 -0.122
0.320 0.150 -0.125
0.316 0.152 -0.124
0.310 0.153 -0.122
0.301 0.152 -0.118
0.306 0.157 -0.120
0.322 0.169 -0.127
0.326 0.175 -0.129
0.328 0.180 -0.130
0.338 -0.453 -0.159
0.336 -0.445 -0.158
0.337 -0.440 -0.158
0.338 -0.436 -0.158
0.339 -0.432 -0.158
0.334 -0.419 -0.154
0.332 -0.411 -0.153
0.335 -0.408 -0.153
0.335 -0.403 -0.153
0.336 -0.399 -0.153
0.339 -0.396 -0.153
0.336 -0.387 -0.151
0.327 -0.371 -0.147
0.331 -0.370 -0.148
0.333 -0.367 -0.148
0.330 -0.357 -0.146
0.329 -0.352 -0.145
0.330 -0.347 -0.144
0.328 -0.339 -0.143
0.328 -0.334 -0.142
0.327 -0.329 -0.141
0.327 -0.323 -0.140
0.326 -0.317 -0.139
0.324 -0.310 -0.138
0.319 -0.301 -0.135
0.316 -0.293 -0.133
0.316 -0.289 -0.133
0.316 -0.284 -0.132
0.319 -0.283 -0.133
0.320 -0.279 -0.133
0.317 -0.271 -0.131
0.316 -0.266 -0.130
0.318 -0.263 -0.130
0.319 -0.260 -0.131
0.319 -0.256 -0.130
0.314 -0.248 -0.128
0.311 -0.242 -0.126
0.311 -0.237 -0.125
0.313 -0.235 -0.126
0.313 -0.231 -0.125
0.310 -0.225 -0.124
0.307 -0.218 -0.122
0.305 -0.214 -0.121
0.303 -0.209 -0.120
0.303 -0.205 -0.120
0.298 -0.198 -0.117
0.296 -0.193 -0.116
0.210 -0.127 -0.081
0.210 -0.125 -0.081
0.210 -0.122 -0.081
0.216 -0.123 -0.083
0.252 -0.142 -0.097
0.247 -0.136 -0.094
0.245 -0.132 -0.094
0.246 -0.130 -0.094
0.307 -0.156 -0.117
0.309 -0.153 -0.117
0.312 -0.151 -0.118
0.314 -0.149 -0.119
0.320 -0.149 -0.121
0.323 -0.147 -0.122
0.325 -0.144 -0.122
0.357 -0.137 -0.133
0.354 -0.132 -0.131
0.358 -0.130 -0.133
0.365 -0.129 -0.135
0.373 -0.128 -0.138
0.376 -0.125 -0.139
0.379 -0.123 -0.140
0.388 -0.122 -0.143
0.396 -0.120 -0.146
0.406 -0.119 -0.149
0.416 -0.118 -0.153
0.428 -0.118 -0.157
0.361 -0.075 -0.132
0.361 -0.072 -0.132
0.348 -0.066 -0.127
0.297 -0.054 -0.108
0.296 -0.051 -0.108
0.296 -0.048 -0.108
0.302 -0.046 -0.110
0.295 -0.042 -0.107
0.295 -0.039 -0.107
0.297 -0.037 -0.108
0.297 -0.034 -0.108
0.298 -0.032 -0.108
0.299 -0.029 -0.108
0.297 -0.026 -0.108
0.300 -0.023 -0.109
0.317 -0.022 -0.115
0.313 -0.019 -0.113
0.321 -0.016 -0.116
0.341 -0.014 -0.124
0.335 -0.011 -0.121
0.312 -0.007 -0.113
0.308 -0.004 -0.112
0.295 -0.001 -0.107
0.290 0.001 -0.105
0.312 0.004 -0.113
0.324 0.008 -0.117
0.319 0.010 -0.116
0.322 0.013 -0.117
0.327 0.017 -0.118
0.327 0.020 -0.119
0.325 0.023 -0.118
0.328 0.026 -0.119
0.324 0.028 -0.118
0.322 0.031 -0.117
0.328 0.035 -0.119
0.324 0.038 -0.118
0.319 0.040 -0.116
0.310 0.042 -0.113
0.300 0.043 -0.109
0.323 0.049 -0.118
0.308 0.050 -0.112
0.321 0.055 -0.117
0.328 0.059 -0.120
0.325 0.062 -0.119
0.319 0.064 -0.117
0.314 0.066 -0.115
0.323 0.074 -0.118
0.330 0.079 -0.121
0.331 0.082 -0.122
0.333 0.086 -0.123
0.326 0.087 -0.120
0.330 0.092 -0.122
0.326 0.093 -0.120
0.317 0.097 -0.117
0.310 0.098 -0.115
0.312 0.102 -0.116
0.331 0.111 -0.123
0.323 0.112 -0.120
0.334 0.119 -0.125
0.334 0.122 -0.125
0.324 0.122 -0.121
0.329 0.127 -0.123
0.333 0.132 -0.125
0.331 0.135 -0.124
0.331 0.138 -0.125
0.330 0.141 -0.125
0.334 0.146 -0.126
0.335 0.150 -0.127
0.334 0.153 -0.127
0.323 0.152 -0.123
0.309 0.149 -0.118
0.309 0.152 -0.118
0.332 0.181 -0.128
0.361 0.210 -0.140
0.337 -0.451 -0.155
0.337 -0.445 -0.154
0.335 -0.437 -0.153
0.336 -0.432 -0.152
0.332 -0.421 -0.150
0.330 -0.414 -0.149
0.332 -0.411 -0.149
0.335 -0.408 -0.150
0.336 -0.403 -0.149
0.335 -0.396 -0.148
0.337 -0.393 -0.148
0.326 -0.375 -0.143
0.327 -0.370 -0.142
0.330 -0.369 -0.143
0.329 -0.362 -0.142
0.327 -0.354 -0.140
0.327 -0.349 -0.140
0.328 -0.344 -0.140
0.325 -0.336 -0.138
0.323 -0.329 -0.136
0.321 -0.322 -0.135
0.323 -0.319 -0.135
0.323 -0.313 -0.134
0.321 -0.307 -0.133
0.318 -0.299 -0.131
0.316 -0.293 -0.130
0.316 -0.288 -0.129
0.317 -0.284 -0.129
0.318 -0.281 -0.129
0.317 -0.275 -0.128
0.314 -0.268 -0.126
0.314 -0.264 -0.126
0.315 -0.260 -0.126
0.315 -0.257 -0.125
0.315 -0.252 -0.125
0.313 -0.246 -0.124
0.310 -0.240 -0.122
0.309 -0.235 -0.121
0.307 -0.230 -0.120
0.310 -0.229 -0.121
0.307 -0.222 -0.119
0.306 -0.218 -0.118
0.303 -0.212 -0.117
0.302 -0.207 -0.116
0.298 -0.201 -0.114
0.295 -0.196 -0.113
0.293 -0.191 -0.112
0.286 -0.183 -0.109
0.209 -0.127 -0.079
0.208 -0.124 -0.078
0.208 -0.121 -0.078
0.214 -0.122 -0.080
0.256 -0.144 -0.096
0.246 -0.135 -0.092
0.243 -0.131 -0.091
0.244 -0.128 -0.090
0.248 -0.128 -0.092
0.307 -0.156 -0.114
0.310 -0.153 -0.114
0.311 -0.151 -0.115
0.314 -0.149 -0.115
0.319 -0.148 -0.117
0.322 -0.146 -0.118
0.325 -0.144 -0.119
0.311 -0.135 -0.114
0.298 -0.123 -0.108
0.356 -0.136 -0.129
0.350 -0.130 -0.127
0.358 -0.130 -0.129
0.364 -0.128 -0.131
0.371 -0.127 -0.134
0.375 -0.125 -0.135
0.381 -0.123 -0.137
0.387 -0.121 -0.139
0.400 -0.121 -0.143
0.414 -0.122 -0.148
0.421 -0.120 -0.151
0.433 -0.119 -0.155
0.446 -0.118 -0.159
0.452 -0.115 -0.161
0.371 -0.081 -0.132
0.372 -0.077 -0.132
0.366 -0.073 -0.130
0.364 -0.069 -0.129
0.297 -0.054 -0.105
0.292 -0.050 -0.103
0.294 -0.047 -0.104
0.295 -0.045 -0.104
0.296 -0.042 -0.105
0.298 -0.040 -0.105
0.298 -0.037 -0.105
0.302 -0.035 -0.107
0.301 -0.032 -0.106
0.305 -0.029 -0.108
0.300 -0.026 -0.106
0.303 -0.024 -0.107
0.307 -0.021 -0.108
0.313 -0.019 -0.111
0.326 -0.016 -0.115
0.335 -0.014 -0.118
0.329 -0.011 -0.116
0.307 -0.007 -0.108
0.294 -0.004 -0.104
0.291 -0.001 -0.103
0.288 0.001 -0.102
0.298 0.004 -0.105
0.317 0.007 -0.112
0.323 0.010 -0.114
0.326 0.014 -0.115
0.331 0.017 -0.117
0.338 0.020 -0.119
0.334 0.023 -0.118
0.321 0.025 -0.113
0.307 0.027 -0.109
0.318 0.031 -0.112
0.328 0.035 -0.116
0.327 0.038 -0.116
0.322 0.040 -0.114
0.324 0.043 -0.115
0.335 0.048 -0.119
0.320 0.049 -0.114
0.333 0.054 -0.118
0.333 0.057 -0.118
0.328 0.059 -0.117
0.317 0.060 -0.113
0.313 0.063 -0.112
0.316 0.066 -0.112
0.312 0.068 -0.111
0.335 0.077 -0.120
0.317 0.078 -0.113
0.320 0.082 -0.115
0.335 0.089 -0.120
0.322 0.089 -0.116
0.328 0.094 -0.118
0.335 0.103 -0.121
0.311 0.098 -0.112
0.313 0.102 -0.113
0.324 0.109 -0.117
0.340 0.118 -0.123
0.330 0.117 -0.120
0.336 0.123 -0.122
0.337 0.127 -0.123
0.322 0.124 -0.117
0.348 0.152 -0.128
0.344 0.154 -0.127
0.333 -0.445 -0.149
0.331 -0.437 -0.147
0.333 -0.433 -0.147
0.330 -0.424 -0.146
0.327 -0.414 -0.143
0.329 -0.411 -0.144
0.330 -0.407 -0.144
0.333 -0.405 -0.144
0.331 -0.397 -0.143
0.333 -0.393 -0.143
0.332 -0.387 -0.142
0.328 -0.376 -0.140
0.328 -0.371 -0.139
0.333 -0.371 -0.140
0.324 -0.355 -0.136
0.322 -0.348 -0.135
0.324 -0.345 -0.135
0.324 -0.339 -0.134
0.320 -0.330 -0.132
0.318 -0.323 -0.130
0.319 -0.319 -0.130
0.317 -0.312 -0.129
0.321 -0.311 -0.130
0.319 -0.304 -0.128
0.318 -0.298 -0.127
0.316 -0.293 -0.126
0.316 -0.287 -0.126
0.316 -0.283 -0.125
0.316 -0.279 -0.125
0.313 -0.271 -0.123
0.311 -0.266 -0.122
0.312 -0.262 -0.122
0.312 -0.258 -0.121
0.312 -0.253 -0.121
0.312 -0.249 -0.120
0.309 -0.243 -0.119
0.309 -0.239 -0.118
0.308 -0.234 -0.117
0.308 -0.230 -0.117
0.301 -0.221 -0.114
0.302 -0.218 -0.114
0.302 -0.215 -0.114
0.300 -0.210 -0.113
0.294 -0.202 -0.110
0.295 -0.199 -0.110
0.295 -0.195 -0.110
0.288 -0.187 -0.107
0.282 -0.180 -0.104
0.209 -0.126 -0.077
0.208 -0.123 -0.076
0.208 -0.121 -0.076
0.209 -0.119 -0.076
0.253 -0.142 -0.092
0.243 -0.133 -0.088
0.243 -0.131 -0.088
0.244 -0.129 -0.088
0.249 -0.128 -0.090
0.298 -0.151 -0.107
0.310 -0.153 -0.111
0.312 -0.151 -0.112
0.315 -0.149 -0.113
0.320 -0.148 -0.114
0.322 -0.146 -0.115
0.325 -0.144 -0.115
0.326 -0.141 -0.116
0.299 -0.123 -0.106
0.358 -0.130 -0.126
0.361 -0.127 -0.127
0.367 -0.126 -0.129
0.373 -0.124 -0.130
0.379 -0.122 -0.132
0.389 -0.122 -0.136
0.403 -0.122 -0.140
0.411 -0.121 -0.143
0.418 -0.119 -0.146
0.432 -0.118 -0.150
0.445 -0.118 -0.155
0.448 -0.114 -0.155
0.426 -0.105 -0.148
0.381 -0.083 -0.132
0.379 -0.079 -0.131
0.377 -0.075 -0.130
0.362 -0.069 -0.125
0.300 -0.054 -0.103
0.294 -0.050 -0.101
0.291 -0.047 -0.100
0.291 -0.044 -0.100
0.289 -0.041 -0.100
0.295 -0.039 -0.101
0.303 -0.038 -0.104
0.299 -0.034 -0.103
0.305 -0.032 -0.105
0.310 -0.030 -0.106
0.305 -0.027 -0.105
0.302 -0.024 -0.103
0.316 -0.022 -0.108
0.332 -0.020 -0.114
0.328 -0.017 -0.113
0.328 -0.014 -0.113
0.326 -0.010 -0.112
0.310 -0.007 -0.106
0.306 -0.004 -0.105
0.298 -0.001 -0.102
0.301 0.001 -0.103
0.305 0.004 -0.105
0.320 0.007 -0.110
0.330 0.011 -0.113
0.330 0.014 -0.113
0.327 0.017 -0.112
0.328 0.020 -0.113
0.335 0.023 -0.115
0.319 0.025 -0.110
0.303 0.027 -0.104
0.316 0.033 -0.109
0.313 0.036 -0.108
0.317 0.040 -0.109
0.319 0.043 -0.110
0.321 0.046 -0.111
0.319 0.049 -0.110
0.322 0.052 -0.111
0.326 0.056 -0.113
0.328 0.059 -0.113
0.325 0.062 -0.112
0.327 0.065 -0.113
0.310 0.065 -0.108
0.326 0.071 -0.113
0.315 0.072 -0.109
0.316 0.075 -0.110
0.317 0.078 -0.110
0.320 0.082 -0.112
0.325 0.087 -0.113
0.329 0.091 -0.115
0.333 0.095 -0.116
0.339 0.100 -0.119
0.336 0.103 -0.118
0.326 0.103 -0.114
0.318 0.103 -0.112
0.330 0.110 -0.116
0.328 0.113 -0.116
0.342 0.121 -0.121
0.342 0.125 -0.121
0.338 0.127 -0.120
0.324 0.125 -0.115
3.074 1.216 -1.092
0.344 0.150 -0.123
0.341 0.153 -0.122
0.325 0.174 -0.119
0.404 0.248 -0.150
0.326 -0.441 -0.142
0.331 -0.442 -0.144
0.329 -0.434 -0.142
0.326 -0.424 -0.140
0.327 -0.420 -0.140
0.326 -0.412 -0.139
0.327 -0.409 -0.139
0.331 -0.408 -0.140
0.327 -0.397 -0.138
0.325 -0.389 -0.136
0.330 -0.389 -0.138
0.332 -0.386 -0.138
0.328 -0.376 -0.136
0.330 -0.372 -0.136
0.324 -0.361 -0.133
0.321 -0.352 -0.131
0.321 -0.346 -0.130
0.322 -0.342 -0.130
0.321 -0.336 -0.129
0.320 -0.330 -0.128
0.317 -0.322 -0.126
0.314 -0.314 -0.124
0.316 -0.311 -0.125
0.316 -0.306 -0.124
0.316 -0.301 -0.123
0.316 -0.296 -0.123
0.315 -0.291 -0.122
0.315 -0.286 -0.122
0.315 -0.281 -0.121
0.311 -0.274 -0.119
0.310 -0.268 -0.118
0.309 -0.264 -0.118
0.310 -0.260 -0.117
0.308 -0.254 -0.116
0.310 -0.251 -0.116
0.310 -0.248 -0.116
0.309 -0.243 -0.115
0.306 -0.236 -0.114
0.306 -0.233 -0.113
0.305 -0.228 -0.113
0.299 -0.219 -0.110
0.297 -0.214 -0.109
0.294 -0.209 -0.108
0.290 -0.202 -0.106
0.235 -0.150 -0.085
0.230 -0.144 -0.082
0.231 -0.142 -0.082
0.211 -0.127 -0.075
0.208 -0.123 -0.074
0.209 -0.121 -0.074
0.209 -0.119 -0.074
0.221 -0.124 -0.078
0.246 -0.135 -0.087
0.243 -0.131 -0.086
0.245 -0.129 -0.086
0.249 -0.128 -0.087
0.310 -0.153 -0.108
0.313 -0.151 -0.109
0.317 -0.150 -0.110
0.319 -0.147 -0.111
0.322 -0.146 -0.112
0.325 -0.143 -0.112
0.339 -0.146 -0.117
0.299 -0.123 -0.103
0.287 -0.112 -0.098
0.355 -0.128 -0.121
0.359 -0.126 -0.122
0.363 -0.124 -0.124
0.371 -0.123 -0.126
0.383 -0.123 -0.130
0.395 -0.123 -0.134
0.405 -0.123 -0.137
0.409 -0.120 -0.139
0.415 -0.118 -0.141
0.427 -0.117 -0.144
0.440 -0.116 -0.149
0.452 -0.115 -0.152
0.393 -0.085 -0.132
0.385 -0.080 -0.129
0.375 -0.074 -0.126
0.308 -0.055 -0.103
0.299 -0.051 -0.100
0.294 -0.047 -0.099
0.294 -0.045 -0.098
0.290 -0.041 -0.097
0.293 -0.039 -0.098
0.300 -0.037 -0.100
0.300 -0.034 -0.100
0.297 -0.031 -0.099
0.304 -0.029 -0.101
0.299 -0.026 -0.100
0.303 -0.024 -0.101
0.325 -0.022 -0.108
0.337 -0.020 -0.112
0.332 -0.017 -0.111
0.317 -0.013 -0.106
0.309 -0.010 -0.103
0.315 -0.007 -0.105
0.315 -0.004 -0.105
0.313 -0.001 -0.105
