VERSION .7
FIELDS x y z
SIZE 4 4 4
TYPE F F F
COUNT 1 1 1
WIDTH     2440
HEIGHT 1
VIEWPOINT 0 0 0 1 0 0 0
POINTS     2440
DATA ascii
1.345 -0.502 -0.723
1.350 -0.490 -0.725
1.354 -0.477 -0.726
1.347 -0.462 -0.721
1.347 -0.434 -0.719
1.349 -0.421 -0.720
1.344 -0.406 -0.716
1.338 -0.391 -0.712
1.325 -0.374 -0.704
1.328 -0.362 -0.705
1.327 -0.349 -0.704
0.305 -0.056 -0.161
0.312 -0.055 -0.164
0.311 -0.051 -0.164
0.316 -0.049 -0.166
0.324 -0.047 -0.170
0.313 -0.043 -0.165
0.315 -0.040 -0.165
0.310 -0.037 -0.163
0.314 -0.034 -0.165
0.313 -0.031 -0.164
0.314 -0.028 -0.165
0.307 -0.025 -0.161
0.310 -0.022 -0.162
0.302 -0.018 -0.158
0.309 -0.016 -0.162
0.311 -0.013 -0.163
0.328 0.011 -0.172
0.322 0.017 -0.169
0.316 0.020 -0.166
0.314 0.023 -0.165
0.310 0.025 -0.162
0.301 0.027 -0.158
0.298 0.030 -0.157
0.306 0.034 -0.161
0.315 0.038 -0.165
0.322 0.042 -0.170
0.313 0.043 -0.165
0.319 0.047 -0.168
0.323 0.051 -0.170
0.333 0.056 -0.176
0.334 0.059 -0.176
0.324 0.061 -0.171
0.342 0.074 -0.181
0.320 0.072 -0.170
0.167 -0.114 -0.094
0.208 -0.138 -0.116
0.208 -0.135 -0.116
0.209 -0.133 -0.116
0.210 -0.131 -0.116
1.461 -0.828 -0.798
1.437 -0.781 -0.781
1.455 -0.775 -0.789
1.355 -0.504 -0.714
1.360 -0.493 -0.716
1.366 -0.481 -0.717
1.359 -0.464 -0.713
1.334 -0.443 -0.699
1.336 -0.430 -0.699
1.343 -0.418 -0.702
1.330 -0.401 -0.694
1.323 -0.386 -0.690
1.324 -0.373 -0.689
1.324 -0.360 -0.689
1.315 -0.345 -0.683
1.313 -0.331 -0.681
0.304 -0.056 -0.157
0.319 -0.056 -0.164
0.321 -0.053 -0.165
0.326 -0.051 -0.168
0.319 -0.047 -0.164
0.316 -0.043 -0.163
0.306 -0.039 -0.157
0.319 -0.038 -0.164
0.312 -0.034 -0.161
0.303 -0.027 -0.156
0.311 -0.025 -0.160
0.314 -0.022 -0.161
0.314 -0.019 -0.161
0.303 -0.016 -0.155
0.318 -0.013 -0.163
0.350 0.008 -0.180
0.328 0.017 -0.168
0.312 0.019 -0.160
0.309 0.022 -0.159
0.311 0.025 -0.160
0.314 0.028 -0.162
0.306 0.031 -0.158
0.311 0.034 -0.160
0.319 0.038 -0.164
0.323 0.042 -0.166
0.316 0.047 -0.163
0.317 0.050 -0.164
0.331 0.055 -0.171
0.341 0.060 -0.176
0.322 0.076 -0.167
0.312 0.077 -0.162
0.296 0.075 -0.154
0.361 0.151 -0.193
0.180 0.218 -0.119
0.231 -0.164 -0.128
0.211 -0.139 -0.115
0.208 -0.135 -0.113
0.209 -0.133 -0.113
0.210 -0.131 -0.114
0.209 -0.127 -0.113
0.315 -0.160 -0.167
0.321 -0.160 -0.169
0.324 -0.158 -0.170
0.327 -0.156 -0.172
0.332 -0.154 -0.174
0.350 -0.159 -0.183
0.339 -0.151 -0.177
1.402 -0.593 -0.729
1.361 -0.492 -0.701
1.373 -0.482 -0.706
1.361 -0.464 -0.699
1.329 -0.427 -0.681
1.341 -0.417 -0.686
1.340 -0.404 -0.685
1.336 -0.389 -0.682
1.326 -0.373 -0.676
1.318 -0.358 -0.671
1.319 -0.345 -0.671
1.318 -0.332 -0.670
0.315 -0.055 -0.159
0.317 -0.052 -0.160
0.318 -0.049 -0.160
0.313 -0.046 -0.158
0.305 -0.042 -0.154
0.307 -0.039 -0.155
0.310 -0.036 -0.156
0.316 -0.034 -0.159
0.301 -0.030 -0.151
0.303 -0.027 -0.152
0.312 -0.025 -0.157
0.316 -0.022 -0.159
0.317 -0.019 -0.159
0.312 -0.016 -0.157
0.317 -0.013 -0.159
0.326 -0.011 -0.164
0.327 0.017 -0.165
0.314 0.019 -0.158
0.308 0.022 -0.155
0.310 0.025 -0.156
0.313 0.028 -0.158
0.314 0.031 -0.158
0.311 0.034 -0.157
0.313 0.037 -0.158
0.324 0.042 -0.164
0.319 0.044 -0.161
0.309 0.046 -0.156
0.316 0.050 -0.160
0.333 0.056 -0.169
0.335 0.062 -0.170
0.343 0.067 -0.174
0.330 0.074 -0.168
0.354 0.148 -0.185
0.198 0.225 -0.126
0.187 0.217 -0.120
0.186 0.219 -0.119
0.183 0.219 -0.118
0.181 0.220 -0.117
0.187 0.231 -0.122
0.196 0.245 -0.128
0.211 -0.138 -0.113
0.208 -0.134 -0.111
0.209 -0.132 -0.111
0.210 -0.130 -0.111
0.215 -0.131 -0.113
0.309 -0.174 -0.162
0.319 -0.176 -0.166
0.323 -0.175 -0.168
0.323 -0.171 -0.168
0.327 -0.170 -0.169
0.324 -0.165 -0.168
0.321 -0.160 -0.166
0.327 -0.159 -0.168
0.329 -0.156 -0.169
0.334 -0.155 -0.171
0.338 -0.153 -0.173
0.341 -0.151 -0.174
1.372 -0.509 -0.693
1.363 -0.492 -0.688
1.351 -0.473 -0.681
1.342 -0.457 -0.675
1.329 -0.439 -0.668
1.327 -0.425 -0.666
1.334 -0.414 -0.669
1.334 -0.401 -0.668
1.326 -0.385 -0.663
1.319 -0.370 -0.659
1.317 -0.357 -0.657
1.324 -0.346 -0.660
0.306 -0.053 -0.151
0.312 -0.051 -0.154
0.309 -0.048 -0.153
0.300 -0.044 -0.148
0.294 -0.040 -0.145
0.293 -0.037 -0.145
0.317 -0.037 -0.157
0.303 -0.033 -0.149
0.298 -0.029 -0.147
0.300 -0.027 -0.148
0.312 -0.025 -0.154
0.315 -0.022 -0.155
0.306 -0.019 -0.151
0.317 -0.016 -0.156
0.311 -0.013 -0.153
0.305 -0.010 -0.150
0.309 -0.004 -0.152
0.311 -0.001 -0.153
0.311 0.013 -0.153
0.318 0.017 -0.157
0.315 0.019 -0.155
0.309 0.022 -0.152
0.305 0.025 -0.150
0.319 0.029 -0.157
0.320 0.032 -0.158
0.313 0.034 -0.154
0.317 0.038 -0.157
0.320 0.041 -0.158
0.315 0.043 -0.156
0.309 0.046 -0.153
0.319 0.050 -0.158
0.323 0.054 -0.160
0.324 0.057 -0.161
0.325 0.073 -0.162
0.323 0.088 -0.162
0.337 0.096 -0.169
0.196 0.195 -0.117
0.207 0.217 -0.126
0.210 0.235 -0.130
0.200 0.227 -0.124
0.191 0.220 -0.119
0.184 0.216 -0.116
0.185 0.220 -0.117
0.186 0.225 -0.118
0.193 0.236 -0.123
0.192 0.239 -0.123
1.543 -1.403 -0.864
0.209 -0.137 -0.109
0.208 -0.134 -0.109
0.209 -0.132 -0.109
0.210 -0.130 -0.109
0.316 -0.189 -0.163
0.320 -0.187 -0.164
0.323 -0.185 -0.166
0.314 -0.176 -0.161
0.319 -0.176 -0.163
0.323 -0.174 -0.165
0.324 -0.171 -0.165
0.324 -0.168 -0.164
0.327 -0.166 -0.165
0.322 -0.160 -0.163
0.325 -0.157 -0.164
0.330 -0.157 -0.166
0.335 -0.155 -0.168
0.337 -0.153 -0.169
0.340 -0.150 -0.170
0.249 -0.100 -0.124
0.254 -0.099 -0.126
1.377 -0.509 -0.681
1.343 -0.483 -0.663
1.338 -0.468 -0.660
1.332 -0.452 -0.656
1.336 -0.441 -0.657
1.340 -0.429 -0.658
1.331 -0.412 -0.653
1.328 -0.398 -0.651
1.319 -0.383 -0.646
1.311 -0.367 -0.641
1.311 -0.355 -0.640
1.328 -0.346 -0.648
0.289 -0.053 -0.140
0.303 -0.053 -0.147
0.311 -0.051 -0.151
0.306 -0.047 -0.148
0.296 -0.043 -0.143
0.282 -0.038 -0.136
0.286 -0.036 -0.138
0.296 -0.035 -0.143
0.311 -0.033 -0.150
0.289 -0.028 -0.140
0.293 -0.026 -0.142
0.306 -0.024 -0.148
0.309 -0.022 -0.149
0.306 -0.018 -0.147
0.298 -0.015 -0.144
0.310 -0.013 -0.150
0.306 -0.010 -0.148
0.302 -0.007 -0.146
0.324 -0.001 -0.156
0.346 0.008 -0.167
0.331 0.011 -0.160
0.308 0.013 -0.149
0.303 0.016 -0.146
0.310 0.019 -0.149
0.328 0.030 -0.159
0.331 0.033 -0.160
0.321 0.035 -0.155
0.320 0.038 -0.155
0.332 0.042 -0.161
0.320 0.044 -0.155
0.322 0.047 -0.156
0.319 0.050 -0.155
0.326 0.064 -0.159
0.312 0.064 -0.152
0.327 0.089 -0.160
0.329 0.093 -0.162
0.324 0.095 -0.159
0.321 0.107 -0.159
0.344 0.147 -0.173
0.218 0.210 -0.126
0.208 0.203 -0.121
0.206 0.204 -0.120
0.215 0.217 -0.126
0.204 0.209 -0.120
0.201 0.210 -0.119
0.201 0.224 -0.122
0.200 0.227 -0.122
0.194 0.223 -0.119
0.190 0.222 -0.117
0.185 0.220 -0.115
0.191 0.231 -0.119
0.193 0.237 -0.120
0.192 0.239 -0.120
0.187 0.236 -0.118
0.189 0.242 -0.119
0.210 -0.137 -0.107
0.209 -0.134 -0.107
0.209 -0.132 -0.106
0.210 -0.130 -0.107
0.220 -0.134 -0.111
0.314 -0.187 -0.159
0.317 -0.185 -0.160
0.316 -0.181 -0.159
0.313 -0.176 -0.157
0.316 -0.174 -0.158
0.322 -0.173 -0.161
0.321 -0.169 -0.160
0.321 -0.166 -0.160
0.321 -0.162 -0.159
0.321 -0.159 -0.159
0.323 -0.156 -0.159
0.328 -0.155 -0.161
0.332 -0.154 -0.163
0.335 -0.152 -0.164
0.338 -0.149 -0.166
1.361 -0.503 -0.659
1.335 -0.479 -0.645
1.329 -0.464 -0.642
1.337 -0.453 -0.644
1.339 -0.441 -0.644
1.347 -0.430 -0.647
1.360 -0.421 -0.653
1.325 -0.397 -0.635
1.320 -0.382 -0.632
1.312 -0.367 -0.628
1.320 -0.356 -0.631
1.324 -0.344 -0.632
0.288 -0.053 -0.137
0.298 -0.052 -0.141
0.318 -0.052 -0.151
0.320 -0.050 -0.152
0.297 -0.043 -0.141
0.285 -0.039 -0.135
0.285 -0.036 -0.135
0.291 -0.034 -0.137
0.296 -0.032 -0.140
0.301 -0.030 -0.142
0.291 -0.026 -0.137
0.303 -0.024 -0.143
0.303 -0.021 -0.143
0.294 -0.018 -0.139
0.300 -0.015 -0.141
0.313 -0.013 -0.147
0.314 -0.010 -0.148
0.307 -0.007 -0.145
0.314 -0.004 -0.148
0.323 -0.001 -0.152
0.323 0.002 -0.153
0.342 0.008 -0.161
0.299 0.016 -0.141
0.332 0.033 -0.157
0.334 0.043 -0.158
0.341 0.047 -0.162
0.321 0.050 -0.152
0.312 0.055 -0.148
0.326 0.063 -0.155
0.320 0.087 -0.154
0.316 0.089 -0.152
0.320 0.094 -0.154
0.327 0.099 -0.158
0.325 0.105 -0.157
0.352 0.150 -0.173
0.220 0.193 -0.121
0.217 0.194 -0.120
0.221 0.201 -0.123
0.229 0.212 -0.128
0.220 0.207 -0.124
0.218 0.209 -0.123
0.214 0.209 -0.122
0.215 0.213 -0.123
0.208 0.210 -0.119
0.204 0.209 -0.118
0.202 0.210 -0.117
0.202 0.214 -0.118
0.203 0.218 -0.119
0.201 0.220 -0.118
0.200 0.223 -0.119
0.203 0.229 -0.121
0.184 0.219 -0.111
0.183 0.220 -0.111
0.196 0.240 -0.120
0.193 0.240 -0.119
0.189 0.238 -0.116
0.186 0.237 -0.115
0.314 -0.224 -0.159
0.314 -0.221 -0.159
0.309 -0.213 -0.156
0.213 -0.139 -0.107
0.209 -0.134 -0.104
0.209 -0.132 -0.104
0.210 -0.130 -0.104
0.216 -0.131 -0.107
0.304 -0.181 -0.150
0.312 -0.182 -0.153
0.311 -0.178 -0.153
0.312 -0.175 -0.153
0.316 -0.173 -0.154
0.317 -0.171 -0.155
0.320 -0.168 -0.156
0.318 -0.164 -0.155
0.318 -0.160 -0.154
0.320 -0.158 -0.155
0.322 -0.156 -0.155
0.326 -0.154 -0.157
0.332 -0.153 -0.159
0.335 -0.151 -0.161
0.335 -0.148 -0.160
1.344 -0.482 -0.635
1.328 -0.463 -0.627
1.336 -0.452 -0.630
1.346 -0.442 -0.634
1.345 -0.429 -0.633
1.345 -0.415 -0.632
1.322 -0.395 -0.620
1.318 -0.381 -0.618
1.326 -0.370 -0.621
1.324 -0.357 -0.619
1.319 -0.343 -0.616
0.290 -0.053 -0.135
0.292 -0.051 -0.136
0.303 -0.050 -0.141
0.305 -0.044 -0.141
0.296 -0.040 -0.137
0.298 -0.038 -0.138
0.290 -0.034 -0.134
0.293 -0.031 -0.135
0.290 -0.028 -0.134
0.304 -0.027 -0.141
0.301 -0.024 -0.139
0.300 -0.021 -0.139
0.295 -0.018 -0.136
0.304 -0.015 -0.140
0.312 -0.013 -0.144
0.311 -0.010 -0.144
0.305 -0.007 -0.141
0.309 -0.004 -0.143
0.314 -0.001 -0.145
0.314 0.002 -0.145
0.340 0.008 -0.157
0.310 0.034 -0.144
0.321 0.047 -0.149
0.329 0.064 -0.153
0.337 0.069 -0.157
0.308 0.066 -0.144
0.345 0.087 -0.162
0.339 0.089 -0.159
0.319 0.087 -0.150
0.308 0.087 -0.145
0.311 0.091 -0.146
0.349 0.109 -0.165
0.331 0.110 -0.157
0.317 0.109 -0.150
0.353 0.150 -0.170
0.363 0.158 -0.175
0.244 0.199 -0.129
0.231 0.192 -0.123
0.224 0.189 -0.119
0.222 0.191 -0.119
0.220 0.193 -0.119
0.221 0.196 -0.119
0.220 0.200 -0.120
0.221 0.204 -0.121
0.224 0.210 -0.123
0.219 0.209 -0.121
0.219 0.213 -0.122
0.212 0.209 -0.118
0.211 0.212 -0.118
0.211 0.216 -0.119
0.210 0.218 -0.119
0.209 0.221 -0.119
0.211 0.226 -0.121
0.215 0.235 -0.124
0.224 0.252 -0.130
0.214 0.249 -0.126
0.191 0.233 -0.114
0.195 0.242 -0.117
0.187 0.235 -0.112
0.185 0.235 -0.112
0.184 0.238 -0.112
0.318 -0.251 -0.161
0.318 -0.247 -0.161
0.329 -0.252 -0.166
0.331 -0.248 -0.166
0.335 -0.247 -0.167
0.324 -0.235 -0.161
0.319 -0.228 -0.159
0.316 -0.221 -0.156
0.311 -0.214 -0.154
0.209 -0.134 -0.102
0.209 -0.131 -0.102
0.210 -0.129 -0.102
0.213 -0.129 -0.103
0.307 -0.178 -0.148
0.309 -0.176 -0.148
0.310 -0.173 -0.149
0.313 -0.171 -0.149
0.316 -0.170 -0.151
0.316 -0.166 -0.150
0.315 -0.162 -0.149
0.318 -0.160 -0.150
0.319 -0.157 -0.151
0.322 -0.155 -0.152
0.324 -0.153 -0.153
0.332 -0.153 -0.156
0.334 -0.150 -0.157
0.337 -0.148 -0.158
0.366 -0.138 -0.170
0.369 -0.136 -0.171
0.371 -0.133 -0.171
1.345 -0.441 -0.619
1.350 -0.429 -0.621
1.336 -0.412 -0.614
1.324 -0.395 -0.608
1.324 -0.382 -0.607
1.326 -0.370 -0.607
1.327 -0.357 -0.607
1.324 -0.343 -0.605
0.351 -0.067 -0.159
0.301 -0.055 -0.137
0.295 -0.051 -0.134
0.300 -0.049 -0.136
0.306 -0.047 -0.139
0.299 -0.043 -0.135
0.302 -0.041 -0.137
0.308 -0.039 -0.140
0.302 -0.035 -0.137
0.294 -0.031 -0.133
0.299 -0.029 -0.135
0.304 -0.027 -0.137
0.311 -0.025 -0.140
0.310 -0.022 -0.140
0.302 -0.018 -0.136
0.307 -0.016 -0.139
0.309 -0.013 -0.139
0.297 -0.010 -0.134
0.302 -0.007 -0.136
0.306 -0.004 -0.138
0.301 -0.001 -0.136
0.301 0.002 -0.136
0.320 0.008 -0.145
0.347 0.015 -0.157
0.313 0.022 -0.141
0.309 0.033 -0.140
0.337 0.056 -0.153
0.314 0.058 -0.143
0.330 0.067 -0.150
0.321 0.068 -0.146
0.312 0.070 -0.143
0.323 0.075 -0.148
0.315 0.076 -0.144
0.312 0.079 -0.143
0.321 0.084 -0.147
0.321 0.087 -0.147
0.311 0.088 -0.143
0.326 0.095 -0.150
0.337 0.102 -0.155
0.341 0.110 -0.158
0.330 0.110 -0.153
0.320 0.119 -0.149
0.358 0.152 -0.168
0.358 0.156 -0.168
0.257 0.191 -0.130
0.255 0.193 -0.130
0.246 0.190 -0.126
0.248 0.195 -0.127
0.241 0.193 -0.124
0.234 0.190 -0.121
0.227 0.188 -0.118
0.223 0.188 -0.116
0.223 0.191 -0.117
0.222 0.193 -0.117
0.221 0.196 -0.117
0.218 0.197 -0.116
0.219 0.201 -0.117
0.223 0.208 -0.119
0.226 0.215 -0.122
0.216 0.209 -0.117
0.222 0.219 -0.121
0.220 0.220 -0.120
0.217 0.221 -0.120
0.221 0.229 -0.122
0.219 0.231 -0.122
0.223 0.247 -0.126
0.218 0.246 -0.124
0.210 0.240 -0.120
0.206 0.239 -0.118
0.211 0.248 -0.122
0.200 0.243 -0.117
0.197 0.243 -0.115
0.189 0.237 -0.111
0.180 0.229 -0.106
0.189 0.244 -0.112
0.325 -0.270 -0.163
0.333 -0.272 -0.166
0.333 -0.267 -0.166
0.331 -0.261 -0.164
0.330 -0.256 -0.163
0.324 -0.247 -0.159
0.331 -0.248 -0.162
0.325 -0.239 -0.159
0.329 -0.238 -0.160
0.321 -0.228 -0.156
0.316 -0.221 -0.153
0.313 -0.215 -0.151
0.210 -0.134 -0.100
0.210 -0.132 -0.100
0.209 -0.129 -0.099
0.213 -0.129 -0.101
0.305 -0.177 -0.143
0.309 -0.176 -0.145
0.310 -0.173 -0.145
0.310 -0.169 -0.145
0.309 -0.165 -0.144
0.312 -0.163 -0.145
0.316 -0.162 -0.146
0.316 -0.159 -0.146
0.319 -0.157 -0.148
0.322 -0.155 -0.148
0.326 -0.154 -0.150
0.328 -0.151 -0.151
0.333 -0.150 -0.153
0.335 -0.147 -0.153
0.291 -0.116 -0.132
0.292 -0.113 -0.133
0.359 -0.135 -0.163
0.364 -0.134 -0.165
0.371 -0.133 -0.168
0.377 -0.131 -0.170
1.343 -0.440 -0.605
1.351 -0.429 -0.607
1.337 -0.411 -0.600
1.335 -0.397 -0.599
1.323 -0.381 -0.593
1.327 -0.369 -0.594
1.322 -0.355 -0.591
1.330 -0.344 -0.594
0.301 -0.052 -0.134
0.300 -0.049 -0.133
0.300 -0.046 -0.133
0.297 -0.043 -0.131
0.298 -0.040 -0.132
0.316 -0.040 -0.140
0.308 -0.036 -0.136
0.305 -0.033 -0.135
0.312 -0.030 -0.138
0.316 -0.028 -0.139
0.319 -0.025 -0.141
0.317 -0.022 -0.140
0.310 -0.019 -0.137
0.311 -0.016 -0.137
0.306 -0.013 -0.135
0.294 -0.009 -0.130
0.303 -0.007 -0.134
0.306 -0.004 -0.135
0.299 -0.001 -0.132
0.301 0.002 -0.133
0.300 0.004 -0.132
0.320 0.008 -0.141
0.332 0.011 -0.147
0.327 0.017 -0.144
0.309 0.019 -0.137
0.311 0.025 -0.138
0.321 0.041 -0.142
0.334 0.045 -0.148
0.342 0.050 -0.152
0.347 0.054 -0.154
0.312 0.057 -0.139
0.320 0.068 -0.143
0.322 0.075 -0.144
0.318 0.077 -0.142
0.306 0.077 -0.137
0.326 0.085 -0.146
0.314 0.085 -0.141
0.323 0.094 -0.146
0.327 0.098 -0.147
0.316 0.098 -0.142
0.310 0.103 -0.140
0.299 0.102 -0.136
0.326 0.114 -0.148
0.318 0.115 -0.145
0.354 0.154 -0.163
0.281 0.186 -0.136
0.269 0.182 -0.131
0.268 0.185 -0.131
0.257 0.181 -0.126
0.256 0.184 -0.126
0.252 0.184 -0.124
0.253 0.188 -0.125
0.251 0.190 -0.125
0.249 0.192 -0.124
0.244 0.191 -0.122
0.239 0.191 -0.120
0.237 0.193 -0.120
0.233 0.192 -0.118
0.223 0.187 -0.114
0.222 0.190 -0.114
0.222 0.193 -0.114
0.217 0.192 -0.112
0.218 0.196 -0.113
0.220 0.201 -0.114
0.225 0.210 -0.118
0.227 0.215 -0.119
0.229 0.225 -0.122
0.224 0.224 -0.120
0.218 0.222 -0.117
0.222 0.230 -0.120
0.223 0.242 -0.122
0.221 0.244 -0.122
0.226 0.254 -0.126
0.222 0.253 -0.124
0.212 0.245 -0.119
0.204 0.240 -0.115
0.210 0.251 -0.119
0.221 0.272 -0.126
0.179 0.224 -0.103
0.178 0.226 -0.103
0.328 -0.285 -0.162
0.335 -0.287 -0.165
0.332 -0.279 -0.163
0.333 -0.276 -0.163
0.334 -0.272 -0.163
0.334 -0.267 -0.162
0.333 -0.262 -0.161
0.328 -0.254 -0.158
0.322 -0.245 -0.155
0.319 -0.238 -0.153
0.322 -0.237 -0.153
0.324 -0.234 -0.154
0.321 -0.228 -0.152
0.317 -0.221 -0.149
0.313 -0.215 -0.148
0.212 -0.135 -0.099
0.208 -0.130 -0.096
0.208 -0.127 -0.096
0.209 -0.126 -0.096
0.305 -0.177 -0.140
0.308 -0.175 -0.141
0.309 -0.172 -0.141
0.306 -0.167 -0.140
0.307 -0.164 -0.140
0.312 -0.163 -0.142
0.314 -0.161 -0.142
0.317 -0.159 -0.143
0.319 -0.157 -0.144
0.323 -0.155 -0.145
0.326 -0.153 -0.146
0.329 -0.151 -0.147
0.329 -0.148 -0.147
0.332 -0.146 -0.149
0.357 -0.134 -0.158
0.362 -0.133 -0.160
0.367 -0.131 -0.162
0.376 -0.130 -0.166
0.381 -0.128 -0.168
1.330 -0.422 -0.584
1.341 -0.412 -0.588
1.333 -0.396 -0.584
1.323 -0.380 -0.579
1.314 -0.365 -0.575
1.331 -0.357 -0.581
1.332 -0.344 -0.581
0.349 -0.067 -0.151
0.296 -0.051 -0.128
0.298 -0.049 -0.129
0.297 -0.046 -0.128
0.296 -0.043 -0.128
0.301 -0.041 -0.130
0.304 -0.038 -0.132
0.310 -0.036 -0.134
0.318 -0.034 -0.137
0.319 -0.031 -0.138
0.325 -0.029 -0.140
0.324 -0.026 -0.140
0.316 -0.022 -0.136
0.312 -0.019 -0.134
0.315 -0.016 -0.136
0.313 -0.013 -0.135
0.305 -0.010 -0.132
0.310 -0.007 -0.133
0.308 -0.004 -0.133
0.305 -0.001 -0.132
0.305 0.002 -0.132
0.306 0.004 -0.132
0.299 0.007 -0.129
0.308 0.010 -0.133
0.333 0.017 -0.144
0.321 0.020 -0.139
0.311 0.022 -0.134
0.314 0.025 -0.136
0.331 0.042 -0.143
0.328 0.048 -0.142
0.295 0.051 -0.128
0.310 0.057 -0.135
0.322 0.062 -0.140
0.315 0.064 -0.137
0.317 0.067 -0.138
0.320 0.071 -0.140
0.317 0.076 -0.139
0.310 0.078 -0.136
0.306 0.080 -0.134
0.334 0.090 -0.147
0.321 0.090 -0.141
0.318 0.092 -0.140
0.319 0.096 -0.141
0.300 0.099 -0.132
0.301 0.102 -0.133
0.317 0.111 -0.140
0.329 0.119 -0.146
0.280 0.175 -0.131
0.270 0.172 -0.127
0.266 0.173 -0.125
0.273 0.181 -0.129
0.264 0.178 -0.125
0.257 0.177 -0.123
0.253 0.177 -0.121
0.250 0.179 -0.120
0.251 0.183 -0.121
0.248 0.184 -0.120
0.251 0.189 -0.122
0.269 0.206 -0.131
0.274 0.214 -0.134
0.251 0.200 -0.123
0.244 0.197 -0.120
0.239 0.197 -0.118
0.224 0.188 -0.111
0.221 0.189 -0.111
0.221 0.192 -0.111
0.220 0.195 -0.111
0.223 0.200 -0.113
0.221 0.202 -0.113
0.228 0.212 -0.116
0.233 0.220 -0.120
0.224 0.216 -0.116
0.225 0.221 -0.117
0.222 0.221 -0.116
0.217 0.219 -0.114
0.224 0.231 -0.118
0.222 0.233 -0.118
0.221 0.239 -0.118
0.228 0.251 -0.123
0.229 0.256 -0.124
0.219 0.257 -0.121
0.220 0.263 -0.122
0.229 0.278 -0.128
0.223 0.274 -0.125
0.207 0.266 -0.117
0.315 -0.301 -0.156
0.327 -0.308 -0.161
0.330 -0.306 -0.162
0.333 -0.303 -0.163
0.327 -0.293 -0.159
0.329 -0.290 -0.160
0.331 -0.287 -0.160
0.333 -0.284 -0.160
0.335 -0.281 -0.160
0.329 -0.272 -0.157
0.331 -0.269 -0.157
0.329 -0.262 -0.156
0.328 -0.258 -0.155
0.322 -0.249 -0.151
0.320 -0.243 -0.150
0.319 -0.238 -0.149
0.319 -0.234 -0.149
0.321 -0.232 -0.149
0.319 -0.226 -0.147
0.316 -0.220 -0.146
0.313 -0.214 -0.144
0.306 -0.206 -0.140
0.215 -0.136 -0.098
0.208 -0.130 -0.094
0.209 -0.128 -0.094
0.208 -0.125 -0.094
0.304 -0.176 -0.136
0.304 -0.172 -0.136
0.305 -0.170 -0.136
0.305 -0.166 -0.136
0.308 -0.164 -0.137
0.309 -0.161 -0.137
0.314 -0.161 -0.139
0.316 -0.158 -0.139
0.318 -0.156 -0.140
0.322 -0.155 -0.142
0.325 -0.152 -0.143
0.326 -0.150 -0.143
0.328 -0.147 -0.143
0.329 -0.144 -0.144
0.345 -0.144 -0.150
0.360 -0.136 -0.156
0.363 -0.133 -0.157
0.368 -0.131 -0.159
0.375 -0.130 -0.162
0.381 -0.128 -0.164
0.384 -0.125 -0.165
1.333 -0.409 -0.571
1.333 -0.396 -0.571
1.315 -0.378 -0.562
1.322 -0.367 -0.565
1.323 -0.354 -0.564
1.322 -0.341 -0.564
0.359 -0.072 -0.152
0.352 -0.067 -0.149
0.281 -0.048 -0.119
0.291 -0.047 -0.123
0.298 -0.046 -0.126
0.297 -0.043 -0.125
0.297 -0.040 -0.125
0.293 -0.037 -0.124
0.302 -0.035 -0.127
0.312 -0.033 -0.132
0.318 -0.031 -0.134
0.315 -0.028 -0.133
0.324 -0.026 -0.137
0.307 -0.021 -0.129
0.307 -0.018 -0.129
0.314 -0.016 -0.132
0.309 -0.013 -0.130
0.304 -0.010 -0.128
0.306 -0.007 -0.129
0.311 -0.004 -0.131
0.311 -0.001 -0.131
0.320 0.002 -0.135
0.312 0.004 -0.131
0.301 0.007 -0.127
0.304 0.010 -0.128
0.318 0.013 -0.134
0.336 0.017 -0.142
0.342 0.021 -0.144
0.337 0.030 -0.142
0.311 0.031 -0.131
0.321 0.035 -0.136
0.317 0.037 -0.134
0.311 0.045 -0.132
0.311 0.051 -0.132
0.322 0.056 -0.137
0.326 0.060 -0.138
0.328 0.063 -0.139
0.315 0.064 -0.134
0.321 0.071 -0.137
0.329 0.076 -0.140
0.328 0.079 -0.140
0.307 0.077 -0.131
0.308 0.080 -0.132
0.338 0.091 -0.145
0.350 0.098 -0.150
0.316 0.092 -0.136
0.314 0.094 -0.135
0.321 0.109 -0.139
0.341 0.123 -0.148
0.342 0.126 -0.149
0.339 0.147 -0.149
0.350 0.155 -0.154
0.295 0.163 -0.133
0.293 0.166 -0.132
0.292 0.168 -0.132
0.285 0.167 -0.129
0.285 0.171 -0.130
0.281 0.172 -0.128
0.274 0.171 -0.126
0.267 0.170 -0.123
0.268 0.174 -0.123
0.267 0.177 -0.124
0.264 0.178 -0.122
0.263 0.180 -0.122
0.260 0.182 -0.122
0.251 0.179 -0.118
0.252 0.183 -0.119
0.249 0.184 -0.117
0.270 0.203 -0.128
0.278 0.212 -0.132
0.284 0.221 -0.135
0.248 0.200 -0.119
0.244 0.200 -0.118
0.234 0.196 -0.114
0.224 0.191 -0.109
0.224 0.194 -0.110
0.226 0.199 -0.111
0.228 0.205 -0.113
0.229 0.209 -0.114
0.228 0.211 -0.114
0.218 0.205 -0.109
0.225 0.216 -0.113
0.223 0.218 -0.113
0.218 0.216 -0.111
0.218 0.220 -0.111
0.223 0.229 -0.115
0.234 0.244 -0.121
0.230 0.257 -0.122
0.224 0.254 -0.119
0.225 0.260 -0.121
0.228 0.267 -0.122
0.316 -0.326 -0.156
0.330 -0.335 -0.162
0.331 -0.331 -0.162
0.325 -0.320 -0.159
0.324 -0.314 -0.157
0.328 -0.312 -0.158
0.326 -0.306 -0.157
0.331 -0.306 -0.159
0.332 -0.301 -0.158
0.333 -0.298 -0.158
0.331 -0.291 -0.156
0.329 -0.285 -0.155
0.328 -0.279 -0.154
0.326 -0.273 -0.153
0.328 -0.270 -0.153
0.326 -0.264 -0.151
0.326 -0.260 -0.151
0.320 -0.251 -0.148
0.320 -0.246 -0.147
0.319 -0.242 -0.146
0.317 -0.236 -0.145
0.318 -0.233 -0.145
0.317 -0.228 -0.144
0.316 -0.223 -0.143
0.313 -0.217 -0.141
0.311 -0.212 -0.139
0.307 -0.206 -0.137
0.209 -0.130 -0.092
0.209 -0.128 -0.092
0.211 -0.126 -0.093
0.298 -0.172 -0.131
0.301 -0.170 -0.131
0.302 -0.167 -0.132
0.306 -0.166 -0.133
0.306 -0.163 -0.133
0.309 -0.161 -0.134
0.312 -0.159 -0.135
0.315 -0.158 -0.136
0.319 -0.156 -0.137
0.322 -0.154 -0.138
0.324 -0.152 -0.139
0.326 -0.149 -0.139
0.329 -0.147 -0.140
0.331 -0.145 -0.141
0.344 -0.143 -0.146
0.360 -0.135 -0.152
0.365 -0.133 -0.154
0.369 -0.131 -0.155
0.376 -0.130 -0.158
0.382 -0.128 -0.160
0.388 -0.126 -0.163
0.393 -0.124 -0.164
0.398 -0.122 -0.166
1.324 -0.392 -0.553
1.316 -0.377 -0.549
1.310 -0.363 -0.546
1.317 -0.352 -0.549
1.323 -0.341 -0.551
0.363 -0.073 -0.150
0.359 -0.069 -0.149
0.297 -0.051 -0.123
0.298 -0.048 -0.123
0.302 -0.046 -0.125
0.298 -0.043 -0.123
0.293 -0.039 -0.121
0.294 -0.037 -0.121
0.298 -0.034 -0.123
0.309 -0.033 -0.127
0.313 -0.030 -0.129
0.325 -0.029 -0.134
0.298 -0.021 -0.122
0.302 -0.018 -0.124
0.305 -0.015 -0.126
0.300 -0.012 -0.123
0.300 -0.010 -0.123
0.305 -0.007 -0.126
0.312 -0.004 -0.128
0.323 -0.001 -0.133
0.322 0.002 -0.133
0.318 0.005 -0.131
0.313 0.007 -0.129
0.317 0.010 -0.131
0.328 0.014 -0.135
0.338 0.017 -0.139
0.350 0.021 -0.144
0.341 0.027 -0.141
0.337 0.030 -0.139
0.320 0.031 -0.132
0.320 0.034 -0.132
0.319 0.037 -0.132
0.282 0.036 -0.116
0.289 0.039 -0.120
0.298 0.046 -0.123
0.323 0.053 -0.134
0.333 0.058 -0.138
0.332 0.061 -0.138
0.316 0.061 -0.131
0.315 0.064 -0.131
0.330 0.073 -0.137
0.318 0.073 -0.132
0.324 0.078 -0.135
0.343 0.089 -0.143
0.336 0.091 -0.141
0.338 0.094 -0.142
0.321 0.093 -0.135
0.309 0.092 -0.130
0.321 0.099 -0.135
0.351 0.112 -0.148
0.358 0.118 -0.151
0.337 0.114 -0.142
0.343 0.127 -0.146
0.340 0.147 -0.146
0.351 0.155 -0.151
0.314 0.156 -0.136
0.304 0.154 -0.132
0.293 0.152 -0.128
0.287 0.152 -0.126
0.279 0.151 -0.123
0.291 0.161 -0.128
0.287 0.162 -0.126
0.282 0.163 -0.125
0.278 0.163 -0.123
0.279 0.167 -0.124
0.280 0.171 -0.125
0.274 0.171 -0.122
0.269 0.171 -0.120
0.270 0.175 -0.122
0.270 0.178 -0.122
0.267 0.179 -0.121
0.267 0.183 -0.121
0.265 0.185 -0.121
0.264 0.187 -0.121
0.255 0.185 -0.117
0.254 0.187 -0.117
0.265 0.199 -0.123
0.278 0.212 -0.129
0.284 0.221 -0.132
0.271 0.214 -0.127
0.256 0.206 -0.120
0.249 0.204 -0.117
0.239 0.200 -0.113
0.230 0.195 -0.109
0.227 0.196 -0.108
0.231 0.203 -0.111
0.232 0.208 -0.112
0.232 0.211 -0.113
0.235 0.217 -0.114
0.229 0.216 -0.112
0.232 0.222 -0.114
0.231 0.228 -0.115
0.241 0.251 -0.122
0.329 -0.360 -0.162
0.337 -0.363 -0.165
0.327 -0.342 -0.158
0.329 -0.338 -0.158
0.331 -0.335 -0.159
0.331 -0.330 -0.158
0.329 -0.323 -0.157
0.329 -0.318 -0.156
0.328 -0.312 -0.155
0.329 -0.308 -0.154
0.328 -0.303 -0.153
0.329 -0.299 -0.153
0.329 -0.294 -0.153
0.327 -0.287 -0.151
0.323 -0.279 -0.149
0.321 -0.273 -0.147
0.325 -0.272 -0.148
0.324 -0.267 -0.147
0.323 -0.261 -0.146
0.322 -0.256 -0.145
0.320 -0.250 -0.144
0.318 -0.245 -0.142
0.318 -0.240 -0.142
0.317 -0.236 -0.141
0.314 -0.230 -0.139
0.314 -0.225 -0.139
0.313 -0.221 -0.138
0.312 -0.216 -0.137
0.309 -0.211 -0.135
0.306 -0.205 -0.134
0.209 -0.130 -0.090
0.209 -0.128 -0.090
0.209 -0.125 -0.090
0.215 -0.126 -0.092
0.294 -0.169 -0.125
0.296 -0.167 -0.126
0.303 -0.168 -0.129
0.304 -0.165 -0.129
0.305 -0.162 -0.129
0.307 -0.160 -0.130
0.312 -0.159 -0.132
0.315 -0.157 -0.133
0.319 -0.156 -0.134
0.322 -0.154 -0.135
0.324 -0.152 -0.136
0.329 -0.150 -0.137
0.332 -0.148 -0.138
0.337 -0.147 -0.140
0.338 -0.144 -0.140
0.362 -0.136 -0.149
0.365 -0.133 -0.150
0.369 -0.131 -0.152
0.373 -0.129 -0.153
0.382 -0.128 -0.157
0.389 -0.127 -0.159
0.395 -0.125 -0.161
0.398 -0.122 -0.162
0.399 -0.118 -0.163
1.305 -0.373 -0.531
1.303 -0.360 -0.530
1.323 -0.353 -0.538
1.331 -0.342 -0.541
0.362 -0.072 -0.146
0.352 -0.067 -0.142
0.317 -0.057 -0.128
0.309 -0.053 -0.125
0.310 -0.050 -0.125
0.309 -0.047 -0.124
0.300 -0.043 -0.121
0.295 -0.040 -0.119
0.294 -0.037 -0.118
0.303 -0.035 -0.122
0.303 -0.032 -0.122
0.315 -0.031 -0.127
0.321 -0.028 -0.129
0.326 -0.026 -0.131
0.307 -0.021 -0.123
0.302 -0.018 -0.121
0.298 -0.015 -0.120
0.299 -0.012 -0.120
0.302 -0.010 -0.121
0.309 -0.007 -0.124
0.318 -0.004 -0.128
0.324 -0.001 -0.130
0.318 0.002 -0.128
0.312 0.004 -0.125
0.320 0.007 -0.128
0.336 0.011 -0.135
0.329 0.014 -0.132
0.332 0.017 -0.133
0.337 0.027 -0.135
0.328 0.029 -0.132
0.319 0.031 -0.128
0.314 0.034 -0.126
0.326 0.038 -0.132
0.299 0.038 -0.120
0.290 0.039 -0.117
0.304 0.044 -0.123
0.318 0.049 -0.129
0.329 0.054 -0.133
0.341 0.059 -0.138
0.326 0.060 -0.132
0.308 0.059 -0.125
0.313 0.063 -0.127
0.332 0.070 -0.135
0.323 0.071 -0.131
0.326 0.075 -0.133
0.322 0.077 -0.131
0.344 0.089 -0.140
0.337 0.091 -0.137
0.327 0.091 -0.134
0.322 0.093 -0.132
0.311 0.093 -0.128
0.354 0.116 -0.145
0.329 0.115 -0.136
0.322 0.115 -0.133
0.320 0.118 -0.132
0.319 0.121 -0.132
0.343 0.148 -0.143
0.336 0.148 -0.141
0.326 0.147 -0.137
0.315 0.146 -0.133
0.309 0.146 -0.130
0.308 0.149 -0.130
0.316 0.157 -0.134
0.295 0.150 -0.125
0.291 0.151 -0.124
0.282 0.149 -0.120
0.290 0.156 -0.124
0.294 0.162 -0.126
0.291 0.164 -0.125
0.283 0.163 -0.122
0.283 0.166 -0.122
0.287 0.171 -0.124
0.282 0.172 -0.123
0.278 0.173 -0.121
0.276 0.175 -0.121
0.280 0.181 -0.123
0.274 0.180 -0.121
0.271 0.182 -0.120
0.267 0.182 -0.118
0.269 0.187 -0.119
0.273 0.193 -0.122
0.270 0.195 -0.121
0.263 0.194 -0.118
0.265 0.199 -0.120
0.293 0.227 -0.133
0.239 0.206 -0.111
0.236 0.207 -0.111
0.237 0.211 -0.111
0.242 0.227 -0.115
0.236 0.225 -0.113
0.330 -0.387 -0.161
0.342 -0.396 -0.167
0.330 -0.376 -0.160
0.325 -0.366 -0.157
0.325 -0.360 -0.156
0.337 -0.368 -0.161
0.339 -0.364 -0.161
0.339 -0.358 -0.160
0.331 -0.345 -0.156
0.330 -0.339 -0.155
0.328 -0.331 -0.153
0.330 -0.328 -0.154
0.331 -0.325 -0.154
0.330 -0.318 -0.152
0.327 -0.310 -0.150
0.327 -0.305 -0.149
0.327 -0.300 -0.149
0.324 -0.293 -0.147
0.325 -0.289 -0.147
0.326 -0.286 -0.147
0.321 -0.276 -0.144
0.320 -0.271 -0.143
0.321 -0.268 -0.143
0.322 -0.264 -0.143
0.320 -0.258 -0.141
0.319 -0.253 -0.140
0.319 -0.249 -0.140
0.319 -0.244 -0.139
0.318 -0.240 -0.138
0.315 -0.233 -0.136
0.309 -0.225 -0.133
0.310 -0.222 -0.133
0.312 -0.220 -0.134
0.310 -0.214 -0.133
0.307 -0.209 -0.131
0.305 -0.204 -0.130
0.295 -0.193 -0.125
0.209 -0.130 -0.088
0.210 -0.128 -0.088
0.210 -0.126 -0.088
0.211 -0.124 -0.088
0.301 -0.160 -0.124
0.304 -0.158 -0.125
0.309 -0.158 -0.127
0.315 -0.157 -0.129
0.317 -0.155 -0.130
0.320 -0.153 -0.131
0.323 -0.151 -0.132
0.331 -0.151 -0.135
0.336 -0.150 -0.137
0.338 -0.147 -0.137
0.276 -0.109 -0.111
0.359 -0.134 -0.144
0.366 -0.133 -0.147
0.368 -0.131 -0.148
0.373 -0.128 -0.149
0.376 -0.126 -0.150
0.389 -0.126 -0.155
0.393 -0.124 -0.157
0.398 -0.121 -0.158
0.401 -0.118 -0.159
0.399 -0.114 -0.159
1.313 -0.363 -0.521
1.324 -0.353 -0.525
1.331 -0.342 -0.527
0.367 -0.077 -0.145
0.364 -0.073 -0.144
0.305 -0.055 -0.120
0.301 -0.052 -0.118
0.311 -0.050 -0.122
0.309 -0.047 -0.121
0.299 -0.043 -0.117
0.297 -0.040 -0.117
0.298 -0.037 -0.117
0.299 -0.035 -0.117
0.301 -0.032 -0.118
0.306 -0.030 -0.120
0.321 -0.028 -0.126
0.320 -0.025 -0.125
0.317 -0.022 -0.124
0.309 -0.019 -0.121
0.303 -0.015 -0.119
0.304 -0.013 -0.119
0.306 -0.010 -0.120
0.315 -0.007 -0.123
0.318 -0.004 -0.125
0.313 -0.001 -0.123
0.312 0.002 -0.122
0.307 0.004 -0.120
0.325 0.008 -0.127
0.328 0.011 -0.128
0.329 0.014 -0.129
0.326 0.017 -0.128
0.323 0.020 -0.127
0.321 0.022 -0.126
0.314 0.025 -0.123
0.317 0.028 -0.124
0.317 0.031 -0.125
0.321 0.034 -0.126
0.309 0.036 -0.121
0.319 0.040 -0.125
0.306 0.041 -0.121
0.299 0.043 -0.118
0.330 0.057 -0.130
0.325 0.059 -0.128
0.316 0.060 -0.125
0.311 0.063 -0.123
0.323 0.068 -0.128
0.332 0.073 -0.132
0.323 0.074 -0.128
0.315 0.075 -0.125
0.330 0.085 -0.131
0.328 0.088 -0.131
0.328 0.091 -0.131
0.332 0.096 -0.132
0.331 0.099 -0.132
0.324 0.100 -0.130
0.326 0.103 -0.130
0.343 0.112 -0.138
0.347 0.117 -0.139
0.322 0.115 -0.130
0.308 0.113 -0.124
0.315 0.119 -0.127
0.315 0.122 -0.127
0.320 0.128 -0.130
0.324 0.132 -0.132
0.325 0.137 -0.132
0.326 0.140 -0.133
0.334 0.147 -0.136
0.330 0.149 -0.135
0.314 0.145 -0.129
0.300 0.142 -0.123
0.308 0.149 -0.127
0.302 0.150 -0.125
0.302 0.153 -0.125
0.294 0.152 -0.122
0.292 0.154 -0.121
0.292 0.157 -0.122
0.299 0.164 -0.125
0.297 0.167 -0.124
0.291 0.167 -0.122
0.294 0.172 -0.124
0.293 0.175 -0.124
0.289 0.176 -0.122
0.284 0.176 -0.121
0.289 0.183 -0.123
0.287 0.185 -0.123
0.279 0.183 -0.120
0.331 -0.416 -0.161
0.323 -0.390 -0.155
0.324 -0.385 -0.155
0.333 -0.391 -0.159
0.336 -0.389 -0.160
0.338 -0.385 -0.160
0.328 -0.368 -0.154
0.327 -0.361 -0.153
0.328 -0.358 -0.153
0.332 -0.356 -0.154
0.335 -0.353 -0.155
0.331 -0.344 -0.152
0.330 -0.338 -0.151
0.329 -0.332 -0.150
0.328 -0.326 -0.149
0.330 -0.322 -0.149
0.328 -0.316 -0.148
0.326 -0.309 -0.146
0.325 -0.303 -0.145
0.325 -0.298 -0.144
0.321 -0.290 -0.142
0.324 -0.288 -0.142
0.324 -0.284 -0.142
0.321 -0.276 -0.140
0.319 -0.270 -0.139
0.320 -0.266 -0.139
0.319 -0.261 -0.138
0.319 -0.257 -0.137
0.316 -0.251 -0.135
0.317 -0.247 -0.135
0.319 -0.244 -0.136
0.317 -0.239 -0.134
0.310 -0.230 -0.131
0.308 -0.224 -0.130
0.309 -0.221 -0.130
0.310 -0.218 -0.130
0.306 -0.211 -0.128
0.305 -0.207 -0.127
0.302 -0.201 -0.125
0.299 -0.196 -0.124
0.216 -0.134 -0.089
0.210 -0.127 -0.086
0.209 -0.125 -0.085
0.211 -0.123 -0.086
0.258 -0.145 -0.104
0.247 -0.136 -0.100
0.247 -0.134 -0.100
0.300 -0.156 -0.120
0.310 -0.157 -0.124
0.313 -0.156 -0.125
0.316 -0.154 -0.126
0.319 -0.152 -0.127
0.321 -0.150 -0.128
0.323 -0.147 -0.128
0.327 -0.145 -0.129
0.339 -0.147 -0.134
0.324 -0.134 -0.128
0.355 -0.133 -0.139
0.362 -0.132 -0.142
0.368 -0.130 -0.144
0.369 -0.127 -0.144
0.374 -0.125 -0.146
0.379 -0.123 -0.147
0.387 -0.122 -0.150
0.394 -0.120 -0.153
0.399 -0.118 -0.155
0.398 -0.114 -0.154
1.294 -0.344 -0.500
1.310 -0.336 -0.506
0.381 -0.080 -0.146
0.374 -0.075 -0.144
0.299 -0.054 -0.115
0.293 -0.050 -0.112
0.295 -0.048 -0.113
0.298 -0.045 -0.114
0.297 -0.043 -0.114
0.303 -0.041 -0.116
0.304 -0.038 -0.116
0.295 -0.034 -0.113
0.293 -0.031 -0.112
0.306 -0.030 -0.117
0.311 -0.027 -0.119
0.298 -0.023 -0.114
0.309 -0.021 -0.118
0.309 -0.019 -0.118
0.305 -0.015 -0.117
0.306 -0.013 -0.117
0.308 -0.010 -0.118
0.302 -0.007 -0.115
0.318 -0.004 -0.121
0.316 -0.001 -0.121
0.311 0.001 -0.119
0.333 0.005 -0.127
0.320 0.007 -0.122
0.329 0.011 -0.126
0.329 0.014 -0.126
0.325 0.017 -0.124
0.327 0.020 -0.125
0.313 0.022 -0.120
0.306 0.024 -0.117
0.316 0.028 -0.121
0.322 0.031 -0.123
0.312 0.033 -0.120
0.316 0.037 -0.121
0.322 0.040 -0.124
0.322 0.043 -0.124
0.307 0.044 -0.118
0.312 0.048 -0.120
0.327 0.053 -0.126
0.331 0.057 -0.127
0.331 0.060 -0.127
0.330 0.063 -0.127
0.324 0.065 -0.125
0.325 0.068 -0.125
0.326 0.072 -0.126
0.316 0.073 -0.122
0.296 0.071 -0.115
0.302 0.075 -0.117
0.313 0.081 -0.121
0.321 0.086 -0.125
0.326 0.091 -0.127
0.342 0.098 -0.133
0.348 0.103 -0.136
0.325 0.100 -0.127
0.329 0.104 -0.129
0.332 0.108 -0.130
0.340 0.115 -0.133
0.340 0.118 -0.133
0.321 0.121 -0.126
0.319 0.124 -0.126
0.320 0.127 -0.127
0.321 0.131 -0.127
0.318 0.133 -0.126
0.319 0.137 -0.127
0.323 0.142 -0.129
0.324 0.146 -0.129
0.314 0.145 -0.126
0.310 0.146 -0.124
0.302 0.146 -0.121
0.315 0.155 -0.127
0.301 0.152 -0.121
0.297 0.153 -0.120
0.294 0.155 -0.119
0.300 0.161 -0.122
0.302 0.166 -0.123
0.303 0.170 -0.124
0.300 0.175 -0.123
0.300 0.179 -0.124
0.334 -0.443 -0.161
0.333 -0.435 -0.160
0.330 -0.426 -0.158
0.336 -0.427 -0.160
0.339 -0.426 -0.161
0.338 -0.419 -0.160
0.332 -0.405 -0.156
0.329 -0.397 -0.154
0.331 -0.393 -0.154
0.331 -0.388 -0.154
0.335 -0.387 -0.155
0.336 -0.382 -0.155
0.329 -0.368 -0.151
0.328 -0.362 -0.150
0.328 -0.357 -0.149
0.331 -0.354 -0.149
0.329 -0.347 -0.148
0.330 -0.342 -0.147
0.326 -0.333 -0.145
0.326 -0.329 -0.145
0.326 -0.323 -0.144
0.325 -0.317 -0.143
0.326 -0.313 -0.143
0.325 -0.307 -0.142
0.323 -0.301 -0.140
0.322 -0.295 -0.139
0.322 -0.290 -0.138
0.321 -0.284 -0.137
0.323 -0.282 -0.138
0.322 -0.276 -0.137
0.320 -0.270 -0.136
0.319 -0.265 -0.135
0.319 -0.260 -0.134
0.317 -0.255 -0.133
0.313 -0.248 -0.131
0.314 -0.244 -0.131
0.317 -0.242 -0.131
0.315 -0.236 -0.130
0.309 -0.228 -0.127
0.308 -0.224 -0.126
0.309 -0.220 -0.126
0.307 -0.215 -0.125
0.305 -0.210 -0.124
0.302 -0.205 -0.123
0.302 -0.201 -0.122
0.298 -0.195 -0.120
0.213 -0.131 -0.085
0.209 -0.127 -0.083
0.209 -0.125 -0.083
0.208 -0.122 -0.083
0.215 -0.123 -0.085
0.254 -0.143 -0.100
0.246 -0.136 -0.097
0.246 -0.133 -0.097
0.253 -0.134 -0.099
0.308 -0.156 -0.120
0.313 -0.155 -0.122
0.316 -0.154 -0.123
0.319 -0.152 -0.124
0.321 -0.149 -0.124
0.322 -0.147 -0.125
0.324 -0.144 -0.125
0.341 -0.148 -0.131
0.334 -0.141 -0.128
0.338 -0.140 -0.130
0.352 -0.131 -0.134
0.360 -0.131 -0.137
0.363 -0.128 -0.138
0.366 -0.126 -0.139
0.371 -0.124 -0.141
0.378 -0.122 -0.143
0.384 -0.121 -0.146
0.390 -0.119 -0.148
0.400 -0.118 -0.151
0.410 -0.117 -0.155
1.300 -0.333 -0.489
0.303 -0.055 -0.113
0.292 -0.050 -0.109
0.292 -0.047 -0.109
0.294 -0.045 -0.110
0.301 -0.043 -0.112
0.309 -0.041 -0.115
0.310 -0.039 -0.116
0.303 -0.035 -0.113
0.301 -0.032 -0.112
0.306 -0.030 -0.114
0.309 -0.027 -0.115
0.308 -0.024 -0.115
0.303 -0.021 -0.113
0.298 -0.018 -0.111
0.292 -0.015 -0.109
0.316 -0.013 -0.118
0.319 -0.010 -0.119
0.326 -0.007 -0.121
0.322 -0.004 -0.120
0.322 -0.001 -0.120
0.330 0.002 -0.123
0.326 0.005 -0.121
0.335 0.008 -0.125
0.327 0.011 -0.122
0.326 0.014 -0.122
0.324 0.017 -0.121
0.324 0.019 -0.121
0.317 0.022 -0.118
0.315 0.025 -0.117
0.326 0.029 -0.121
0.303 0.029 -0.113
0.309 0.033 -0.115
0.314 0.036 -0.117
0.321 0.040 -0.120
0.316 0.043 -0.118
0.312 0.045 -0.117
0.310 0.048 -0.116
0.317 0.052 -0.119
0.323 0.056 -0.121
0.327 0.059 -0.123
0.324 0.062 -0.122
0.322 0.064 -0.121
0.322 0.068 -0.121
0.313 0.072 -0.118
0.301 0.072 -0.113
0.299 0.074 -0.113
0.317 0.082 -0.120
0.324 0.087 -0.123
0.334 0.093 -0.126
0.342 0.098 -0.130
0.335 0.100 -0.127
0.328 0.101 -0.125
0.326 0.103 -0.124
0.328 0.110 -0.125
0.331 0.115 -0.126
0.316 0.113 -0.121
0.321 0.118 -0.123
0.351 0.132 -0.135
0.339 0.131 -0.130
0.320 0.127 -0.123
0.320 0.130 -0.124
0.332 0.139 -0.129
0.319 0.137 -0.124
0.320 0.141 -0.124
0.321 0.144 -0.125
0.320 0.147 -0.125
0.323 0.152 -0.126
0.323 0.155 -0.126
0.320 0.158 -0.125
0.318 0.160 -0.125
0.306 0.157 -0.121
0.369 0.215 -0.148
0.331 -0.443 -0.156
0.333 -0.440 -0.156
0.333 -0.435 -0.156
0.331 -0.427 -0.154
0.334 -0.424 -0.155
0.337 -0.422 -0.156
0.337 -0.417 -0.155
0.333 -0.406 -0.153
0.329 -0.396 -0.150
0.330 -0.392 -0.150
0.334 -0.390 -0.151
0.333 -0.383 -0.150
0.333 -0.377 -0.149
0.331 -0.370 -0.148
0.327 -0.360 -0.145
0.329 -0.357 -0.145
0.329 -0.351 -0.145
0.328 -0.345 -0.144
0.321 -0.333 -0.140
0.321 -0.328 -0.139
0.323 -0.325 -0.139
0.324 -0.320 -0.139
0.324 -0.315 -0.138
0.321 -0.308 -0.137
0.320 -0.302 -0.136
0.320 -0.297 -0.135
0.319 -0.292 -0.134
0.318 -0.286 -0.133
0.320 -0.283 -0.133
0.322 -0.280 -0.134
0.322 -0.276 -0.133
0.320 -0.269 -0.132
0.318 -0.264 -0.131
0.317 -0.259 -0.130
0.314 -0.252 -0.128
0.311 -0.246 -0.126
0.312 -0.242 -0.126
0.312 -0.238 -0.126
0.309 -0.232 -0.124
0.305 -0.225 -0.122
0.306 -0.222 -0.122
0.307 -0.219 -0.122
0.306 -0.214 -0.121
0.306 -0.210 -0.121
0.305 -0.206 -0.120
0.300 -0.199 -0.118
0.292 -0.191 -0.115
0.216 -0.133 -0.084
0.209 -0.127 -0.081
0.207 -0.123 -0.080
0.209 -0.122 -0.081
0.213 -0.122 -0.082
0.253 -0.142 -0.097
0.245 -0.135 -0.094
0.246 -0.133 -0.094
0.249 -0.131 -0.095
0.258 -0.134 -0.098
0.306 -0.155 -0.116
0.311 -0.154 -0.118
0.314 -0.152 -0.119
0.317 -0.151 -0.120
0.322 -0.149 -0.121
0.324 -0.147 -0.122
0.325 -0.144 -0.122
0.336 -0.146 -0.126
0.344 -0.146 -0.129
0.336 -0.139 -0.126
0.344 -0.132 -0.128
0.352 -0.131 -0.131
0.359 -0.130 -0.133
0.362 -0.128 -0.134
0.365 -0.125 -0.135
0.373 -0.124 -0.138
0.379 -0.123 -0.140
0.382 -0.120 -0.141
0.390 -0.119 -0.144
0.409 -0.120 -0.150
0.420 -0.120 -0.154
0.439 -0.121 -0.161
0.440 -0.117 -0.161
0.382 -0.080 -0.139
0.378 -0.075 -0.138
0.306 -0.055 -0.111
0.296 -0.051 -0.108
0.290 -0.047 -0.106
0.303 -0.046 -0.110
0.306 -0.044 -0.111
0.309 -0.041 -0.112
0.309 -0.038 -0.112
0.306 -0.035 -0.111
0.316 -0.033 -0.115
0.317 -0.031 -0.115
0.315 -0.028 -0.114
0.313 -0.024 -0.114
0.308 -0.021 -0.112
0.300 -0.018 -0.109
0.308 -0.016 -0.112
0.318 -0.013 -0.115
0.336 -0.011 -0.122
0.335 -0.008 -0.121
0.331 -0.005 -0.120
0.330 -0.001 -0.119
0.327 0.002 -0.118
0.326 0.005 -0.118
0.325 0.008 -0.118
0.325 0.011 -0.118
0.321 0.013 -0.116
0.323 0.016 -0.117
0.329 0.020 -0.119
0.322 0.022 -0.117
0.320 0.025 -0.116
0.321 0.028 -0.117
0.319 0.031 -0.116
0.312 0.033 -0.113
0.322 0.037 -0.117
0.319 0.040 -0.116
0.315 0.042 -0.115
0.314 0.045 -0.115
0.317 0.049 -0.116
0.323 0.052 -0.118
0.325 0.056 -0.119
0.320 0.058 -0.117
0.315 0.060 -0.115
0.311 0.062 -0.114
0.315 0.066 -0.115
0.319 0.070 -0.117
0.313 0.072 -0.115
0.307 0.073 -0.113
0.314 0.078 -0.115
0.329 0.085 -0.121
0.338 0.090 -0.125
0.342 0.095 -0.126
0.328 0.094 -0.121
0.327 0.097 -0.121
0.325 0.100 -0.120
0.327 0.103 -0.121
0.318 0.104 -0.118
0.322 0.108 -0.120
0.320 0.111 -0.119
0.319 0.114 -0.119
0.315 0.115 -0.118
0.343 0.129 -0.128
0.339 0.131 -0.127
0.330 0.138 -0.124
0.330 0.141 -0.124
0.329 0.144 -0.124
0.331 0.149 -0.125
0.334 0.154 -0.127
0.333 0.157 -0.127
0.332 0.160 -0.127
0.337 0.166 -0.129
0.333 0.168 -0.128
0.349 0.179 -0.134
0.345 0.185 -0.133
0.330 -0.442 -0.151
0.333 -0.439 -0.152
0.334 -0.435 -0.152
0.334 -0.429 -0.151
0.331 -0.421 -0.150
0.332 -0.416 -0.149
0.334 -0.413 -0.150
0.333 -0.405 -0.148
0.331 -0.397 -0.147
0.330 -0.391 -0.146
0.333 -0.388 -0.146
0.330 -0.380 -0.145
0.332 -0.376 -0.145
0.330 -0.368 -0.143
0.326 -0.359 -0.141
0.325 -0.352 -0.140
0.328 -0.350 -0.140
0.324 -0.340 -0.138
0.320 -0.331 -0.136
0.319 -0.325 -0.135
0.321 -0.322 -0.135
0.321 -0.317 -0.134
0.322 -0.313 -0.134
0.320 -0.306 -0.133
0.320 -0.301 -0.132
0.318 -0.294 -0.130
0.315 -0.287 -0.129
0.316 -0.284 -0.129
0.318 -0.281 -0.129
0.320 -0.278 -0.129
0.320 -0.273 -0.129
0.317 -0.266 -0.127
0.315 -0.261 -0.126
0.315 -0.256 -0.125
0.310 -0.249 -0.123
0.309 -0.244 -0.122
0.310 -0.240 -0.122
0.310 -0.236 -0.122
0.307 -0.230 -0.120
0.303 -0.223 -0.118
0.303 -0.219 -0.118
0.303 -0.216 -0.117
0.304 -0.213 -0.117
0.305 -0.209 -0.117
0.307 -0.207 -0.118
0.296 -0.196 -0.113
0.289 -0.188 -0.110
0.279 -0.178 -0.106
0.208 -0.126 -0.078
0.207 -0.123 -0.078
0.207 -0.121 -0.078
0.213 -0.122 -0.080
0.251 -0.140 -0.094
0.248 -0.136 -0.093
0.246 -0.132 -0.091
0.246 -0.130 -0.092
0.253 -0.131 -0.094
0.306 -0.155 -0.113
0.310 -0.153 -0.114
0.313 -0.152 -0.115
0.316 -0.150 -0.116
0.322 -0.149 -0.118
0.325 -0.147 -0.119
0.327 -0.145 -0.119
0.342 -0.148 -0.125
0.336 -0.139 -0.122
0.313 -0.126 -0.114
0.339 -0.130 -0.123
0.352 -0.131 -0.127
0.355 -0.129 -0.128
0.356 -0.126 -0.128
0.366 -0.125 -0.132
0.375 -0.125 -0.135
0.380 -0.123 -0.136
0.383 -0.120 -0.138
0.391 -0.119 -0.140
0.412 -0.121 -0.147
0.422 -0.120 -0.151
0.436 -0.120 -0.156
0.450 -0.119 -0.161
0.436 -0.111 -0.156
0.370 -0.074 -0.131
0.357 -0.068 -0.127
0.298 -0.054 -0.106
0.284 -0.049 -0.101
0.311 -0.050 -0.110
0.303 -0.046 -0.107
0.303 -0.043 -0.107
0.303 -0.040 -0.107
0.302 -0.038 -0.107
0.310 -0.036 -0.109
0.325 -0.034 -0.115
0.324 -0.031 -0.114
0.313 -0.027 -0.111
0.308 -0.024 -0.109
0.309 -0.021 -0.109
0.305 -0.018 -0.108
0.310 -0.016 -0.109
0.321 -0.013 -0.113
0.326 -0.010 -0.115
0.330 -0.008 -0.116
0.332 -0.005 -0.117
0.326 -0.001 -0.115
0.321 0.002 -0.113
0.320 0.004 -0.113
0.327 0.008 -0.115
0.330 0.011 -0.116
0.325 0.013 -0.115
0.317 0.016 -0.112
0.322 0.019 -0.114
0.318 0.022 -0.112
0.302 0.024 -0.107
0.312 0.027 -0.110
0.321 0.031 -0.114
0.332 0.035 -0.117
0.340 0.039 -0.120
0.335 0.042 -0.119
0.320 0.043 -0.113
0.317 0.045 -0.112
0.323 0.049 -0.115
0.339 0.055 -0.120
0.322 0.055 -0.115
0.314 0.057 -0.112
0.308 0.059 -0.109
0.308 0.062 -0.110
0.313 0.066 -0.112
0.321 0.070 -0.115
0.316 0.072 -0.113
0.317 0.075 -0.113
0.340 0.084 -0.122
0.347 0.089 -0.124
0.323 0.089 -0.116
0.331 0.095 -0.119
0.322 0.095 -0.116
0.325 0.099 -0.117
0.325 0.103 -0.117
0.329 0.107 -0.119
0.320 0.107 -0.116
0.323 0.112 -0.117
0.323 0.115 -0.117
0.327 0.119 -0.119
0.325 0.122 -0.118
0.338 0.130 -0.123
0.337 0.148 -0.124
0.349 0.156 -0.128
0.360 0.185 -0.134
0.351 0.188 -0.132
0.369 0.214 -0.140
0.325 -0.440 -0.145
0.329 -0.439 -0.147
0.334 -0.440 -0.148
0.336 -0.437 -0.149
0.334 -0.429 -0.147
0.332 -0.421 -0.146
0.332 -0.416 -0.145
0.330 -0.407 -0.144
0.331 -0.402 -0.143
0.333 -0.399 -0.144
0.332 -0.392 -0.143
0.328 -0.382 -0.140
0.329 -0.377 -0.140
0.327 -0.370 -0.139
0.326 -0.363 -0.137
0.324 -0.356 -0.136
0.325 -0.351 -0.136
0.324 -0.345 -0.135
0.324 -0.339 -0.134
0.321 -0.331 -0.132
0.320 -0.325 -0.131
0.317 -0.318 -0.130
0.319 -0.314 -0.129
0.319 -0.309 -0.129
0.321 -0.306 -0.129
0.320 -0.300 -0.128
0.315 -0.291 -0.126
0.314 -0.285 -0.125
0.315 -0.282 -0.125
0.316 -0.279 -0.125
0.316 -0.274 -0.124
0.316 -0.269 -0.123
0.313 -0.263 -0.122
0.312 -0.258 -0.121
0.310 -0.252 -0.120
0.308 -0.246 -0.119
0.307 -0.242 -0.118
0.310 -0.239 -0.118
0.310 -0.235 -0.118
0.305 -0.228 -0.116
0.302 -0.222 -0.114
0.300 -0.217 -0.113
0.301 -0.214 -0.113
0.301 -0.210 -0.113
0.300 -0.205 -0.112
0.296 -0.199 -0.110
0.292 -0.193 -0.109
0.289 -0.188 -0.107
0.284 -0.181 -0.105
0.209 -0.126 -0.077
0.207 -0.123 -0.076
0.207 -0.121 -0.076
0.208 -0.119 -0.076
0.249 -0.139 -0.090
0.242 -0.133 -0.088
0.244 -0.131 -0.088
0.246 -0.129 -0.089
0.250 -0.129 -0.090
0.301 -0.152 -0.108
0.309 -0.153 -0.111
0.312 -0.151 -0.112
0.315 -0.149 -0.113
0.317 -0.147 -0.113
0.323 -0.146 -0.115
0.323 -0.143 -0.115
0.341 -0.147 -0.121
0.328 -0.135 -0.116
0.308 -0.121 -0.109
0.324 -0.124 -0.114
0.352 -0.131 -0.124
0.354 -0.128 -0.125
0.358 -0.126 -0.126
0.365 -0.125 -0.128
0.375 -0.124 -0.131
0.380 -0.123 -0.133
0.387 -0.121 -0.135
0.400 -0.121 -0.139
0.414 -0.121 -0.144
0.424 -0.120 -0.147
0.435 -0.119 -0.151
0.442 -0.117 -0.153
0.440 -0.112 -0.153
0.427 -0.105 -0.148
0.307 -0.052 -0.106
0.299 -0.048 -0.103
0.305 -0.046 -0.105
0.298 -0.042 -0.102
0.291 -0.039 -0.100
0.302 -0.038 -0.104
0.315 -0.036 -0.108
0.317 -0.033 -0.109
0.307 -0.030 -0.106
0.303 -0.026 -0.104
0.294 -0.023 -0.101
0.300 -0.021 -0.103
0.304 -0.018 -0.104
0.313 -0.016 -0.107
0.312 -0.013 -0.107
0.312 -0.010 -0.107
0.327 -0.007 -0.112
0.333 -0.005 -0.114
0.327 -0.001 -0.112
0.314 0.001 -0.108
0.316 0.004 -0.108
0.331 0.008 -0.114
0.345 0.011 -0.118
0.346 0.014 -0.119
0.323 0.016 -0.111
0.310 0.019 -0.106
0.308 0.021 -0.106
0.310 0.024 -0.106
0.302 0.026 -0.104
0.318 0.031 -0.109
0.344 0.037 -0.118
0.346 0.040 -0.119
0.331 0.041 -0.114
0.324 0.043 -0.112
0.329 0.047 -0.113
0.333 0.051 -0.115
0.325 0.053 -0.112
0.321 0.055 -0.111
0.316 0.057 -0.109
0.315 0.060 -0.109
0.319 0.064 -0.110
0.326 0.068 -0.113
0.323 0.071 -0.112
0.318 0.073 -0.110
0.328 0.078 -0.114
0.349 0.086 -0.121
0.346 0.089 -0.121
0.323 0.089 -0.113
0.310 0.089 -0.108
0.317 0.094 -0.111
0.326 0.100 -0.114
0.326 0.103 -0.114
0.318 0.103 -0.112
0.320 0.107 -0.113
0.326 0.113 -0.115
0.327 0.116 -0.115
0.330 0.120 -0.117
0.333 0.125 -0.118
0.333 0.128 -0.118
0.344 0.150 -0.123
0.349 0.156 -0.125
0.361 0.165 -0.130
0.356 0.182 -0.129
0.357 0.195 -0.131
0.321 -0.434 -0.140
0.328 -0.438 -0.142
0.334 -0.440 -0.144
0.333 -0.433 -0.143
0.328 -0.421 -0.141
0.332 -0.420 -0.141
0.335 -0.419 -0.143
0.322 -0.396 -0.136
0.328 -0.398 -0.138
0.332 -0.398 -0.139
0.329 -0.388 -0.137
0.330 -0.384 -0.137
0.328 -0.376 -0.136
0.326 -0.368 -0.134
0.325 -0.361 -0.133
0.324 -0.355 -0.132
0.323 -0.348 -0.131
0.322 -0.342 -0.130
0.321 -0.336 -0.129
0.318 -0.328 -0.127
0.317 -0.321 -0.126
0.319 -0.318 -0.126
0.316 -0.311 -0.125
0.316 -0.305 -0.124
0.315 -0.300 -0.123
0.319 -0.299 -0.124
0.314 -0.290 -0.122
0.313 -0.284 -0.121
0.313 -0.280 -0.120
0.314 -0.276 -0.120
0.315 -0.273 -0.120
0.312 -0.266 -0.118
0.309 -0.259 -0.117
0.309 -0.255 -0.117
0.309 -0.251 -0.116
0.308 -0.246 -0.115
0.309 -0.242 -0.115
0.309 -0.239 -0.115
0.308 -0.234 -0.114
0.306 -0.228 -0.113
0.299 -0.220 -0.110
0.299 -0.216 -0.110
0.298 -0.211 -0.109
0.293 -0.204 -0.107
0.291 -0.199 -0.106
0.231 -0.144 -0.083
0.231 -0.142 -0.083
0.212 -0.128 -0.076
0.207 -0.123 -0.074
0.208 -0.121 -0.074
0.209 -0.119 -0.074
0.238 -0.133 -0.084
0.244 -0.134 -0.086
0.243 -0.131 -0.086
0.245 -0.129 -0.086
0.248 -0.128 -0.087
0.309 -0.152 -0.108
0.312 -0.151 -0.109
0.315 -0.149 -0.109
0.319 -0.148 -0.111
0.321 -0.145 -0.111
0.320 -0.141 -0.111
0.335 -0.144 -0.115
0.319 -0.131 -0.110
0.312 -0.119 -0.107
0.356 -0.129 -0.121
0.361 -0.127 -0.123
0.366 -0.125 -0.125
0.372 -0.124 -0.127
0.384 -0.124 -0.130
0.394 -0.123 -0.134
0.401 -0.121 -0.136
0.412 -0.121 -0.140
0.427 -0.121 -0.144
0.433 -0.119 -0.146
0.439 -0.116 -0.148
0.441 -0.112 -0.149
0.443 -0.109 -0.149
0.381 -0.076 -0.128
0.370 -0.070 -0.124
0.301 -0.054 -0.101
0.301 -0.051 -0.101
0.300 -0.048 -0.100
0.300 -0.045 -0.100
0.297 -0.042 -0.099
0.301 -0.040 -0.101
0.304 -0.038 -0.101
0.308 -0.035 -0.103
0.310 -0.033 -0.104
0.305 -0.029 -0.102
0.293 -0.025 -0.098
0.296 -0.023 -0.099
0.297 -0.020 -0.099
0.305 -0.018 -0.102
0.316 -0.016 -0.105
0.314 -0.013 -0.105
0.311 -0.010 -0.104
0.320 -0.007 -0.107
0.341 -0.005 -0.114
0.333 -0.002 -0.111
0.324 0.002 -0.108
0.319 0.004 -0.106
0.333 0.008 -0.111
0.346 0.011 -0.115
0.346 0.014 -0.115
0.322 0.016 -0.107
0.306 0.018 -0.102
0.304 0.021 -0.101
0.302 0.024 -0.101
0.306 0.027 -0.102
0.320 0.031 -0.107
0.331 0.035 -0.111
0.318 0.040 -0.106
0.317 0.042 -0.106
0.329 0.047 -0.110
0.337 0.051 -0.113
0.336 0.054 -0.113
0.326 0.056 -0.109
0.322 0.058 -0.108
0.323 0.061 -0.109
0.329 0.066 -0.111
0.332 0.069 -0.112
0.327 0.071 -0.110
0.322 0.073 -0.109
0.331 0.078 -0.112
0.342 0.084 -0.116
0.334 0.086 -0.113
0.325 0.086 -0.110
0.312 0.086 -0.106
0.315 0.090 -0.107
0.328 0.097 -0.112
0.336 0.102 -0.114
0.324 0.102 -0.110
0.319 0.104 -0.109
0.320 0.107 -0.110
0.325 0.112 -0.111
0.326 0.115 -0.112
0.326 0.119 -0.112
0.334 0.125 -0.115
0.334 0.128 -0.115
0.339 0.151 -0.118
0.346 0.177 -0.122
0.322 -0.435 -0.136
0.325 -0.434 -0.137
0.328 -0.431 -0.138
0.325 -0.422 -0.136
0.327 -0.419 -0.136
0.332 -0.419 -0.137
0.324 -0.404 -0.134
0.319 -0.392 -0.131
0.323 -0.392 -0.132
0.329 -0.393 -0.134
0.331 -0.389 -0.134
0.328 -0.380 -0.132
0.326 -0.373 -0.131
0.326 -0.367 -0.130
0.325 -0.361 -0.129
0.324 -0.355 -0.128
0.323 -0.348 -0.127
0.319 -0.338 -0.125
0.314 -0.328 -0.123
0.312 -0.321 -0.121
0.315 -0.319 -0.122
0.317 -0.316 -0.122
0.316 -0.310 -0.121
0.313 -0.302 -0.119
0.312 -0.297 -0.118
0.314 -0.294 -0.119
0.314 -0.289 -0.118
0.312 -0.283 -0.117
0.311 -0.277 -0.116
0.313 -0.275 -0.116
0.312 -0.270 -0.116
0.310 -0.263 -0.114
0.309 -0.259 -0.114
0.308 -0.254 -0.113
0.308 -0.249 -0.112
0.308 -0.245 -0.112
0.309 -0.242 -0.112
0.310 -0.239 -0.112
0.306 -0.232 -0.110
0.303 -0.225 -0.108
0.300 -0.220 -0.107
0.296 -0.213 -0.106
0.208 -0.142 -0.073
0.207 -0.139 -0.073
0.209 -0.138 -0.073
0.212 -0.137 -0.074
0.223 -0.142 -0.078
0.226 -0.141 -0.079
0.230 -0.141 -0.080
0.221 -0.133 -0.076
0.208 -0.123 -0.072
0.208 -0.121 -0.072
0.210 -0.119 -0.072
0.220 -0.123 -0.076
0.243 -0.133 -0.083
0.245 -0.131 -0.084
0.244 -0.128 -0.083
0.245 -0.126 -0.083
0.251 -0.126 -0.085
0.310 -0.153 -0.105
0.312 -0.151 -0.106
0.315 -0.149 -0.106
0.319 -0.147 -0.108
0.321 -0.145 -0.108
0.322 -0.142 -0.108
0.325 -0.140 -0.109
0.319 -0.134 -0.107
0.298 -0.122 -0.100
0.307 -0.123 -0.103
0.309 -0.118 -0.103
0.310 -0.115 -0.103
0.355 -0.128 -0.118
0.361 -0.127 -0.119
0.369 -0.126 -0.122
0.379 -0.126 -0.125
0.389 -0.125 -0.128
0.395 -0.123 -0.130
0.405 -0.122 -0.133
