VERSION .7
FIELDS x y z
SIZE 4 4 4
TYPE F F F
COUNT 1 1 1
WIDTH     2563
HEIGHT 1
VIEWPOINT 0 0 0 1 0 0 0
POINTS     2563
DATA ascii
0.235 -0.081 -0.003
0.240 -0.080 -0.003
0.241 -0.078 -0.003
0.244 -0.077 -0.003
0.252 -0.077 -0.003
0.267 -0.079 -0.003
0.379 -0.105 -0.005
0.392 -0.105 -0.005
0.403 -0.104 -0.005
0.407 -0.102 -0.005
0.412 -0.099 -0.005
0.424 -0.098 -0.005
0.422 -0.094 -0.005
0.399 -0.085 -0.005
0.387 -0.079 -0.005
0.381 -0.074 -0.005
0.290 -0.051 -0.004
0.290 -0.048 -0.004
0.283 -0.045 -0.004
0.285 -0.042 -0.004
0.283 -0.040 -0.004
0.289 -0.038 -0.004
0.289 -0.035 -0.004
0.286 -0.032 -0.004
0.284 -0.029 -0.004
0.286 -0.027 -0.004
0.303 -0.026 -0.004
0.300 -0.023 -0.004
0.296 -0.020 -0.004
0.287 -0.017 -0.004
0.289 -0.014 -0.004
0.289 -0.012 -0.004
0.296 -0.009 -0.004
0.305 -0.007 -0.004
0.313 -0.004 -0.004
0.309 -0.001 -0.004
0.304 0.001 -0.004
0.304 0.004 -0.004
0.306 0.007 -0.004
0.307 0.010 -0.004
0.307 0.012 -0.004
0.309 0.015 -0.004
0.310 0.018 -0.004
0.312 0.021 -0.004
0.314 0.024 -0.004
0.315 0.027 -0.004
0.317 0.030 -0.004
0.315 0.033 -0.004
0.316 0.036 -0.004
0.316 0.038 -0.004
0.316 0.041 -0.004
0.317 0.044 -0.004
0.317 0.047 -0.004
0.317 0.050 -0.004
0.317 0.053 -0.004
0.317 0.056 -0.004
0.317 0.059 -0.004
0.317 0.062 -0.004
0.316 0.064 -0.004
0.315 0.067 -0.004
0.313 0.070 -0.004
0.312 0.072 -0.004
0.313 0.075 -0.004
0.317 0.079 -0.004
0.316 0.082 -0.004
0.316 0.085 -0.004
0.314 0.088 -0.004
0.306 0.088 -0.004
0.305 0.091 -0.004
0.309 0.095 -0.004
0.316 0.100 -0.004
0.311 0.102 -0.004
0.313 0.105 -0.004
0.325 0.112 -0.004
0.326 0.116 -0.004
0.323 0.118 -0.004
0.324 0.122 -0.004
0.331 0.131 -0.004
0.332 0.135 -0.004
0.344 0.143 -0.004
0.356 0.151 -0.004
0.344 0.150 -0.004
0.329 0.146 -0.004
0.306 0.140 -0.004
0.314 0.147 -0.004
0.333 0.162 -0.004
0.323 0.168 -0.004
0.314 0.166 -0.004
0.317 0.171 -0.004
0.319 0.180 -0.004
0.323 0.185 -0.004
0.329 0.192 -0.004
0.326 0.194 -0.004
0.324 0.197 -0.004
0.322 0.200 -0.004
0.320 0.202 -0.004
0.318 0.204 -0.004
0.316 0.207 -0.004
0.314 0.209 -0.004
0.307 0.208 -0.004
0.310 0.214 -0.004
0.309 0.217 -0.004
0.297 0.213 -0.004
0.309 0.225 -0.004
1.317 1.027 -0.017
1.308 1.037 -0.017
1.310 1.056 -0.017
1.308 1.073 -0.017
1.308 1.091 -0.017
1.312 1.113 -0.017
1.317 1.136 -0.017
1.320 1.158 -0.017
1.323 1.239 -0.017
1.329 1.266 -0.017
1.310 1.268 -0.017
1.342 1.322 -0.017
1.348 1.349 -0.017
0.452 0.500 -0.006
0.445 0.501 -0.006
0.496 0.576 -0.006
0.503 0.594 -0.006
0.504 0.604 -0.006
0.490 0.597 -0.006
0.302 0.393 -0.004
0.170 -0.234 -0.000
0.163 -0.221 -0.000
0.167 -0.223 -0.000
0.171 -0.226 -0.000
0.172 -0.224 -0.000
0.179 -0.231 -0.000
0.188 -0.238 -0.000
0.190 -0.238 -0.000
0.188 -0.232 -0.000
0.190 -0.231 -0.000
0.192 -0.230 -0.000
0.193 -0.227 -0.000
0.196 -0.228 -0.000
0.198 -0.227 -0.000
0.200 -0.226 -0.000
0.202 -0.224 -0.000
0.203 -0.222 -0.000
0.204 -0.220 -0.000
0.207 -0.219 -0.000
0.209 -0.219 -0.000
0.212 -0.218 -0.000
0.214 -0.217 -0.000
0.216 -0.216 -0.000
0.219 -0.215 -0.000
0.221 -0.214 -0.000
0.224 -0.213 -0.000
0.227 -0.213 -0.000
0.229 -0.212 -0.001
0.232 -0.211 -0.001
0.234 -0.210 -0.001
0.237 -0.209 -0.001
0.240 -0.208 -0.001
0.243 -0.207 -0.001
0.245 -0.206 -0.001
0.247 -0.205 -0.001
0.250 -0.203 -0.001
0.250 -0.200 -0.001
0.230 -0.181 -0.001
0.221 -0.171 -0.001
0.220 -0.168 -0.001
0.220 -0.165 -0.001
0.212 -0.156 -0.001
0.210 -0.152 -0.001
0.212 -0.151 -0.001
0.210 -0.148 -0.001
0.210 -0.145 -0.001
0.208 -0.141 -0.001
0.206 -0.137 -0.001
0.215 -0.141 -0.001
0.221 -0.142 -0.001
0.220 -0.139 -0.001
0.219 -0.136 -0.001
0.219 -0.133 -0.001
0.219 -0.131 -0.001
0.221 -0.130 -0.001
0.221 -0.128 -0.001
0.220 -0.125 -0.001
0.218 -0.121 -0.001
0.216 -0.118 -0.001
0.215 -0.115 -0.001
0.210 -0.110 -0.001
0.209 -0.107 -0.001
0.214 -0.107 -0.001
0.219 -0.108 -0.001
0.208 -0.100 -0.001
0.209 -0.099 -0.001
0.211 -0.097 -0.001
0.221 -0.100 -0.001
0.221 -0.098 -0.001
0.224 -0.097 -0.001
0.225 -0.095 -0.001
0.224 -0.092 -0.001
0.222 -0.089 -0.001
0.220 -0.086 -0.001
0.217 -0.083 -0.001
0.217 -0.081 -0.001
0.224 -0.081 -0.001
0.231 -0.082 -0.001
0.226 -0.078 -0.001
0.236 -0.079 -0.001
0.238 -0.077 -0.001
0.244 -0.077 -0.001
0.249 -0.076 -0.001
0.257 -0.076 -0.001
0.264 -0.076 -0.001
0.380 -0.106 -0.001
0.398 -0.107 -0.001
0.400 -0.103 -0.001
0.408 -0.102 -0.001
0.416 -0.100 -0.001
0.420 -0.097 -0.001
0.417 -0.092 -0.001
0.400 -0.085 -0.001
0.389 -0.079 -0.001
0.381 -0.074 -0.001
0.368 -0.068 -0.001
0.298 -0.052 -0.001
0.286 -0.048 -0.001
0.282 -0.045 -0.001
0.281 -0.042 -0.001
0.282 -0.039 -0.001
0.283 -0.037 -0.001
0.291 -0.035 -0.001
0.292 -0.033 -0.001
0.288 -0.030 -0.001
0.286 -0.027 -0.001
0.292 -0.025 -0.001
0.293 -0.022 -0.001
0.296 -0.020 -0.001
0.292 -0.017 -0.001
0.294 -0.015 -0.001
0.293 -0.012 -0.001
0.299 -0.009 -0.001
0.306 -0.007 -0.001
0.306 -0.004 -0.001
0.306 -0.001 -0.001
0.305 0.001 -0.001
0.302 0.004 -0.001
0.306 0.007 -0.001
0.305 0.009 -0.001
0.306 0.012 -0.001
0.307 0.015 -0.001
0.309 0.018 -0.001
0.311 0.021 -0.001
0.312 0.024 -0.001
0.313 0.027 -0.001
0.313 0.029 -0.001
0.314 0.032 -0.001
0.314 0.035 -0.001
0.314 0.038 -0.001
0.315 0.041 -0.001
0.316 0.044 -0.001
0.316 0.047 -0.001
0.316 0.050 -0.001
0.316 0.053 -0.001
0.316 0.056 -0.001
0.316 0.059 -0.001
0.314 0.061 -0.001
0.315 0.064 -0.001
0.314 0.067 -0.001
0.312 0.069 -0.001
0.312 0.072 -0.001
0.314 0.076 -0.001
0.314 0.079 -0.001
0.315 0.082 -0.001
0.315 0.085 -0.001
0.313 0.087 -0.001
0.307 0.088 -0.001
0.310 0.092 -0.001
0.306 0.094 -0.001
0.308 0.098 -0.001
0.315 0.103 -0.001
0.323 0.108 -0.001
0.323 0.115 -0.001
0.319 0.116 -0.001
0.320 0.120 -0.001
0.322 0.124 -0.001
0.326 0.129 -0.001
0.328 0.133 -0.001
0.329 0.136 -0.001
0.340 0.145 -0.001
0.350 0.152 -0.001
0.334 0.149 -0.001
0.318 0.145 -0.001
0.329 0.160 -0.001
0.315 0.170 -0.001
0.317 0.182 -0.001
0.327 0.191 -0.001
0.326 0.194 -0.001
0.325 0.197 -0.001
0.323 0.200 -0.001
0.321 0.203 -0.001
0.318 0.204 -0.001
0.316 0.207 -0.001
0.313 0.208 -0.001
0.311 0.211 -0.001
0.310 0.214 -0.001
0.310 0.218 -0.001
1.313 1.041 -0.003
1.308 1.055 -0.003
1.312 1.076 -0.003
1.308 1.091 -0.003
1.307 1.108 -0.003
1.316 1.135 -0.003
1.313 1.191 -0.003
1.324 1.304 -0.003
1.339 1.340 -0.003
1.351 1.375 -0.003
0.489 0.531 -0.001
0.491 0.543 -0.001
0.436 0.490 -0.001
0.493 0.572 -0.001
0.500 0.590 -0.001
0.360 0.446 -0.000
0.357 0.449 -0.000
0.352 0.450 -0.000
0.343 0.446 -0.000
0.167 -0.229 0.002
0.169 -0.230 0.002
0.173 -0.232 0.002
0.177 -0.234 0.002
0.182 -0.237 0.002
0.185 -0.239 0.002
0.187 -0.237 0.002
0.185 -0.231 0.002
0.185 -0.229 0.002
0.189 -0.230 0.002
0.191 -0.229 0.002
0.193 -0.228 0.002
0.196 -0.227 0.002
0.198 -0.227 0.002
0.200 -0.225 0.002
0.201 -0.223 0.002
0.202 -0.221 0.002
0.205 -0.221 0.002
0.207 -0.219 0.002
0.209 -0.218 0.002
0.211 -0.217 0.002
0.214 -0.217 0.002
0.216 -0.216 0.002
0.218 -0.215 0.002
0.221 -0.214 0.002
0.225 -0.214 0.002
0.227 -0.213 0.002
0.229 -0.211 0.002
0.231 -0.210 0.002
0.233 -0.209 0.002
0.237 -0.209 0.002
0.241 -0.209 0.002
0.243 -0.207 0.002
0.245 -0.206 0.002
0.248 -0.205 0.002
0.251 -0.204 0.002
0.260 -0.208 0.002
0.214 -0.166 0.002
0.218 -0.166 0.002
0.216 -0.162 0.002
0.213 -0.157 0.002
0.211 -0.153 0.002
0.211 -0.151 0.002
0.210 -0.148 0.001
0.210 -0.145 0.001
0.208 -0.141 0.001
0.209 -0.139 0.001
0.201 -0.132 0.001
0.211 -0.136 0.001
0.216 -0.137 0.001
0.217 -0.135 0.001
0.216 -0.132 0.001
0.219 -0.131 0.001
0.218 -0.128 0.001
0.219 -0.126 0.001
0.218 -0.124 0.001
0.218 -0.121 0.001
0.216 -0.117 0.001
0.214 -0.114 0.001
0.201 -0.105 0.001
0.210 -0.108 0.001
0.209 -0.105 0.001
0.211 -0.104 0.001
0.208 -0.100 0.001
0.209 -0.099 0.001
0.219 -0.101 0.001
0.221 -0.100 0.001
0.220 -0.097 0.001
0.221 -0.095 0.001
0.225 -0.095 0.001
0.224 -0.092 0.001
0.221 -0.089 0.001
0.218 -0.085 0.001
0.212 -0.081 0.001
0.204 -0.076 0.001
0.224 -0.081 0.001
0.233 -0.082 0.001
0.239 -0.082 0.001
0.240 -0.080 0.001
0.245 -0.079 0.001
0.246 -0.077 0.001
0.249 -0.076 0.001
0.254 -0.075 0.001
0.259 -0.074 0.001
0.398 -0.107 0.002
0.403 -0.104 0.002
0.407 -0.102 0.002
0.416 -0.100 0.002
0.420 -0.097 0.002
0.413 -0.092 0.002
0.400 -0.085 0.002
0.389 -0.079 0.002
0.380 -0.074 0.002
0.302 -0.053 0.002
0.285 -0.048 0.002
0.282 -0.045 0.002
0.282 -0.042 0.002
0.288 -0.040 0.002
0.285 -0.037 0.002
0.292 -0.036 0.002
0.295 -0.033 0.002
0.292 -0.030 0.002
0.286 -0.027 0.002
0.284 -0.024 0.002
0.289 -0.022 0.002
0.292 -0.020 0.002
0.295 -0.017 0.002
0.295 -0.015 0.002
0.298 -0.012 0.002
0.304 -0.010 0.002
0.301 -0.007 0.002
0.298 -0.004 0.002
0.300 -0.001 0.002
0.305 0.001 0.002
0.308 0.004 0.002
0.300 0.007 0.002
0.301 0.009 0.002
0.304 0.012 0.002
0.307 0.015 0.002
0.308 0.018 0.002
0.310 0.021 0.002
0.311 0.024 0.002
0.311 0.027 0.002
0.311 0.029 0.002
0.312 0.032 0.002
0.313 0.035 0.002
0.313 0.038 0.002
0.313 0.041 0.002
0.314 0.044 0.002
0.315 0.047 0.002
0.315 0.050 0.002
0.313 0.052 0.002
0.313 0.055 0.002
0.313 0.058 0.002
0.313 0.061 0.002
0.313 0.064 0.002
0.313 0.067 0.002
0.312 0.069 0.002
0.313 0.072 0.002
0.317 0.076 0.002
0.315 0.079 0.002
0.321 0.083 0.002
0.315 0.085 0.002
0.307 0.086 0.002
0.307 0.089 0.002
0.311 0.093 0.002
0.303 0.093 0.002
0.300 0.095 0.002
0.316 0.103 0.002
0.326 0.110 0.002
0.327 0.113 0.002
0.318 0.113 0.002
0.309 0.113 0.002
0.313 0.118 0.002
0.319 0.123 0.002
0.324 0.128 0.002
0.326 0.132 0.002
0.329 0.137 0.002
0.332 0.141 0.002
0.354 0.154 0.002
0.345 0.154 0.002
0.322 0.157 0.002
0.327 0.163 0.002
0.325 0.165 0.002
0.311 0.168 0.002
0.308 0.170 0.002
0.310 0.174 0.002
0.317 0.182 0.002
0.325 0.190 0.002
0.326 0.194 0.002
0.325 0.197 0.002
0.323 0.200 0.002
0.320 0.202 0.002
0.318 0.204 0.002
0.315 0.206 0.002
0.313 0.209 0.002
0.311 0.211 0.002
0.311 0.215 0.002
0.310 0.218 0.002
1.327 1.035 0.010
1.313 1.041 0.010
1.316 1.061 0.010
1.318 1.081 0.010
1.312 1.095 0.010
1.313 1.113 0.010
1.319 1.137 0.011
1.317 1.155 0.011
1.326 1.183 0.011
1.320 1.300 0.012
1.364 1.365 0.012
1.346 1.370 0.012
0.424 0.477 0.004
0.354 0.425 0.004
0.358 0.437 0.004
0.359 0.445 0.004
0.352 0.443 0.004
0.350 0.448 0.004
0.348 0.453 0.004
0.172 -0.236 0.004
0.176 -0.239 0.004
0.178 -0.239 0.004
0.182 -0.241 0.004
0.185 -0.242 0.004
0.186 -0.240 0.004
0.185 -0.234 0.004
0.185 -0.232 0.004
0.185 -0.229 0.004
0.188 -0.229 0.004
0.191 -0.228 0.004
0.193 -0.228 0.004
0.195 -0.227 0.004
0.197 -0.226 0.004
0.199 -0.225 0.004
0.201 -0.223 0.004
0.203 -0.222 0.004
0.205 -0.221 0.004
0.207 -0.220 0.004
0.209 -0.219 0.004
0.211 -0.218 0.004
0.214 -0.217 0.004
0.216 -0.216 0.004
0.218 -0.214 0.004
0.221 -0.214 0.004
0.224 -0.213 0.004
0.226 -0.212 0.004
0.229 -0.211 0.004
0.231 -0.210 0.004
0.233 -0.209 0.004
0.237 -0.209 0.004
0.240 -0.208 0.004
0.243 -0.207 0.004
0.245 -0.206 0.004
0.248 -0.205 0.004
0.251 -0.204 0.004
0.254 -0.203 0.004
0.210 -0.163 0.004
0.202 -0.155 0.004
0.206 -0.154 0.004
0.209 -0.154 0.004
0.208 -0.151 0.004
0.208 -0.149 0.004
0.207 -0.145 0.003
0.208 -0.143 0.003
0.207 -0.140 0.003
0.207 -0.138 0.003
0.207 -0.136 0.003
0.204 -0.131 0.003
0.209 -0.132 0.003
0.218 -0.135 0.004
0.222 -0.135 0.004
0.220 -0.132 0.004
0.216 -0.127 0.003
0.216 -0.125 0.003
0.216 -0.122 0.003
0.216 -0.120 0.003
0.216 -0.117 0.003
0.204 -0.109 0.003
0.205 -0.107 0.003
0.203 -0.104 0.003
0.208 -0.105 0.003
0.207 -0.102 0.003
0.206 -0.099 0.003
0.206 -0.097 0.003
0.203 -0.094 0.003
0.215 -0.097 0.003
0.218 -0.096 0.003
0.222 -0.096 0.003
0.226 -0.095 0.003
0.223 -0.092 0.003
0.221 -0.089 0.003
0.215 -0.084 0.003
0.213 -0.081 0.003
0.213 -0.079 0.003
0.223 -0.081 0.003
0.232 -0.082 0.003
0.239 -0.082 0.004
0.243 -0.081 0.004
0.244 -0.079 0.004
0.252 -0.079 0.004
0.254 -0.078 0.004
0.259 -0.077 0.004
0.262 -0.075 0.004
0.379 -0.105 0.006
0.397 -0.106 0.006
0.403 -0.104 0.006
0.410 -0.102 0.006
0.417 -0.100 0.006
0.421 -0.097 0.006
0.414 -0.092 0.006
0.389 -0.083 0.006
0.380 -0.077 0.006
0.373 -0.072 0.005
0.286 -0.048 0.004
0.282 -0.045 0.004
0.284 -0.042 0.004
0.288 -0.040 0.004
0.289 -0.038 0.004
0.289 -0.035 0.004
0.293 -0.033 0.004
0.291 -0.030 0.004
0.286 -0.027 0.004
0.283 -0.024 0.004
0.283 -0.022 0.004
0.291 -0.020 0.004
0.292 -0.017 0.004
0.301 -0.015 0.004
0.296 -0.012 0.004
0.305 -0.010 0.004
0.301 -0.007 0.004
0.294 -0.004 0.004
0.294 -0.001 0.004
0.303 0.001 0.004
0.309 0.004 0.004
0.313 0.007 0.005
0.300 0.009 0.004
0.302 0.012 0.004
0.305 0.015 0.004
0.306 0.018 0.004
0.309 0.021 0.004
0.310 0.024 0.005
0.310 0.026 0.005
0.310 0.029 0.005
0.310 0.032 0.005
0.311 0.035 0.005
0.312 0.038 0.005
0.312 0.041 0.005
0.312 0.044 0.005
0.313 0.047 0.005
0.313 0.049 0.005
0.313 0.052 0.005
0.312 0.055 0.005
0.311 0.058 0.005
0.312 0.061 0.005
0.310 0.063 0.005
0.309 0.066 0.005
0.312 0.069 0.005
0.324 0.075 0.005
0.316 0.076 0.005
0.322 0.081 0.005
0.327 0.085 0.005
0.320 0.086 0.005
0.313 0.087 0.005
0.307 0.089 0.005
0.308 0.092 0.005
0.303 0.093 0.005
0.302 0.096 0.005
0.313 0.102 0.005
0.329 0.111 0.005
0.326 0.113 0.005
0.314 0.112 0.005
0.321 0.117 0.005
0.319 0.120 0.005
0.322 0.124 0.005
0.326 0.129 0.005
0.323 0.131 0.005
0.326 0.135 0.005
0.353 0.150 0.005
0.354 0.154 0.005
0.346 0.154 0.005
0.332 0.151 0.005
0.315 0.147 0.005
0.328 0.156 0.005
0.324 0.158 0.005
0.331 0.165 0.005
0.329 0.171 0.005
0.319 0.169 0.005
0.304 0.164 0.005
0.302 0.167 0.005
0.328 0.188 0.005
0.325 0.190 0.005
0.325 0.194 0.005
0.324 0.197 0.005
0.322 0.200 0.005
0.319 0.201 0.005
0.317 0.203 0.005
0.316 0.207 0.005
0.314 0.209 0.005
0.312 0.211 0.005
0.310 0.214 0.005
0.309 0.217 0.005
1.321 1.047 0.024
1.306 1.053 0.023
1.313 1.077 0.024
1.319 1.100 0.024
1.318 1.118 0.024
1.320 1.139 0.024
1.347 1.181 0.025
1.349 1.203 0.025
1.328 1.224 0.025
1.319 1.278 0.026
1.333 1.313 0.026
1.372 1.374 0.027
1.376 1.401 0.028
1.366 1.438 0.028
0.349 0.399 0.007
0.346 0.402 0.008
0.356 0.427 0.008
0.361 0.441 0.008
0.362 0.449 0.008
0.348 0.439 0.008
0.338 0.433 0.008
0.170 -0.234 0.006
0.177 -0.240 0.006
0.183 -0.245 0.006
0.181 -0.240 0.006
0.181 -0.237 0.006
0.183 -0.236 0.006
0.184 -0.234 0.006
0.186 -0.233 0.006
0.188 -0.232 0.006
0.190 -0.231 0.006
0.190 -0.228 0.006
0.192 -0.226 0.006
0.195 -0.226 0.006
0.197 -0.225 0.006
0.199 -0.224 0.006
0.201 -0.224 0.006
0.203 -0.222 0.006
0.205 -0.221 0.006
0.208 -0.221 0.006
0.209 -0.219 0.006
0.211 -0.218 0.006
0.214 -0.217 0.007
0.216 -0.216 0.007
0.218 -0.214 0.007
0.220 -0.213 0.007
0.224 -0.213 0.007
0.226 -0.212 0.007
0.229 -0.211 0.007
0.232 -0.211 0.007
0.234 -0.210 0.007
0.236 -0.208 0.007
0.239 -0.208 0.007
0.242 -0.207 0.007
0.245 -0.206 0.007
0.247 -0.204 0.007
0.249 -0.203 0.007
0.249 -0.200 0.007
0.215 -0.167 0.006
0.204 -0.156 0.006
0.204 -0.153 0.006
0.205 -0.151 0.006
0.206 -0.150 0.006
0.207 -0.148 0.006
0.208 -0.146 0.006
0.208 -0.143 0.006
0.205 -0.139 0.005
0.207 -0.138 0.005
0.207 -0.136 0.005
0.207 -0.134 0.005
0.208 -0.132 0.005
0.217 -0.135 0.006
0.220 -0.134 0.006
0.219 -0.131 0.006
0.214 -0.126 0.006
0.215 -0.124 0.006
0.216 -0.122 0.006
0.218 -0.121 0.006
0.218 -0.119 0.006
0.216 -0.115 0.005
0.212 -0.111 0.005
0.210 -0.108 0.005
0.211 -0.106 0.005
0.210 -0.103 0.005
0.210 -0.101 0.005
0.215 -0.101 0.005
0.212 -0.098 0.005
0.212 -0.096 0.005
0.217 -0.096 0.005
0.223 -0.096 0.006
0.225 -0.095 0.006
0.224 -0.092 0.005
0.215 -0.087 0.005
0.216 -0.085 0.005
0.214 -0.082 0.005
0.216 -0.081 0.005
0.222 -0.080 0.005
0.232 -0.082 0.006
0.239 -0.082 0.006
0.238 -0.080 0.006
0.239 -0.078 0.006
0.245 -0.077 0.006
0.260 -0.080 0.006
0.262 -0.078 0.006
0.262 -0.075 0.006
0.381 -0.106 0.009
0.393 -0.105 0.009
0.405 -0.105 0.010
0.410 -0.102 0.010
0.414 -0.100 0.010
0.418 -0.097 0.010
0.411 -0.091 0.010
0.382 -0.081 0.009
0.372 -0.076 0.009
0.368 -0.071 0.009
0.287 -0.048 0.007
0.282 -0.045 0.007
0.282 -0.042 0.007
0.287 -0.040 0.007
0.288 -0.038 0.007
0.288 -0.035 0.007
0.290 -0.033 0.007
0.291 -0.030 0.007
0.288 -0.027 0.007
0.286 -0.025 0.007
0.283 -0.022 0.007
0.285 -0.019 0.007
0.297 -0.017 0.007
0.291 -0.014 0.007
0.297 -0.012 0.007
0.298 -0.009 0.007
0.299 -0.007 0.007
0.301 -0.004 0.007
0.300 -0.001 0.007
0.302 0.001 0.007
0.310 0.004 0.007
0.310 0.007 0.007
0.311 0.010 0.007
0.302 0.012 0.007
0.302 0.015 0.007
0.303 0.018 0.007
0.307 0.021 0.007
0.309 0.024 0.007
0.309 0.026 0.007
0.309 0.029 0.007
0.308 0.032 0.007
0.310 0.035 0.007
0.310 0.038 0.007
0.310 0.040 0.007
0.311 0.043 0.007
0.311 0.046 0.007
0.312 0.049 0.007
0.312 0.052 0.007
0.311 0.055 0.007
0.310 0.057 0.007
0.309 0.060 0.007
0.309 0.063 0.007
0.322 0.069 0.008
0.313 0.070 0.007
0.308 0.071 0.007
0.312 0.075 0.007
0.320 0.080 0.008
0.325 0.084 0.008
0.323 0.087 0.008
0.319 0.089 0.008
0.314 0.091 0.008
0.301 0.090 0.007
0.297 0.091 0.007
0.301 0.095 0.007
0.313 0.102 0.008
0.323 0.108 0.008
0.319 0.110 0.008
0.311 0.111 0.008
0.316 0.115 0.008
0.322 0.121 0.008
0.323 0.124 0.008
0.324 0.128 0.008
0.332 0.134 0.008
0.338 0.141 0.008
0.354 0.151 0.009
0.360 0.157 0.009
0.342 0.152 0.009
0.331 0.151 0.008
0.324 0.154 0.008
0.335 0.163 0.008
0.334 0.166 0.008
0.336 0.174 0.009
0.307 0.166 0.008
0.305 0.168 0.008
0.322 0.181 0.008
0.329 0.189 0.009
0.325 0.190 0.008
0.325 0.194 0.008
0.323 0.196 0.008
0.321 0.199 0.008
0.320 0.202 0.008
0.318 0.204 0.008
0.316 0.207 0.008
0.314 0.209 0.008
0.311 0.211 0.008
0.309 0.213 0.008
0.306 0.215 0.008
0.303 0.217 0.008
0.356 0.394 0.012
0.357 0.402 0.012
0.356 0.407 0.012
0.350 0.406 0.012
0.173 -0.238 0.008
0.179 -0.243 0.009
0.178 -0.238 0.008
0.179 -0.236 0.008
0.182 -0.237 0.008
0.183 -0.235 0.008
0.184 -0.233 0.008
0.186 -0.232 0.008
0.188 -0.232 0.009
0.189 -0.230 0.009
0.190 -0.228 0.008
0.192 -0.226 0.008
0.193 -0.225 0.008
0.196 -0.225 0.009
0.199 -0.224 0.009
0.201 -0.223 0.009
0.203 -0.222 0.009
0.205 -0.221 0.009
0.207 -0.220 0.009
0.208 -0.218 0.009
0.210 -0.216 0.009
0.214 -0.217 0.009
0.216 -0.216 0.009
0.218 -0.215 0.009
0.222 -0.215 0.009
0.224 -0.214 0.009
0.226 -0.212 0.009
0.229 -0.211 0.009
0.232 -0.211 0.009
0.233 -0.209 0.009
0.237 -0.209 0.009
0.240 -0.208 0.009
0.242 -0.207 0.009
0.244 -0.205 0.009
0.246 -0.204 0.009
0.249 -0.203 0.009
0.249 -0.200 0.009
0.231 -0.182 0.009
0.220 -0.171 0.008
0.212 -0.161 0.008
0.206 -0.155 0.008
0.204 -0.151 0.008
0.206 -0.150 0.008
0.208 -0.149 0.008
0.214 -0.150 0.008
0.210 -0.145 0.008
0.206 -0.140 0.007
0.206 -0.137 0.007
0.208 -0.136 0.007
0.207 -0.133 0.007
0.207 -0.131 0.007
0.203 -0.126 0.007
0.214 -0.130 0.008
0.214 -0.128 0.008
0.214 -0.126 0.008
0.213 -0.123 0.007
0.219 -0.124 0.008
0.217 -0.120 0.008
0.218 -0.119 0.008
0.222 -0.119 0.008
0.205 -0.107 0.007
0.204 -0.105 0.007
0.204 -0.103 0.007
0.213 -0.105 0.007
0.206 -0.099 0.007
0.209 -0.099 0.007
0.207 -0.096 0.007
0.211 -0.095 0.007
0.218 -0.096 0.007
0.224 -0.097 0.008
0.224 -0.095 0.008
0.220 -0.090 0.007
0.211 -0.085 0.007
0.212 -0.083 0.007
0.213 -0.081 0.007
0.201 -0.075 0.007
0.222 -0.081 0.007
0.235 -0.083 0.008
0.242 -0.083 0.008
0.243 -0.081 0.008
0.239 -0.078 0.008
0.244 -0.077 0.008
0.255 -0.078 0.008
0.262 -0.078 0.009
0.265 -0.076 0.009
0.386 -0.107 0.013
0.402 -0.108 0.013
0.408 -0.106 0.013
0.411 -0.103 0.014
0.410 -0.098 0.013
0.415 -0.096 0.014
0.406 -0.090 0.013
0.383 -0.081 0.013
0.369 -0.075 0.012
0.368 -0.072 0.012
0.286 -0.048 0.009
0.280 -0.044 0.009
0.282 -0.042 0.009
0.286 -0.040 0.009
0.288 -0.038 0.009
0.288 -0.035 0.009
0.289 -0.033 0.009
0.291 -0.030 0.009
0.291 -0.028 0.009
0.290 -0.025 0.009
0.288 -0.022 0.009
0.286 -0.019 0.009
0.290 -0.017 0.009
0.296 -0.015 0.010
0.298 -0.012 0.010
0.302 -0.010 0.010
0.302 -0.007 0.010
0.312 -0.004 0.010
0.311 -0.001 0.010
0.308 0.001 0.010
0.308 0.004 0.010
0.309 0.007 0.010
0.307 0.010 0.010
0.309 0.012 0.010
0.315 0.015 0.010
0.308 0.018 0.010
0.302 0.020 0.010
0.304 0.023 0.010
0.305 0.026 0.010
0.305 0.029 0.010
0.308 0.032 0.010
0.308 0.035 0.010
0.308 0.037 0.010
0.308 0.040 0.010
0.309 0.043 0.010
0.310 0.046 0.010
0.310 0.049 0.010
0.310 0.052 0.010
0.308 0.054 0.010
0.308 0.057 0.010
0.312 0.061 0.010
0.325 0.066 0.011
0.322 0.069 0.011
0.311 0.069 0.010
0.305 0.071 0.010
0.308 0.074 0.010
0.315 0.079 0.010
0.312 0.081 0.010
0.315 0.085 0.010
0.319 0.089 0.011
0.316 0.091 0.011
0.304 0.090 0.010
0.298 0.092 0.010
0.304 0.096 0.010
0.320 0.104 0.011
0.322 0.108 0.011
0.318 0.110 0.011
0.310 0.110 0.010
0.313 0.114 0.011
0.320 0.120 0.011
0.321 0.124 0.011
0.332 0.131 0.011
0.373 0.162 0.013
0.353 0.157 0.012
0.346 0.158 0.012
0.345 0.168 0.012
0.346 0.172 0.012
0.341 0.174 0.012
0.335 0.174 0.012
0.345 0.183 0.012
0.322 0.174 0.011
0.314 0.173 0.011
0.317 0.178 0.011
0.327 0.188 0.012
0.326 0.191 0.012
0.325 0.194 0.012
0.323 0.196 0.012
0.321 0.199 0.012
0.320 0.202 0.012
0.318 0.204 0.012
0.316 0.207 0.011
0.313 0.209 0.011
0.311 0.211 0.011
0.308 0.213 0.011
0.306 0.215 0.011
0.316 0.226 0.012
0.351 0.260 0.013
0.346 0.261 0.013
0.340 0.260 0.013
0.389 0.309 0.015
0.432 0.440 0.018
0.435 0.451 0.018
0.369 0.402 0.016
0.359 0.397 0.016
0.365 0.410 0.016
0.365 0.417 0.016
0.499 0.589 0.023
0.495 0.595 0.023
0.435 0.539 0.020
0.370 0.481 0.018
0.177 -0.244 0.011
0.176 -0.240 0.011
0.177 -0.238 0.010
0.179 -0.237 0.011
0.181 -0.236 0.011
0.182 -0.235 0.011
0.183 -0.233 0.011
0.184 -0.231 0.011
0.186 -0.230 0.011
0.188 -0.229 0.011
0.190 -0.228 0.011
0.193 -0.228 0.011
0.194 -0.225 0.011
0.196 -0.225 0.011
0.199 -0.224 0.011
0.200 -0.223 0.011
0.203 -0.222 0.011
0.205 -0.221 0.011
0.207 -0.220 0.011
0.208 -0.218 0.011
0.209 -0.216 0.011
0.213 -0.217 0.011
0.216 -0.216 0.011
0.219 -0.215 0.011
0.221 -0.214 0.011
0.224 -0.214 0.011
0.226 -0.213 0.011
0.229 -0.212 0.012
0.231 -0.210 0.012
0.234 -0.210 0.012
0.238 -0.210 0.012
0.240 -0.209 0.012
0.242 -0.207 0.012
0.245 -0.206 0.012
0.246 -0.204 0.012
0.248 -0.202 0.012
0.251 -0.201 0.012
0.223 -0.173 0.011
0.213 -0.163 0.010
0.207 -0.156 0.010
0.204 -0.151 0.010
0.204 -0.148 0.010
0.211 -0.151 0.010
0.212 -0.149 0.010
0.212 -0.146 0.010
0.206 -0.140 0.010
0.207 -0.138 0.010
0.208 -0.136 0.010
0.207 -0.133 0.009
0.206 -0.131 0.009
0.210 -0.130 0.010
0.207 -0.127 0.009
0.213 -0.128 0.010
0.211 -0.124 0.010
0.212 -0.122 0.009
0.214 -0.121 0.010
0.220 -0.122 0.010
0.218 -0.119 0.010
0.217 -0.116 0.010
0.223 -0.117 0.010
0.203 -0.104 0.009
0.206 -0.104 0.009
0.208 -0.102 0.009
0.218 -0.105 0.010
0.204 -0.096 0.009
0.206 -0.095 0.009
0.212 -0.096 0.009
0.219 -0.097 0.010
0.225 -0.097 0.010
0.224 -0.095 0.010
0.220 -0.091 0.010
0.219 -0.088 0.009
0.211 -0.083 0.009
0.210 -0.080 0.009
0.210 -0.078 0.009
0.224 -0.082 0.010
0.235 -0.083 0.010
0.240 -0.083 0.010
0.243 -0.081 0.010
0.250 -0.081 0.011
0.253 -0.080 0.011
0.251 -0.077 0.011
0.255 -0.076 0.011
0.269 -0.077 0.011
0.400 -0.107 0.017
0.409 -0.106 0.017
0.414 -0.103 0.017
0.414 -0.100 0.017
0.409 -0.095 0.017
0.401 -0.089 0.017
0.371 -0.079 0.016
0.387 -0.079 0.016
0.372 -0.072 0.016
0.303 -0.053 0.013
0.290 -0.048 0.012
0.282 -0.045 0.012
0.283 -0.042 0.012
0.287 -0.040 0.012
0.289 -0.038 0.012
0.288 -0.035 0.012
0.288 -0.032 0.012
0.289 -0.030 0.012
0.292 -0.028 0.012
0.294 -0.025 0.012
0.288 -0.022 0.012
0.288 -0.020 0.012
0.291 -0.017 0.012
0.298 -0.015 0.012
0.299 -0.012 0.012
0.305 -0.010 0.013
0.307 -0.007 0.013
0.308 -0.004 0.013
0.305 -0.001 0.013
0.305 0.001 0.013
0.307 0.004 0.013
0.305 0.007 0.013
0.295 0.009 0.012
0.304 0.012 0.013
0.309 0.015 0.013
0.312 0.018 0.013
0.310 0.021 0.013
0.306 0.023 0.013
0.303 0.026 0.013
0.303 0.029 0.013
0.304 0.031 0.013
0.306 0.034 0.013
0.308 0.037 0.013
0.307 0.040 0.013
0.308 0.043 0.013
0.307 0.046 0.013
0.308 0.049 0.013
0.309 0.052 0.013
0.317 0.056 0.013
0.317 0.059 0.013
0.325 0.063 0.014
0.321 0.065 0.013
0.314 0.067 0.013
0.312 0.069 0.013
0.313 0.073 0.013
0.313 0.076 0.013
0.312 0.078 0.013
0.299 0.078 0.013
0.297 0.080 0.013
0.304 0.085 0.013
0.307 0.088 0.013
0.307 0.091 0.013
0.313 0.096 0.013
0.309 0.098 0.013
0.318 0.104 0.014
0.321 0.108 0.014
0.315 0.109 0.013
0.309 0.110 0.013
0.316 0.116 0.014
0.316 0.119 0.014
0.321 0.124 0.014
0.329 0.130 0.014
0.388 0.157 0.017
0.401 0.166 0.017
0.406 0.173 0.018
0.401 0.175 0.017
0.391 0.174 0.017
0.385 0.176 0.017
0.374 0.174 0.016
0.370 0.176 0.016
0.364 0.178 0.016
0.360 0.179 0.016
0.363 0.185 0.016
0.361 0.187 0.016
0.346 0.184 0.015
0.333 0.180 0.015
0.317 0.175 0.014
0.314 0.177 0.014
0.324 0.186 0.015
0.328 0.192 0.015
0.326 0.194 0.015
0.323 0.196 0.015
0.321 0.199 0.015
0.319 0.201 0.015
0.317 0.204 0.015
0.315 0.206 0.015
0.313 0.209 0.015
0.310 0.210 0.014
0.308 0.213 0.014
0.307 0.216 0.014
0.326 0.233 0.015
0.331 0.241 0.016
0.336 0.249 0.016
0.334 0.252 0.016
0.326 0.250 0.016
0.325 0.254 0.016
0.425 0.349 0.021
0.429 0.359 0.021
0.417 0.354 0.021
0.418 0.361 0.021
0.443 0.416 0.023
0.438 0.418 0.023
0.450 0.436 0.023
0.452 0.446 0.024
0.452 0.453 0.024
0.444 0.452 0.023
0.443 0.459 0.024
0.365 0.398 0.020
0.409 0.460 0.023
0.416 0.476 0.023
0.500 0.591 0.028
0.496 0.596 0.028
0.361 0.462 0.021
0.172 -0.237 0.012
0.175 -0.238 0.013
0.177 -0.238 0.013
0.179 -0.237 0.013
0.180 -0.235 0.013
0.182 -0.234 0.013
0.183 -0.232 0.013
0.186 -0.233 0.013
0.186 -0.229 0.013
0.188 -0.229 0.013
0.191 -0.229 0.013
0.193 -0.228 0.013
0.195 -0.226 0.013
0.196 -0.225 0.013
0.198 -0.224 0.013
0.200 -0.222 0.013
0.203 -0.222 0.013
0.205 -0.221 0.013
0.207 -0.220 0.013
0.209 -0.219 0.013
0.212 -0.218 0.013
0.214 -0.217 0.013
0.217 -0.217 0.014
0.219 -0.215 0.014
0.221 -0.214 0.014
0.224 -0.214 0.014
0.227 -0.213 0.014
0.229 -0.212 0.014
0.231 -0.211 0.014
0.234 -0.210 0.014
0.237 -0.210 0.014
0.240 -0.208 0.014
0.242 -0.207 0.014
0.245 -0.206 0.014
0.248 -0.205 0.015
0.248 -0.202 0.014
0.248 -0.199 0.014
0.243 -0.192 0.014
0.224 -0.174 0.013
0.213 -0.163 0.012
0.206 -0.155 0.012
0.201 -0.149 0.011
0.205 -0.149 0.012
0.206 -0.147 0.012
0.209 -0.147 0.012
0.207 -0.143 0.012
0.207 -0.140 0.012
0.205 -0.137 0.011
0.205 -0.135 0.011
0.205 -0.132 0.011
0.206 -0.130 0.011
0.210 -0.130 0.012
0.213 -0.130 0.012
0.211 -0.126 0.012
0.210 -0.124 0.011
0.209 -0.121 0.011
0.211 -0.120 0.011
0.217 -0.120 0.012
0.217 -0.118 0.012
0.211 -0.113 0.011
0.212 -0.111 0.011
0.209 -0.107 0.011
0.208 -0.105 0.011
0.212 -0.105 0.011
0.215 -0.104 0.011
0.216 -0.102 0.011
0.211 -0.098 0.011
0.214 -0.097 0.011
0.217 -0.096 0.011
0.223 -0.096 0.012
0.225 -0.095 0.012
0.223 -0.092 0.012
0.218 -0.088 0.011
0.214 -0.084 0.011
0.215 -0.082 0.011
0.212 -0.079 0.011
0.225 -0.082 0.012
0.234 -0.083 0.012
0.234 -0.081 0.012
0.234 -0.078 0.012
0.245 -0.080 0.013
0.254 -0.080 0.013
0.254 -0.078 0.013
0.250 -0.074 0.013
0.267 -0.077 0.014
0.398 -0.107 0.020
0.402 -0.104 0.021
0.417 -0.104 0.021
0.417 -0.100 0.021
0.412 -0.095 0.021
0.368 -0.082 0.019
0.359 -0.076 0.018
0.373 -0.076 0.019
0.371 -0.072 0.019
0.284 -0.047 0.014
0.285 -0.045 0.014
0.285 -0.042 0.014
0.286 -0.040 0.015
0.287 -0.038 0.015
0.287 -0.035 0.015
0.286 -0.032 0.014
0.287 -0.030 0.014
0.291 -0.028 0.015
0.303 -0.026 0.015
0.292 -0.022 0.015
0.289 -0.020 0.015
0.294 -0.017 0.015
0.299 -0.015 0.015
0.302 -0.012 0.015
0.303 -0.010 0.015
0.312 -0.007 0.016
0.307 -0.004 0.015
0.306 -0.001 0.015
0.307 0.001 0.015
0.306 0.004 0.015
0.302 0.007 0.015
0.298 0.009 0.015
0.296 0.012 0.015
0.300 0.015 0.015
0.307 0.018 0.016
0.309 0.021 0.016
0.308 0.023 0.016
0.311 0.026 0.016
0.317 0.030 0.016
0.312 0.032 0.016
0.313 0.035 0.016
0.318 0.039 0.016
0.317 0.041 0.016
0.311 0.043 0.016
0.315 0.047 0.016
0.315 0.050 0.016
0.315 0.053 0.016
0.318 0.056 0.016
0.313 0.058 0.016
0.311 0.060 0.016
0.314 0.064 0.016
0.317 0.068 0.016
0.314 0.070 0.016
0.316 0.073 0.016
0.312 0.075 0.016
0.302 0.076 0.016
0.299 0.078 0.015
0.292 0.079 0.015
0.287 0.080 0.015
0.299 0.086 0.015
0.314 0.094 0.016
0.316 0.097 0.016
0.308 0.098 0.016
0.316 0.103 0.016
0.323 0.109 0.017
0.319 0.110 0.017
0.315 0.112 0.016
0.316 0.116 0.017
0.320 0.120 0.017
0.316 0.122 0.017
0.328 0.130 0.017
0.412 0.171 0.022
0.417 0.177 0.022
0.405 0.177 0.021
0.398 0.178 0.021
0.392 0.179 0.021
0.382 0.178 0.020
0.374 0.178 0.020
0.368 0.180 0.020
0.366 0.182 0.020
0.363 0.185 0.020
0.361 0.187 0.019
0.345 0.183 0.019
0.333 0.180 0.018
0.323 0.178 0.018
0.322 0.181 0.018
0.328 0.188 0.018
0.328 0.192 0.018
0.325 0.194 0.018
0.323 0.196 0.018
0.320 0.199 0.018
0.318 0.201 0.018
0.316 0.203 0.018
0.313 0.205 0.018
0.310 0.207 0.017
0.308 0.209 0.017
0.307 0.212 0.017
0.307 0.216 0.017
0.321 0.230 0.018
0.321 0.234 0.018
0.320 0.242 0.019
0.314 0.241 0.018
0.316 0.246 0.018
0.437 0.359 0.026
0.436 0.364 0.026
0.423 0.359 0.025
0.410 0.354 0.025
0.449 0.428 0.028
0.451 0.437 0.028
0.452 0.446 0.029
0.452 0.453 0.029
0.450 0.458 0.029
0.446 0.462 0.029
0.433 0.480 0.029
0.418 0.471 0.028
0.415 0.475 0.028
0.325 0.423 0.023
0.172 -0.236 0.014
0.176 -0.239 0.015
0.177 -0.238 0.015
0.178 -0.236 0.015
0.180 -0.235 0.015
0.182 -0.235 0.015
0.186 -0.236 0.015
0.187 -0.235 0.015
0.187 -0.231 0.015
0.188 -0.229 0.015
0.191 -0.229 0.015
0.193 -0.228 0.015
0.194 -0.226 0.015
0.196 -0.225 0.015
0.198 -0.224 0.015
0.200 -0.223 0.015
0.202 -0.221 0.015
0.205 -0.221 0.015
0.207 -0.220 0.016
0.210 -0.219 0.016
0.211 -0.218 0.016
0.214 -0.218 0.016
0.217 -0.217 0.016
0.219 -0.215 0.016
0.221 -0.214 0.016
0.223 -0.213 0.016
0.226 -0.213 0.016
0.229 -0.212 0.016
0.231 -0.210 0.016
0.233 -0.209 0.016
0.237 -0.209 0.017
0.239 -0.208 0.017
0.242 -0.207 0.017
0.246 -0.207 0.017
0.248 -0.205 0.017
0.249 -0.203 0.017
0.250 -0.200 0.017
0.239 -0.189 0.016
0.217 -0.168 0.015
0.212 -0.162 0.014
0.204 -0.154 0.014
0.202 -0.150 0.014
0.203 -0.148 0.014
0.209 -0.149 0.014
0.208 -0.147 0.014
0.209 -0.145 0.014
0.208 -0.141 0.014
0.202 -0.135 0.013
0.199 -0.131 0.013
0.205 -0.132 0.013
0.202 -0.128 0.013
0.199 -0.124 0.013
0.206 -0.126 0.013
0.208 -0.125 0.013
0.210 -0.123 0.013
0.210 -0.121 0.013
0.216 -0.122 0.014
0.217 -0.121 0.014
0.218 -0.119 0.014
0.217 -0.116 0.014
0.213 -0.112 0.013
0.211 -0.109 0.013
0.198 -0.100 0.012
0.208 -0.103 0.013
0.203 -0.098 0.013
0.208 -0.098 0.013
0.205 -0.095 0.013
0.204 -0.092 0.013
0.209 -0.092 0.013
0.218 -0.094 0.014
0.222 -0.094 0.014
0.222 -0.092 0.014
0.219 -0.088 0.013
0.219 -0.086 0.013
0.210 -0.080 0.013
0.211 -0.079 0.013
0.215 -0.078 0.013
0.230 -0.081 0.014
0.229 -0.079 0.014
0.231 -0.077 0.014
0.236 -0.077 0.014
0.249 -0.079 0.015
0.252 -0.077 0.015
0.259 -0.077 0.016
0.268 -0.077 0.016
0.400 -0.107 0.024
0.405 -0.105 0.024
0.415 -0.104 0.025
0.421 -0.101 0.025
0.414 -0.096 0.025
0.368 -0.082 0.022
0.352 -0.075 0.021
0.364 -0.074 0.022
0.369 -0.072 0.022
0.357 -0.066 0.021
0.283 -0.047 0.017
0.283 -0.045 0.017
0.284 -0.042 0.017
0.284 -0.040 0.017
0.287 -0.038 0.017
0.288 -0.035 0.017
0.287 -0.032 0.017
0.287 -0.030 0.017
0.289 -0.027 0.017
0.299 -0.026 0.018
0.293 -0.022 0.017
0.290 -0.020 0.017
0.294 -0.017 0.017
0.300 -0.015 0.018
0.300 -0.012 0.018
0.299 -0.009 0.018
0.293 -0.007 0.017
0.316 -0.004 0.019
0.317 -0.002 0.019
0.307 0.001 0.018
0.301 0.004 0.018
0.302 0.007 0.018
0.300 0.009 0.018
0.294 0.012 0.017
0.296 0.015 0.018
0.304 0.018 0.018
0.309 0.021 0.018
0.307 0.023 0.018
0.302 0.026 0.018
0.311 0.029 0.019
0.314 0.033 0.019
0.317 0.036 0.019
0.315 0.038 0.019
0.312 0.041 0.019
0.313 0.044 0.019
0.311 0.046 0.019
0.315 0.050 0.019
0.317 0.053 0.019
0.315 0.056 0.019
0.313 0.058 0.019
0.306 0.060 0.018
0.309 0.063 0.019
0.317 0.068 0.019
0.317 0.070 0.019
0.314 0.073 0.019
0.300 0.072 0.018
0.296 0.074 0.018
0.298 0.078 0.018
0.311 0.084 0.019
0.298 0.083 0.018
0.310 0.089 0.019
0.321 0.096 0.020
0.312 0.096 0.019
0.311 0.099 0.019
0.315 0.103 0.019
0.323 0.109 0.020
0.326 0.113 0.020
0.318 0.113 0.020
0.319 0.117 0.020
0.314 0.118 0.019
0.316 0.122 0.019
0.323 0.128 0.020
0.424 0.176 0.026
0.417 0.178 0.026
0.410 0.179 0.026
0.402 0.179 0.025
0.392 0.179 0.025
0.379 0.177 0.024
0.373 0.178 0.023
0.366 0.178 0.023
0.361 0.180 0.023
0.359 0.183 0.023
0.349 0.181 0.022
0.342 0.181 0.022
0.337 0.182 0.022
0.330 0.182 0.021
0.326 0.184 0.021
0.326 0.187 0.021
0.324 0.190 0.021
0.321 0.191 0.021
0.321 0.195 0.021
0.318 0.197 0.021
0.317 0.200 0.021
0.314 0.202 0.021
0.308 0.202 0.020
0.306 0.204 0.020
0.306 0.208 0.020
0.305 0.211 0.020
0.303 0.213 0.020
0.301 0.216 0.020
0.298 0.217 0.020
0.296 0.220 0.020
0.295 0.223 0.020
0.294 0.226 0.020
0.296 0.231 0.020
0.294 0.234 0.020
0.278 0.248 0.020
0.276 0.251 0.020
0.448 0.435 0.033
0.445 0.439 0.033
0.387 0.401 0.029
0.426 0.472 0.033
0.411 0.463 0.032
0.312 0.381 0.025
0.316 0.406 0.026
0.305 0.397 0.026
0.177 -0.245 0.017
0.177 -0.241 0.017
0.177 -0.238 0.017
0.178 -0.236 0.017
0.180 -0.235 0.017
0.182 -0.235 0.017
0.185 -0.235 0.017
0.186 -0.233 0.017
0.186 -0.230 0.017
0.189 -0.230 0.017
0.191 -0.229 0.017
0.193 -0.228 0.017
0.194 -0.226 0.017
0.196 -0.225 0.017
0.199 -0.225 0.018
0.200 -0.223 0.018
0.201 -0.221 0.018
0.204 -0.220 0.018
0.207 -0.220 0.018
0.209 -0.219 0.018
0.212 -0.218 0.018
0.214 -0.217 0.018
0.216 -0.216 0.018
0.218 -0.215 0.018
0.220 -0.213 0.018
0.223 -0.213 0.018
0.226 -0.212 0.019
0.228 -0.211 0.019
0.231 -0.211 0.019
0.233 -0.209 0.019
0.236 -0.208 0.019
0.240 -0.208 0.019
0.243 -0.208 0.019
0.246 -0.207 0.020
0.247 -0.205 0.020
0.249 -0.203 0.020
0.249 -0.200 0.020
0.243 -0.192 0.019
0.217 -0.169 0.017
0.209 -0.160 0.016
0.206 -0.155 0.016
0.205 -0.152 0.016
0.206 -0.150 0.016
0.208 -0.149 0.016
0.211 -0.148 0.016
0.213 -0.148 0.016
0.211 -0.143 0.016
0.201 -0.135 0.015
0.205 -0.135 0.015
0.209 -0.134 0.016
0.211 -0.133 0.016
0.210 -0.131 0.016
0.203 -0.124 0.015
0.208 -0.125 0.015
0.211 -0.124 0.016
0.215 -0.124 0.016
0.216 -0.123 0.016
0.218 -0.121 0.016
0.215 -0.118 0.016
0.215 -0.115 0.016
0.215 -0.113 0.016
0.212 -0.109 0.015
0.208 -0.105 0.015
0.200 -0.099 0.014
0.215 -0.104 0.015
0.205 -0.097 0.015
0.207 -0.096 0.015
0.204 -0.092 0.015
0.204 -0.090 0.015
0.216 -0.093 0.015
0.221 -0.093 0.016
0.221 -0.091 0.016
0.222 -0.090 0.016
0.220 -0.086 0.016
0.216 -0.083 0.015
0.209 -0.078 0.015
0.218 -0.079 0.015
0.220 -0.078 0.015
0.223 -0.077 0.016
0.233 -0.078 0.016
0.240 -0.078 0.017
0.235 -0.074 0.016
0.250 -0.076 0.017
0.257 -0.076 0.018
0.262 -0.075 0.018
0.403 -0.108 0.028
0.408 -0.106 0.028
0.415 -0.104 0.029
0.423 -0.102 0.029
0.422 -0.098 0.029
0.353 -0.079 0.024
0.353 -0.075 0.024
0.364 -0.074 0.025
0.365 -0.071 0.025
0.354 -0.066 0.024
0.282 -0.047 0.019
0.282 -0.045 0.019
0.283 -0.042 0.019
0.284 -0.040 0.020
0.287 -0.038 0.020
0.290 -0.035 0.020
0.289 -0.033 0.020
0.287 -0.030 0.020
0.288 -0.027 0.020
0.288 -0.025 0.020
0.289 -0.022 0.020
0.294 -0.020 0.020
0.298 -0.017 0.020
0.298 -0.015 0.020
0.296 -0.012 0.020
0.292 -0.009 0.020
0.294 -0.007 0.020
0.306 -0.004 0.021
0.312 -0.001 0.021
0.303 0.001 0.021
0.297 0.004 0.020
0.298 0.007 0.020
0.300 0.009 0.021
0.297 0.012 0.020
0.298 0.015 0.020
0.303 0.018 0.021
0.306 0.021 0.021
0.306 0.023 0.021
0.304 0.026 0.021
0.303 0.029 0.021
0.311 0.032 0.021
0.313 0.035 0.021
0.308 0.037 0.021
0.300 0.039 0.021
0.305 0.043 0.021
0.312 0.046 0.021
0.316 0.050 0.022
0.310 0.052 0.021
0.306 0.054 0.021
0.305 0.057 0.021
0.309 0.060 0.021
0.309 0.063 0.021
0.311 0.066 0.022
0.310 0.069 0.022
0.311 0.072 0.022
0.303 0.073 0.021
0.296 0.074 0.021
0.302 0.078 0.021
0.307 0.083 0.021
0.319 0.089 0.022
0.326 0.094 0.023
0.323 0.096 0.023
0.322 0.099 0.023
0.318 0.101 0.022
0.318 0.104 0.022
0.321 0.108 0.023
0.327 0.113 0.023
0.323 0.115 0.023
0.317 0.116 0.022
0.310 0.117 0.022
0.309 0.119 0.022
0.431 0.179 0.031
0.421 0.179 0.030
0.410 0.179 0.029
0.404 0.180 0.029
0.389 0.178 0.028
0.379 0.177 0.027
0.371 0.177 0.027
0.367 0.179 0.027
0.362 0.180 0.026
0.355 0.181 0.026
0.346 0.180 0.025
0.341 0.181 0.025
0.337 0.182 0.025
0.332 0.183 0.024
0.327 0.184 0.024
0.322 0.185 0.024
0.318 0.186 0.024
0.311 0.186 0.023
0.312 0.190 0.023
0.306 0.190 0.023
0.306 0.193 0.023
0.307 0.198 0.023
0.305 0.200 0.023
0.303 0.202 0.023
0.304 0.206 0.023
0.302 0.209 0.023
0.300 0.211 0.023
0.298 0.213 0.023
0.297 0.216 0.023
0.296 0.219 0.023
0.294 0.222 0.023
0.293 0.225 0.023
0.291 0.227 0.023
0.286 0.228 0.023
0.267 0.223 0.021
0.264 0.224 0.021
0.262 0.227 0.021
0.264 0.232 0.022
0.271 0.242 0.022
0.274 0.249 0.023
0.418 0.448 0.037
0.412 0.449 0.036
0.327 0.375 0.030
0.310 0.373 0.029
0.298 0.370 0.028
0.300 0.379 0.028
0.306 0.393 0.029
0.305 0.397 0.029
0.176 -0.243 0.019
0.176 -0.240 0.019
0.177 -0.238 0.019
0.178 -0.236 0.019
0.179 -0.234 0.019
0.181 -0.234 0.019
0.184 -0.234 0.019
0.186 -0.233 0.019
0.186 -0.229 0.019
0.188 -0.229 0.019
0.190 -0.228 0.019
0.192 -0.227 0.019
0.194 -0.226 0.020
0.197 -0.226 0.020
0.198 -0.224 0.020
0.200 -0.223 0.020
0.200 -0.220 0.020
0.202 -0.219 0.020
0.206 -0.219 0.020
0.208 -0.218 0.020
0.211 -0.218 0.020
0.214 -0.217 0.020
0.216 -0.216 0.020
0.218 -0.214 0.021
0.220 -0.213 0.021
0.224 -0.214 0.021
0.226 -0.213 0.021
0.228 -0.212 0.021
0.231 -0.211 0.021
0.234 -0.210 0.021
0.237 -0.209 0.022
0.240 -0.209 0.022
0.243 -0.208 0.022
0.245 -0.206 0.022
0.247 -0.205 0.022
0.248 -0.203 0.022
0.250 -0.200 0.022
0.242 -0.191 0.021
0.220 -0.171 0.019
0.212 -0.162 0.019
0.205 -0.154 0.018
0.203 -0.151 0.018
0.205 -0.149 0.018
0.204 -0.146 0.018
0.208 -0.146 0.018
0.213 -0.147 0.018
0.208 -0.141 0.018
0.207 -0.138 0.018
0.208 -0.136 0.018
0.213 -0.137 0.018
0.211 -0.134 0.018
0.207 -0.129 0.017
0.204 -0.125 0.017
0.207 -0.124 0.017
0.213 -0.125 0.018
0.213 -0.123 0.018
0.213 -0.121 0.018
0.211 -0.118 0.017
0.209 -0.114 0.017
0.210 -0.112 0.017
0.213 -0.112 0.017
0.212 -0.109 0.017
0.210 -0.106 0.017
0.209 -0.103 0.017
0.212 -0.103 0.017
0.208 -0.098 0.017
0.208 -0.096 0.017
0.214 -0.097 0.017
0.215 -0.095 0.017
0.216 -0.093 0.017
0.218 -0.092 0.018
0.220 -0.091 0.018
0.221 -0.089 0.018
0.219 -0.086 0.018
0.217 -0.083 0.017
0.216 -0.081 0.017
0.212 -0.077 0.017
0.216 -0.077 0.017
0.231 -0.080 0.018
0.230 -0.077 0.018
0.233 -0.076 0.018
0.241 -0.076 0.019
0.247 -0.076 0.019
0.256 -0.076 0.020
0.403 -0.108 0.032
0.407 -0.106 0.032
0.416 -0.104 0.033
0.420 -0.101 0.033
0.423 -0.098 0.033
0.332 -0.074 0.026
0.349 -0.074 0.027
0.373 -0.076 0.029
0.368 -0.072 0.029
0.279 -0.047 0.022
0.281 -0.044 0.022
0.284 -0.042 0.022
0.287 -0.040 0.022
0.289 -0.038 0.022
0.289 -0.035 0.022
0.288 -0.032 0.022
0.287 -0.030 0.022
0.287 -0.027 0.022
0.286 -0.025 0.022
0.290 -0.022 0.023
0.300 -0.020 0.023
0.305 -0.018 0.024
0.302 -0.015 0.023
0.297 -0.012 0.023
0.291 -0.009 0.023
0.293 -0.007 0.023
0.295 -0.004 0.023
0.303 -0.001 0.023
0.294 0.001 0.023
0.290 0.004 0.022
0.293 0.007 0.023
0.303 0.009 0.023
0.313 0.013 0.024
0.306 0.015 0.024
0.305 0.018 0.024
0.305 0.020 0.024
0.301 0.023 0.023
0.299 0.026 0.023
0.301 0.028 0.023
0.308 0.032 0.024
0.306 0.034 0.024
0.299 0.036 0.023
0.300 0.039 0.023
0.290 0.040 0.023
0.307 0.046 0.024
0.313 0.049 0.024
0.304 0.051 0.024
0.301 0.053 0.024
0.296 0.055 0.023
0.297 0.058 0.023
0.304 0.062 0.024
0.312 0.066 0.024
0.303 0.067 0.024
0.303 0.070 0.024
0.305 0.074 0.024
0.306 0.077 0.024
0.299 0.078 0.024
0.298 0.080 0.024
0.312 0.087 0.025
0.330 0.095 0.026
0.331 0.099 0.026
0.319 0.098 0.025
0.316 0.100 0.025
0.311 0.102 0.025
0.319 0.107 0.025
0.322 0.112 0.026
0.321 0.114 0.026
0.316 0.116 0.025
0.309 0.116 0.025
0.307 0.119 0.025
0.319 0.126 0.026
0.428 0.178 0.035
0.420 0.179 0.034
0.410 0.179 0.033
0.402 0.179 0.033
0.396 0.181 0.032
0.384 0.180 0.031
0.375 0.179 0.031
0.369 0.180 0.030
0.364 0.181 0.030
0.359 0.183 0.030
0.345 0.180 0.029
0.339 0.180 0.028
0.335 0.182 0.028
0.331 0.183 0.028
0.327 0.184 0.027
0.319 0.184 0.027
0.314 0.184 0.026
0.310 0.185 0.026
0.306 0.187 0.026
0.303 0.188 0.026
0.297 0.188 0.025
0.293 0.189 0.025
0.288 0.189 0.025
0.283 0.189 0.024
0.285 0.194 0.025
0.280 0.194 0.024
0.276 0.194 0.024
0.273 0.195 0.024
0.269 0.196 0.024
0.265 0.197 0.023
0.263 0.199 0.023
0.263 0.202 0.023
0.263 0.205 0.023
0.262 0.209 0.023
0.261 0.211 0.023
0.260 0.214 0.024
0.261 0.219 0.024
0.260 0.221 0.024
0.259 0.224 0.024
0.259 0.228 0.024
0.260 0.233 0.024
0.262 0.238 0.024
0.257 0.238 0.024
0.258 0.242 0.024
0.259 0.247 0.025
0.260 0.252 0.025
0.264 0.261 0.025
0.440 0.457 0.043
0.439 0.463 0.043
0.416 0.447 0.041
0.408 0.445 0.041
0.315 0.361 0.032
0.310 0.374 0.032
0.304 0.372 0.032
0.298 0.370 0.031
0.291 0.368 0.031
0.301 0.386 0.032
0.295 0.385 0.032
0.173 -0.238 0.021
0.176 -0.239 0.021
0.177 -0.238 0.021
0.178 -0.236 0.021
0.179 -0.235 0.021
0.181 -0.234 0.021
0.184 -0.234 0.021
0.186 -0.233 0.021
0.187 -0.231 0.021
0.189 -0.230 0.022
0.190 -0.229 0.022
0.192 -0.227 0.022
0.194 -0.226 0.022
0.196 -0.225 0.022
0.198 -0.224 0.022
0.199 -0.222 0.022
0.200 -0.220 0.022
0.203 -0.219 0.022
0.205 -0.218 0.022
0.207 -0.217 0.022
0.210 -0.217 0.022
0.213 -0.217 0.023
0.216 -0.216 0.023
0.217 -0.214 0.023
0.221 -0.214 0.023
0.224 -0.214 0.023
0.227 -0.213 0.023
0.229 -0.212 0.024
0.231 -0.211 0.024
0.234 -0.210 0.024
0.238 -0.210 0.024
0.239 -0.208 0.024
0.241 -0.207 0.024
0.245 -0.206 0.024
0.247 -0.205 0.025
0.248 -0.202 0.025
0.249 -0.200 0.025
0.245 -0.194 0.024
0.212 -0.162 0.021
0.206 -0.155 0.020
0.203 -0.150 0.020
0.199 -0.145 0.019
0.207 -0.148 0.020
0.209 -0.147 0.020
0.210 -0.146 0.020
0.209 -0.142 0.020
0.208 -0.139 0.020
0.207 -0.136 0.020
0.206 -0.133 0.019
0.210 -0.133 0.020
0.203 -0.126 0.019
0.208 -0.127 0.019
0.202 -0.122 0.019
0.208 -0.123 0.019
0.210 -0.121 0.019
0.211 -0.120 0.019
0.209 -0.116 0.019
0.208 -0.113 0.019
0.211 -0.113 0.019
0.213 -0.112 0.020
0.213 -0.110 0.019
0.205 -0.103 0.019
0.204 -0.101 0.019
0.206 -0.099 0.019
0.208 -0.098 0.019
0.202 -0.093 0.018
0.205 -0.093 0.019
0.205 -0.091 0.019
0.206 -0.089 0.019
0.217 -0.092 0.019
0.219 -0.090 0.020
0.219 -0.088 0.020
0.219 -0.086 0.020
0.213 -0.082 0.019
0.216 -0.081 0.019
0.207 -0.075 0.018
0.212 -0.075 0.019
0.229 -0.079 0.020
0.240 -0.080 0.021
0.233 -0.076 0.021
0.239 -0.075 0.021
0.252 -0.077 0.022
0.263 -0.078 0.023
0.283 -0.081 0.025
0.296 -0.082 0.026
0.402 -0.108 0.035
0.406 -0.105 0.036
0.413 -0.103 0.036
0.420 -0.101 0.037
0.416 -0.096 0.036
0.347 -0.074 0.030
0.370 -0.075 0.032
0.369 -0.072 0.032
0.277 -0.046 0.024
0.279 -0.044 0.024
0.283 -0.042 0.025
0.288 -0.040 0.025
0.288 -0.038 0.025
0.286 -0.035 0.025
0.286 -0.032 0.025
0.286 -0.030 0.025
0.286 -0.027 0.025
0.289 -0.025 0.025
0.291 -0.022 0.025
0.294 -0.020 0.025
0.312 -0.018 0.027
0.308 -0.015 0.027
0.300 -0.012 0.026
0.295 -0.009 0.026
0.296 -0.007 0.026
0.297 -0.004 0.026
0.291 -0.001 0.025
0.291 0.001 0.025
0.290 0.004 0.025
0.295 0.007 0.026
0.320 0.010 0.028
0.323 0.013 0.028
0.309 0.015 0.027
0.302 0.018 0.026
0.304 0.020 0.026
0.301 0.023 0.026
0.296 0.025 0.026
0.301 0.028 0.026
0.305 0.032 0.026
0.306 0.034 0.027
0.307 0.037 0.027
0.294 0.038 0.026
0.299 0.042 0.026
0.303 0.045 0.026
0.312 0.049 0.027
0.310 0.052 0.027
0.302 0.053 0.026
0.296 0.055 0.026
0.296 0.058 0.026
0.314 0.064 0.027
0.299 0.064 0.026
0.300 0.067 0.026
0.301 0.070 0.026
0.302 0.073 0.026
0.310 0.078 0.027
0.312 0.081 0.027
0.298 0.081 0.026
0.297 0.083 0.026
0.316 0.091 0.028
0.324 0.097 0.029
0.317 0.097 0.028
0.305 0.097 0.027
0.309 0.101 0.027
0.313 0.105 0.028
0.316 0.109 0.028
0.315 0.112 0.028
0.315 0.115 0.028
0.310 0.117 0.028
0.306 0.118 0.027
0.318 0.126 0.029
0.429 0.178 0.039
0.412 0.176 0.037
0.410 0.179 0.037
0.404 0.180 0.037
0.394 0.180 0.036
0.386 0.180 0.035
0.379 0.181 0.035
0.371 0.181 0.034
0.366 0.182 0.034
0.358 0.182 0.033
0.352 0.183 0.032
0.338 0.179 0.031
0.333 0.180 0.031
0.332 0.184 0.031
0.326 0.184 0.030
0.321 0.184 0.030
0.314 0.184 0.029
0.310 0.185 0.029
0.305 0.186 0.029
0.298 0.185 0.028
0.295 0.187 0.028
0.291 0.187 0.028
0.284 0.186 0.027
0.280 0.187 0.027
0.274 0.186 0.026
0.269 0.186 0.026
0.265 0.187 0.026
0.263 0.189 0.026
0.261 0.191 0.026
0.261 0.194 0.026
0.262 0.198 0.026
0.261 0.201 0.026
0.260 0.203 0.026
0.258 0.205 0.026
0.260 0.210 0.026
0.260 0.214 0.026
0.259 0.217 0.026
0.258 0.219 0.026
0.257 0.222 0.026
0.258 0.227 0.027
0.258 0.231 0.027
0.257 0.234 0.027
0.257 0.238 0.027
0.256 0.241 0.027
0.257 0.246 0.027
0.256 0.249 0.027
0.255 0.252 0.027
0.437 0.454 0.048
0.435 0.459 0.048
0.334 0.377 0.038
0.354 0.406 0.040
0.356 0.415 0.041
0.328 0.401 0.038
0.314 0.391 0.037
0.302 0.382 0.036
0.299 0.384 0.036
0.299 0.390 0.036
0.177 -0.244 0.023
0.178 -0.242 0.023
0.179 -0.241 0.023
0.180 -0.238 0.023
0.180 -0.235 0.023
0.181 -0.234 0.023
0.184 -0.234 0.023
0.185 -0.233 0.024
0.186 -0.230 0.024
0.188 -0.230 0.024
0.190 -0.229 0.024
0.192 -0.228 0.024
0.194 -0.226 0.024
0.196 -0.225 0.024
0.198 -0.224 0.024
0.200 -0.223 0.024
0.202 -0.222 0.024
0.203 -0.220 0.024
0.206 -0.219 0.024
0.208 -0.218 0.025
0.211 -0.218 0.025
0.213 -0.217 0.025
0.215 -0.216 0.025
0.218 -0.215 0.025
0.221 -0.215 0.025
0.224 -0.214 0.026
0.226 -0.213 0.026
0.229 -0.212 0.026
0.231 -0.211 0.026
0.233 -0.210 0.026
0.236 -0.209 0.026
0.239 -0.208 0.027
0.241 -0.207 0.027
0.244 -0.206 0.027
0.246 -0.204 0.027
0.248 -0.203 0.027
0.249 -0.200 0.027
0.244 -0.193 0.027
0.209 -0.160 0.023
0.203 -0.153 0.022
0.202 -0.150 0.022
0.204 -0.149 0.022
0.210 -0.151 0.022
0.213 -0.150 0.022
0.212 -0.147 0.022
0.212 -0.144 0.022
0.209 -0.140 0.022
0.205 -0.135 0.021
0.207 -0.133 0.022
0.207 -0.131 0.021
0.214 -0.133 0.022
0.213 -0.130 0.022
0.212 -0.127 0.022
0.205 -0.121 0.021
0.209 -0.121 0.021
0.212 -0.120 0.022
0.209 -0.117 0.021
0.206 -0.113 0.021
0.212 -0.114 0.022
0.217 -0.114 0.022
0.217 -0.111 0.022
0.215 -0.109 0.022
0.205 -0.101 0.021
0.209 -0.101 0.021
0.210 -0.099 0.021
0.219 -0.101 0.022
0.204 -0.093 0.020
0.206 -0.091 0.021
0.207 -0.090 0.021
0.214 -0.090 0.021
0.216 -0.089 0.021
0.217 -0.087 0.021
0.217 -0.086 0.021
0.220 -0.084 0.022
0.208 -0.078 0.020
0.212 -0.077 0.021
0.217 -0.077 0.021
0.222 -0.077 0.022
0.234 -0.078 0.023
0.236 -0.077 0.023
0.241 -0.076 0.024
0.260 -0.080 0.025
0.262 -0.078 0.026
0.275 -0.079 0.027
0.403 -0.108 0.039
0.407 -0.106 0.039
0.413 -0.103 0.040
0.418 -0.101 0.040
0.418 -0.097 0.040
0.353 -0.078 0.034
0.364 -0.074 0.035
0.364 -0.071 0.035
0.349 -0.065 0.034
0.277 -0.046 0.027
0.279 -0.044 0.027
0.282 -0.042 0.027
0.285 -0.040 0.027
0.287 -0.038 0.028
0.288 -0.035 0.028
0.286 -0.032 0.027
0.285 -0.030 0.027
0.287 -0.027 0.027
0.288 -0.025 0.027
0.289 -0.022 0.028
0.291 -0.020 0.028
0.294 -0.017 0.028
0.307 -0.015 0.029
0.303 -0.012 0.029
0.302 -0.010 0.029
0.301 -0.007 0.029
0.293 -0.004 0.028
0.285 -0.001 0.027
0.283 0.001 0.027
0.287 0.004 0.027
0.301 0.007 0.029
0.319 0.010 0.031
0.311 0.013 0.030
0.296 0.015 0.028
0.301 0.018 0.029
0.306 0.021 0.029
0.316 0.024 0.030
0.318 0.027 0.030
0.305 0.029 0.029
0.303 0.031 0.029
0.301 0.034 0.029
0.303 0.037 0.029
0.299 0.039 0.029
0.295 0.041 0.028
0.297 0.044 0.029
0.316 0.050 0.030
0.316 0.053 0.030
0.310 0.055 0.030
0.317 0.059 0.031
0.334 0.065 0.032
0.296 0.060 0.029
0.287 0.061 0.028
0.292 0.065 0.028
0.312 0.072 0.030
0.304 0.073 0.029
0.321 0.080 0.031
0.318 0.083 0.031
0.311 0.084 0.030
0.304 0.085 0.030
0.302 0.087 0.029
0.312 0.093 0.030
0.315 0.097 0.031
0.305 0.097 0.030
0.305 0.100 0.030
0.315 0.106 0.031
0.317 0.110 0.031
0.315 0.112 0.031
0.314 0.115 0.031
0.311 0.117 0.031
0.308 0.119 0.030
0.316 0.125 0.031
0.419 0.174 0.042
0.416 0.177 0.042
0.407 0.178 0.041
0.405 0.181 0.041
0.396 0.181 0.040
0.384 0.180 0.039
0.378 0.181 0.038
0.373 0.182 0.038
0.365 0.182 0.037
0.358 0.183 0.036
0.349 0.181 0.035
0.342 0.182 0.035
0.339 0.184 0.035
0.328 0.181 0.034
0.325 0.183 0.033
0.321 0.185 0.033
0.314 0.184 0.032
0.310 0.185 0.032
0.305 0.186 0.032
0.299 0.186 0.031
0.291 0.184 0.031
0.289 0.186 0.030
0.283 0.186 0.030
0.278 0.186 0.029
0.273 0.186 0.029
0.268 0.186 0.029
0.265 0.187 0.028
0.263 0.189 0.028
0.261 0.191 0.028
0.260 0.193 0.028
0.261 0.198 0.028
0.260 0.200 0.028
0.259 0.203 0.028
0.259 0.206 0.028
0.259 0.209 0.029
0.259 0.214 0.029
0.259 0.217 0.029
0.258 0.219 0.029
0.258 0.223 0.029
0.258 0.227 0.029
0.257 0.230 0.029
0.257 0.233 0.029
0.256 0.237 0.029
0.256 0.241 0.030
0.255 0.244 0.030
0.255 0.248 0.030
0.255 0.252 0.030
0.403 0.419 0.048
0.319 0.354 0.039
0.325 0.367 0.040
0.361 0.421 0.045
0.308 0.384 0.040
0.301 0.381 0.039
0.300 0.385 0.039
0.299 0.390 0.040
0.182 -0.251 0.026
0.180 -0.246 0.026
0.180 -0.242 0.026
0.180 -0.239 0.026
0.179 -0.235 0.025
0.180 -0.233 0.025
0.183 -0.234 0.026
0.184 -0.231 0.026
0.186 -0.231 0.026
0.188 -0.229 0.026
0.190 -0.229 0.026
