VERSION .7
FIELDS x y z
SIZE 4 4 4
TYPE F F F
COUNT 1 1 1
WIDTH     2586
HEIGHT 1
VIEWPOINT 0 0 0 1 0 0 0
POINTS     2586
DATA ascii
0.207 -0.112 0.045
0.210 -0.111 0.045
0.205 -0.106 0.044
0.219 -0.111 0.047
0.209 -0.104 0.045
0.213 -0.104 0.046
0.212 -0.101 0.045
0.210 -0.098 0.045
0.213 -0.097 0.046
0.207 -0.092 0.044
0.209 -0.091 0.044
0.210 -0.090 0.045
0.211 -0.088 0.045
0.215 -0.087 0.046
0.210 -0.083 0.044
0.215 -0.083 0.045
0.217 -0.082 0.046
0.226 -0.083 0.048
0.220 -0.078 0.046
0.228 -0.079 0.048
0.226 -0.076 0.047
0.224 -0.074 0.047
0.235 -0.075 0.049
0.236 -0.073 0.049
0.240 -0.072 0.050
0.250 -0.072 0.052
0.264 -0.074 0.055
0.342 -0.093 0.071
0.351 -0.092 0.073
0.360 -0.091 0.075
0.361 -0.088 0.075
0.356 -0.083 0.074
0.353 -0.079 0.073
0.352 -0.075 0.073
0.353 -0.072 0.073
0.353 -0.069 0.073
0.296 -0.050 0.061
0.283 -0.045 0.058
0.279 -0.042 0.058
0.282 -0.040 0.058
0.283 -0.037 0.058
0.286 -0.035 0.059
0.285 -0.032 0.059
0.285 -0.030 0.058
0.286 -0.027 0.059
0.287 -0.025 0.059
0.284 -0.022 0.058
0.283 -0.019 0.058
0.286 -0.017 0.059
0.292 -0.015 0.060
0.291 -0.012 0.060
0.285 -0.009 0.058
0.290 -0.007 0.060
0.290 -0.004 0.059
0.292 -0.001 0.060
0.293 0.001 0.060
0.289 0.004 0.059
0.285 0.006 0.059
0.289 0.009 0.059
0.293 0.012 0.060
0.291 0.014 0.060
0.290 0.017 0.059
0.286 0.019 0.059
0.296 0.023 0.061
0.306 0.026 0.063
0.307 0.029 0.063
0.290 0.030 0.060
0.298 0.034 0.061
0.300 0.037 0.062
0.303 0.040 0.062
0.295 0.042 0.061
0.295 0.044 0.061
0.291 0.046 0.060
0.296 0.050 0.061
0.297 0.053 0.061
0.295 0.055 0.061
0.296 0.058 0.061
0.295 0.061 0.061
0.291 0.063 0.060
0.287 0.064 0.060
0.281 0.066 0.058
0.282 0.069 0.059
0.290 0.073 0.060
0.279 0.073 0.058
0.281 0.076 0.059
0.287 0.081 0.060
0.300 0.087 0.063
0.296 0.089 0.062
0.290 0.090 0.061
0.287 0.092 0.060
0.287 0.095 0.060
0.275 0.093 0.058
0.275 0.096 0.058
0.291 0.105 0.061
0.289 0.107 0.061
0.270 0.102 0.057
0.265 0.103 0.056
0.267 0.107 0.057
0.317 0.130 0.068
0.316 0.133 0.067
0.316 0.136 0.068
0.321 0.141 0.069
0.321 0.145 0.069
0.318 0.147 0.068
0.318 0.150 0.069
0.313 0.151 0.068
0.314 0.155 0.068
0.322 0.166 0.070
0.322 0.169 0.070
0.322 0.173 0.071
0.321 0.176 0.070
0.316 0.176 0.069
0.313 0.178 0.069
0.312 0.181 0.069
0.309 0.183 0.069
0.304 0.183 0.067
0.296 0.182 0.066
0.292 0.183 0.065
0.290 0.185 0.065
0.286 0.186 0.064
0.282 0.187 0.064
0.273 0.185 0.062
0.269 0.185 0.061
0.265 0.185 0.060
0.262 0.187 0.060
0.261 0.189 0.060
0.261 0.193 0.060
0.260 0.195 0.060
0.261 0.199 0.061
0.260 0.202 0.061
0.260 0.205 0.061
0.260 0.209 0.061
0.259 0.212 0.061
0.259 0.215 0.062
0.258 0.218 0.062
0.257 0.222 0.062
0.257 0.225 0.062
0.256 0.228 0.062
0.255 0.231 0.062
0.255 0.235 0.063
0.255 0.239 0.063
0.254 0.242 0.063
0.254 0.246 0.063
0.253 0.249 0.063
0.251 0.251 0.063
0.249 0.254 0.063
0.248 0.257 0.063
0.249 0.263 0.064
0.257 0.275 0.066
0.254 0.277 0.066
0.207 0.241 0.055
0.204 0.245 0.055
0.206 0.252 0.056
0.191 0.237 0.052
0.189 0.239 0.052
0.195 0.250 0.054
0.193 0.252 0.054
0.182 0.241 0.051
0.117 -0.163 0.034
0.112 -0.154 0.032
0.112 -0.152 0.032
0.114 -0.153 0.033
0.112 -0.148 0.032
0.110 -0.144 0.031
0.114 -0.146 0.032
0.114 -0.145 0.032
0.115 -0.145 0.032
0.116 -0.143 0.032
0.123 -0.150 0.034
0.126 -0.151 0.035
0.128 -0.152 0.035
0.129 -0.150 0.035
0.132 -0.152 0.036
0.292 -0.310 0.077
0.290 -0.304 0.076
0.287 -0.296 0.075
0.290 -0.294 0.075
0.290 -0.290 0.075
0.287 -0.283 0.074
0.289 -0.280 0.074
0.290 -0.276 0.074
0.288 -0.271 0.073
0.288 -0.266 0.073
0.289 -0.263 0.073
0.289 -0.259 0.072
0.288 -0.254 0.072
0.286 -0.248 0.071
0.286 -0.244 0.071
0.286 -0.240 0.070
0.285 -0.236 0.070
0.283 -0.230 0.069
0.279 -0.223 0.068
0.272 -0.214 0.066
0.212 -0.162 0.051
0.213 -0.159 0.051
0.211 -0.155 0.050
0.209 -0.151 0.050
0.210 -0.149 0.050
0.210 -0.147 0.049
0.207 -0.142 0.049
0.207 -0.140 0.048
0.209 -0.139 0.049
0.210 -0.137 0.049
0.213 -0.136 0.050
0.216 -0.136 0.050
0.213 -0.131 0.049
0.210 -0.127 0.048
0.205 -0.122 0.047
0.205 -0.120 0.047
0.204 -0.117 0.047
0.205 -0.115 0.047
0.205 -0.113 0.047
0.205 -0.111 0.047
0.203 -0.108 0.046
0.206 -0.107 0.047
0.207 -0.105 0.047
0.207 -0.103 0.047
0.215 -0.105 0.048
0.214 -0.102 0.048
0.210 -0.098 0.047
0.205 -0.094 0.046
0.201 -0.090 0.045
0.204 -0.089 0.045
0.207 -0.088 0.046
0.203 -0.084 0.045
0.210 -0.085 0.046
0.200 -0.079 0.044
0.209 -0.081 0.046
0.200 -0.075 0.044
0.212 -0.078 0.047
0.214 -0.076 0.047
0.221 -0.077 0.049
0.221 -0.075 0.048
0.226 -0.074 0.049
0.230 -0.073 0.050
0.233 -0.072 0.051
0.240 -0.072 0.052
0.255 -0.074 0.055
0.262 -0.073 0.057
0.334 -0.091 0.073
0.343 -0.090 0.074
0.348 -0.088 0.075
0.350 -0.085 0.076
0.351 -0.082 0.076
0.345 -0.077 0.075
0.340 -0.073 0.073
0.336 -0.069 0.073
0.335 -0.066 0.072
0.329 -0.062 0.071
0.314 -0.056 0.068
0.298 -0.050 0.064
0.283 -0.045 0.061
0.280 -0.042 0.060
0.281 -0.040 0.060
0.290 -0.038 0.062
0.291 -0.036 0.062
0.281 -0.032 0.060
0.284 -0.030 0.061
0.288 -0.027 0.062
0.289 -0.025 0.062
0.287 -0.022 0.061
0.286 -0.020 0.061
0.284 -0.017 0.061
0.288 -0.014 0.062
0.289 -0.012 0.062
0.280 -0.009 0.060
0.280 -0.006 0.060
0.284 -0.004 0.061
0.289 -0.001 0.062
0.290 0.001 0.062
0.287 0.004 0.061
0.283 0.006 0.061
0.287 0.009 0.062
0.290 0.012 0.062
0.293 0.015 0.063
0.285 0.017 0.061
0.290 0.020 0.062
0.297 0.023 0.064
0.308 0.027 0.066
0.301 0.029 0.065
0.276 0.029 0.059
0.284 0.032 0.061
0.294 0.036 0.063
0.293 0.039 0.063
0.292 0.041 0.063
0.293 0.044 0.063
0.293 0.047 0.063
0.303 0.051 0.065
0.300 0.053 0.065
0.283 0.053 0.061
0.285 0.056 0.062
0.293 0.060 0.063
0.287 0.062 0.062
0.276 0.062 0.060
0.279 0.065 0.061
0.282 0.069 0.061
0.275 0.070 0.060
0.284 0.075 0.062
0.287 0.078 0.063
0.285 0.080 0.062
0.288 0.084 0.063
0.295 0.089 0.065
0.284 0.088 0.062
0.284 0.091 0.062
0.283 0.093 0.062
0.274 0.093 0.060
0.285 0.100 0.063
0.300 0.108 0.066
0.292 0.108 0.065
0.284 0.108 0.063
0.276 0.108 0.061
0.267 0.107 0.059
0.304 0.128 0.068
0.310 0.134 0.069
0.315 0.139 0.070
0.317 0.143 0.071
0.317 0.146 0.071
0.307 0.145 0.069
0.308 0.149 0.070
0.305 0.151 0.069
0.300 0.151 0.068
0.303 0.156 0.069
0.311 0.164 0.071
0.315 0.169 0.072
0.317 0.174 0.073
0.315 0.176 0.072
0.308 0.176 0.071
0.307 0.178 0.071
0.303 0.180 0.070
0.298 0.180 0.069
0.295 0.181 0.069
0.292 0.183 0.068
0.288 0.184 0.068
0.285 0.185 0.067
0.280 0.186 0.066
0.274 0.185 0.065
0.270 0.186 0.064
0.264 0.185 0.063
0.261 0.186 0.063
0.260 0.189 0.063
0.262 0.193 0.063
0.261 0.196 0.063
0.260 0.199 0.063
0.259 0.202 0.063
0.258 0.205 0.063
0.258 0.208 0.064
0.258 0.212 0.064
0.258 0.215 0.064
0.257 0.218 0.064
0.255 0.220 0.064
0.255 0.224 0.064
0.256 0.228 0.065
0.256 0.232 0.065
0.256 0.236 0.065
0.254 0.239 0.065
0.255 0.243 0.066
0.252 0.244 0.066
0.246 0.243 0.064
0.240 0.241 0.063
0.244 0.249 0.065
0.240 0.249 0.064
0.206 0.233 0.057
0.200 0.229 0.055
0.198 0.230 0.055
0.192 0.227 0.054
0.193 0.232 0.054
0.195 0.239 0.055
0.190 0.236 0.054
0.189 0.239 0.054
0.196 0.251 0.057
0.195 0.254 0.057
0.220 0.291 0.065
0.100 -0.140 0.030
0.098 -0.135 0.030
0.099 -0.134 0.030
0.100 -0.134 0.030
0.100 -0.132 0.030
0.101 -0.131 0.030
0.100 -0.129 0.030
0.100 -0.127 0.029
0.100 -0.126 0.029
0.101 -0.125 0.029
0.101 -0.124 0.029
0.102 -0.123 0.029
0.102 -0.121 0.029
0.108 -0.126 0.031
0.129 -0.148 0.037
0.123 -0.137 0.034
0.127 -0.139 0.035
0.280 -0.294 0.077
0.281 -0.290 0.077
0.281 -0.286 0.076
0.281 -0.281 0.076
0.280 -0.276 0.075
0.281 -0.272 0.075
0.286 -0.273 0.076
0.285 -0.268 0.075
0.284 -0.263 0.075
0.286 -0.261 0.075
0.288 -0.258 0.075
0.287 -0.253 0.075
0.286 -0.248 0.074
0.286 -0.244 0.074
0.286 -0.240 0.073
0.284 -0.235 0.073
0.283 -0.231 0.072
0.277 -0.222 0.070
0.266 -0.210 0.067
0.212 -0.162 0.053
0.201 -0.151 0.050
0.202 -0.149 0.050
0.204 -0.148 0.051
0.208 -0.148 0.051
0.208 -0.146 0.051
0.207 -0.143 0.051
0.207 -0.140 0.051
0.208 -0.138 0.051
0.208 -0.136 0.051
0.207 -0.132 0.050
0.207 -0.131 0.050
0.207 -0.128 0.050
0.205 -0.124 0.049
0.205 -0.122 0.049
0.204 -0.119 0.049
0.201 -0.115 0.048
0.199 -0.112 0.047
0.201 -0.111 0.048
0.174 -0.089 0.041
0.174 -0.087 0.041
0.173 -0.084 0.040
0.171 -0.082 0.040
0.172 -0.080 0.040
0.174 -0.080 0.041
0.175 -0.078 0.041
0.177 -0.077 0.041
0.178 -0.076 0.041
0.179 -0.075 0.041
0.181 -0.074 0.042
0.184 -0.073 0.042
0.191 -0.074 0.044
0.209 -0.079 0.048
0.211 -0.078 0.048
0.216 -0.077 0.049
0.217 -0.076 0.050
0.222 -0.075 0.051
0.224 -0.074 0.051
0.229 -0.073 0.052
0.235 -0.073 0.053
0.247 -0.074 0.056
0.251 -0.073 0.057
0.264 -0.074 0.060
0.331 -0.087 0.075
0.337 -0.085 0.076
0.340 -0.082 0.077
0.339 -0.079 0.077
0.336 -0.075 0.076
0.328 -0.071 0.074
0.328 -0.068 0.074
0.328 -0.064 0.074
0.324 -0.061 0.073
0.312 -0.055 0.070
0.295 -0.050 0.066
0.281 -0.045 0.063
0.278 -0.042 0.062
0.280 -0.039 0.063
0.283 -0.037 0.063
0.283 -0.035 0.063
0.280 -0.032 0.063
0.283 -0.030 0.063
0.285 -0.027 0.064
0.288 -0.025 0.065
0.289 -0.022 0.065
0.286 -0.020 0.064
0.284 -0.017 0.063
0.280 -0.014 0.063
0.295 -0.012 0.066
0.286 -0.009 0.064
0.279 -0.006 0.062
0.282 -0.004 0.063
0.285 -0.001 0.064
0.285 0.001 0.064
0.285 0.004 0.064
0.286 0.006 0.064
0.290 0.009 0.065
0.287 0.012 0.064
0.284 0.014 0.064
0.288 0.017 0.064
0.293 0.020 0.066
0.304 0.023 0.068
0.303 0.026 0.068
0.294 0.028 0.066
0.282 0.029 0.063
0.281 0.032 0.063
0.286 0.035 0.064
0.293 0.039 0.066
0.292 0.041 0.066
0.297 0.045 0.067
0.298 0.048 0.067
0.307 0.052 0.069
0.311 0.055 0.070
0.282 0.053 0.064
0.278 0.055 0.063
0.279 0.058 0.063
0.278 0.060 0.063
0.278 0.062 0.063
0.275 0.064 0.062
0.268 0.065 0.061
0.262 0.066 0.059
0.290 0.076 0.066
0.289 0.079 0.066
0.280 0.079 0.064
0.286 0.083 0.065
0.285 0.086 0.065
0.293 0.091 0.067
0.297 0.095 0.068
0.293 0.097 0.067
0.294 0.100 0.068
0.297 0.104 0.068
0.302 0.109 0.070
0.301 0.112 0.070
0.293 0.111 0.068
0.295 0.115 0.068
0.289 0.116 0.067
0.279 0.115 0.065
0.306 0.135 0.072
0.311 0.141 0.073
0.310 0.143 0.073
0.311 0.147 0.073
0.309 0.149 0.073
0.305 0.151 0.072
0.299 0.151 0.071
0.298 0.154 0.071
0.306 0.161 0.073
0.309 0.166 0.074
0.309 0.170 0.074
0.308 0.172 0.074
0.307 0.175 0.074
0.302 0.176 0.073
0.297 0.176 0.072
0.295 0.179 0.072
0.293 0.180 0.071
0.289 0.182 0.071
0.285 0.183 0.070
0.282 0.184 0.069
0.279 0.185 0.069
0.273 0.185 0.068
0.270 0.186 0.067
0.263 0.185 0.066
0.261 0.186 0.065
0.261 0.190 0.065
0.262 0.193 0.066
0.260 0.196 0.066
0.259 0.198 0.066
0.259 0.202 0.066
0.258 0.205 0.066
0.258 0.208 0.066
0.257 0.211 0.066
0.256 0.214 0.066
0.254 0.216 0.066
0.253 0.218 0.066
0.252 0.221 0.066
0.256 0.228 0.068
0.255 0.232 0.068
0.245 0.226 0.065
0.247 0.233 0.066
0.245 0.235 0.066
0.243 0.236 0.066
0.235 0.232 0.064
0.230 0.231 0.063
0.226 0.231 0.062
0.217 0.226 0.060
0.208 0.219 0.058
0.203 0.218 0.057
0.205 0.224 0.058
0.203 0.226 0.058
0.200 0.226 0.057
0.195 0.224 0.056
0.191 0.223 0.055
0.192 0.228 0.056
0.195 0.236 0.058
0.198 0.243 0.059
0.238 0.301 0.071
0.246 0.316 0.074
0.258 0.342 0.079
0.098 -0.135 0.031
0.099 -0.135 0.031
0.100 -0.135 0.031
0.100 -0.133 0.031
0.101 -0.132 0.031
0.102 -0.131 0.031
0.100 -0.127 0.031
0.101 -0.127 0.031
0.102 -0.126 0.031
0.102 -0.125 0.031
0.102 -0.123 0.031
0.102 -0.121 0.030
0.102 -0.119 0.030
0.102 -0.117 0.030
0.101 -0.114 0.030
0.121 -0.135 0.035
0.121 -0.133 0.035
0.120 -0.130 0.035
0.271 -0.280 0.077
0.270 -0.275 0.076
0.275 -0.276 0.077
0.275 -0.271 0.077
0.273 -0.265 0.076
0.277 -0.265 0.077
0.282 -0.265 0.078
0.283 -0.262 0.078
0.283 -0.258 0.077
0.281 -0.253 0.076
0.284 -0.251 0.077
0.284 -0.247 0.076
0.285 -0.244 0.076
0.285 -0.240 0.076
0.284 -0.235 0.076
0.283 -0.230 0.075
0.278 -0.223 0.073
0.196 -0.150 0.051
0.194 -0.145 0.050
0.199 -0.147 0.051
0.197 -0.143 0.051
0.199 -0.142 0.051
0.206 -0.145 0.053
0.207 -0.142 0.053
0.206 -0.139 0.052
0.206 -0.137 0.052
0.203 -0.132 0.051
0.202 -0.130 0.051
0.204 -0.128 0.051
0.205 -0.127 0.052
0.205 -0.125 0.051
0.207 -0.124 0.052
0.205 -0.120 0.051
0.200 -0.115 0.050
0.207 -0.117 0.051
0.196 -0.108 0.048
0.170 -0.092 0.042
0.169 -0.090 0.042
0.170 -0.088 0.042
0.171 -0.087 0.042
0.171 -0.082 0.042
0.173 -0.081 0.042
0.174 -0.080 0.042
0.175 -0.078 0.042
0.176 -0.077 0.043
0.178 -0.076 0.043
0.179 -0.074 0.043
0.179 -0.073 0.043
0.180 -0.071 0.043
0.181 -0.070 0.043
0.183 -0.069 0.044
0.185 -0.068 0.044
0.190 -0.068 0.045
0.218 -0.076 0.052
0.219 -0.074 0.052
0.222 -0.073 0.053
0.228 -0.073 0.054
0.236 -0.073 0.056
0.244 -0.073 0.058
0.252 -0.073 0.060
0.259 -0.073 0.061
0.319 -0.084 0.075
0.329 -0.083 0.078
0.333 -0.081 0.078
0.332 -0.078 0.078
0.329 -0.074 0.077
0.324 -0.070 0.076
0.323 -0.066 0.076
0.322 -0.063 0.076
0.317 -0.059 0.074
0.310 -0.055 0.073
0.293 -0.050 0.069
0.281 -0.045 0.066
0.278 -0.042 0.065
0.280 -0.039 0.065
0.282 -0.037 0.066
0.285 -0.035 0.066
0.287 -0.033 0.067
0.283 -0.030 0.066
0.282 -0.027 0.066
0.279 -0.024 0.065
0.280 -0.022 0.065
0.282 -0.019 0.066
0.282 -0.017 0.066
0.286 -0.014 0.067
0.291 -0.012 0.068
0.297 -0.009 0.069
0.286 -0.007 0.067
0.283 -0.004 0.066
0.286 -0.001 0.067
0.285 0.001 0.066
0.285 0.004 0.066
0.286 0.006 0.067
0.288 0.009 0.067
0.282 0.012 0.066
0.279 0.014 0.065
0.283 0.017 0.066
0.292 0.020 0.068
0.298 0.023 0.070
0.296 0.026 0.069
0.292 0.028 0.068
0.283 0.030 0.066
0.284 0.032 0.066
0.288 0.035 0.067
0.293 0.039 0.068
0.295 0.042 0.069
0.296 0.045 0.069
0.295 0.047 0.069
0.303 0.051 0.071
0.305 0.054 0.072
0.305 0.057 0.072
0.281 0.055 0.066
0.280 0.058 0.066
0.285 0.061 0.067
0.291 0.066 0.069
0.286 0.067 0.068
0.295 0.072 0.070
0.291 0.074 0.069
0.285 0.075 0.068
0.279 0.076 0.066
0.277 0.078 0.066
0.272 0.079 0.065
0.283 0.085 0.067
0.300 0.094 0.072
0.299 0.096 0.071
0.300 0.099 0.072
0.297 0.101 0.071
0.298 0.104 0.071
0.297 0.107 0.071
0.300 0.111 0.072
0.302 0.115 0.073
0.297 0.116 0.072
0.295 0.118 0.071
0.292 0.120 0.071
0.286 0.121 0.069
0.274 0.118 0.067
0.277 0.123 0.068
0.302 0.136 0.074
0.307 0.142 0.075
0.305 0.144 0.075
0.305 0.148 0.075
0.304 0.150 0.075
0.297 0.150 0.073
0.294 0.152 0.073
0.301 0.159 0.075
0.305 0.164 0.076
0.303 0.166 0.075
0.302 0.169 0.075
0.300 0.171 0.075
0.292 0.170 0.073
0.294 0.175 0.074
0.292 0.177 0.074
0.289 0.178 0.073
0.284 0.178 0.072
0.280 0.179 0.071
0.278 0.181 0.071
0.278 0.185 0.071
0.269 0.183 0.069
0.266 0.184 0.069
0.261 0.184 0.068
0.261 0.187 0.068
0.261 0.190 0.068
0.261 0.194 0.069
0.261 0.197 0.069
0.259 0.199 0.069
0.260 0.203 0.069
0.259 0.205 0.069
0.258 0.209 0.069
0.257 0.211 0.069
0.255 0.213 0.069
0.253 0.215 0.069
0.253 0.219 0.069
0.255 0.224 0.070
0.254 0.227 0.070
0.249 0.226 0.069
0.239 0.221 0.066
0.233 0.219 0.065
0.233 0.223 0.066
0.230 0.223 0.065
0.224 0.222 0.064
0.220 0.221 0.063
0.217 0.222 0.063
0.213 0.222 0.062
0.204 0.216 0.059
0.199 0.215 0.058
0.201 0.220 0.059
0.203 0.226 0.060
0.200 0.227 0.060
0.200 0.231 0.060
0.208 0.244 0.063
0.220 0.262 0.067
0.217 0.266 0.067
0.215 0.269 0.067
0.204 0.271 0.065
0.099 -0.137 0.033
0.101 -0.138 0.033
0.102 -0.137 0.033
0.102 -0.135 0.033
0.102 -0.133 0.033
0.102 -0.132 0.033
0.102 -0.130 0.033
0.102 -0.128 0.032
0.102 -0.127 0.032
0.103 -0.125 0.032
0.103 -0.124 0.032
0.102 -0.121 0.032
0.103 -0.120 0.032
0.103 -0.118 0.031
0.102 -0.116 0.031
0.102 -0.114 0.031
0.112 -0.123 0.034
0.114 -0.124 0.034
0.111 -0.119 0.033
0.264 -0.269 0.078
0.270 -0.271 0.079
0.272 -0.269 0.079
0.272 -0.264 0.079
0.276 -0.264 0.079
0.280 -0.264 0.080
0.281 -0.261 0.080
0.280 -0.256 0.080
0.279 -0.251 0.079
0.278 -0.246 0.078
0.280 -0.243 0.078
0.282 -0.242 0.079
0.283 -0.239 0.079
0.282 -0.234 0.078
0.280 -0.229 0.077
0.192 -0.147 0.052
0.198 -0.149 0.054
0.199 -0.147 0.054
0.198 -0.144 0.053
0.195 -0.139 0.052
0.202 -0.141 0.054
0.207 -0.143 0.055
0.205 -0.139 0.054
0.202 -0.134 0.053
0.202 -0.132 0.053
0.199 -0.128 0.052
0.199 -0.125 0.052
0.204 -0.126 0.053
0.207 -0.126 0.054
0.206 -0.123 0.054
0.211 -0.123 0.055
0.168 -0.095 0.043
0.169 -0.093 0.043
0.169 -0.091 0.043
0.169 -0.090 0.043
0.169 -0.088 0.043
0.169 -0.086 0.043
0.171 -0.085 0.043
0.172 -0.084 0.044
0.176 -0.084 0.045
0.182 -0.085 0.046
0.187 -0.086 0.047
0.190 -0.085 0.048
0.192 -0.084 0.048
0.188 -0.080 0.047
0.186 -0.078 0.047
0.182 -0.074 0.045
0.181 -0.072 0.045
0.182 -0.070 0.045
0.184 -0.070 0.046
0.184 -0.068 0.046
0.185 -0.066 0.046
0.187 -0.065 0.046
0.189 -0.064 0.047
0.202 -0.066 0.050
0.230 -0.073 0.057
0.232 -0.072 0.057
0.236 -0.071 0.058
0.247 -0.072 0.061
0.259 -0.073 0.064
0.314 -0.082 0.077
0.322 -0.081 0.079
0.325 -0.079 0.080
0.325 -0.076 0.080
0.325 -0.073 0.079
0.321 -0.069 0.078
0.314 -0.065 0.077
0.312 -0.061 0.076
0.313 -0.059 0.076
0.305 -0.054 0.074
0.293 -0.049 0.071
0.283 -0.045 0.069
0.278 -0.042 0.068
0.279 -0.039 0.068
0.283 -0.037 0.069
0.284 -0.035 0.069
0.283 -0.032 0.069
0.281 -0.029 0.068
0.279 -0.027 0.068
0.278 -0.024 0.067
0.279 -0.022 0.067
0.280 -0.019 0.068
0.281 -0.017 0.068
0.287 -0.014 0.070
0.290 -0.012 0.070
0.287 -0.009 0.069
0.286 -0.007 0.069
0.287 -0.004 0.069
0.290 -0.001 0.070
0.288 0.001 0.070
0.286 0.004 0.069
0.287 0.006 0.070
0.291 0.009 0.070
0.282 0.012 0.068
0.273 0.014 0.066
0.275 0.016 0.067
0.281 0.019 0.068
0.285 0.022 0.069
0.284 0.025 0.069
0.284 0.027 0.069
0.279 0.029 0.068
0.278 0.032 0.067
0.281 0.035 0.068
0.290 0.038 0.071
0.293 0.041 0.071
0.293 0.044 0.071
0.292 0.047 0.071
0.292 0.049 0.071
0.298 0.053 0.073
0.296 0.056 0.072
0.295 0.058 0.072
0.292 0.060 0.071
0.289 0.062 0.071
0.288 0.065 0.071
0.291 0.068 0.071
0.290 0.071 0.071
0.290 0.074 0.071
0.283 0.074 0.070
0.264 0.072 0.065
0.255 0.072 0.063
0.263 0.077 0.065
0.272 0.082 0.067
0.288 0.090 0.071
0.297 0.095 0.074
0.295 0.098 0.073
0.295 0.101 0.073
0.296 0.104 0.074
0.294 0.106 0.073
0.295 0.110 0.074
0.296 0.113 0.074
0.293 0.115 0.074
0.291 0.117 0.073
0.292 0.120 0.074
0.296 0.125 0.075
0.292 0.126 0.074
0.283 0.125 0.072
0.298 0.141 0.076
0.297 0.144 0.076
0.293 0.145 0.075
0.291 0.147 0.075
0.288 0.149 0.074
0.286 0.151 0.074
0.298 0.160 0.077
0.297 0.163 0.077
0.293 0.165 0.076
0.291 0.167 0.076
0.289 0.169 0.076
0.286 0.170 0.075
0.285 0.173 0.075
0.282 0.174 0.074
0.280 0.176 0.074
0.276 0.177 0.073
0.273 0.179 0.073
0.270 0.180 0.072
0.267 0.181 0.071
0.265 0.183 0.071
0.264 0.185 0.071
0.262 0.188 0.071
0.261 0.190 0.071
0.261 0.194 0.071
0.260 0.197 0.071
0.260 0.200 0.072
0.259 0.203 0.072
0.260 0.207 0.072
0.259 0.210 0.072
0.257 0.212 0.072
0.255 0.213 0.072
0.255 0.218 0.072
0.255 0.221 0.072
0.253 0.223 0.072
0.235 0.211 0.067
0.245 0.223 0.071
0.235 0.218 0.068
0.225 0.212 0.065
0.224 0.215 0.065
0.224 0.218 0.066
0.216 0.214 0.064
0.208 0.209 0.062
0.210 0.216 0.063
0.212 0.221 0.064
0.210 0.223 0.064
0.205 0.221 0.063
0.205 0.224 0.063
0.204 0.228 0.063
0.207 0.234 0.064
0.209 0.241 0.065
0.217 0.254 0.068
0.212 0.252 0.067
0.208 0.251 0.066
0.207 0.255 0.067
0.208 0.260 0.067
0.213 0.274 0.070
0.209 0.273 0.069
0.208 0.276 0.069
0.100 -0.138 0.034
0.101 -0.138 0.034
0.102 -0.138 0.034
0.102 -0.136 0.034
0.102 -0.134 0.034
0.102 -0.132 0.034
0.103 -0.132 0.034
0.104 -0.130 0.034
0.103 -0.127 0.034
0.102 -0.124 0.033
0.103 -0.125 0.033
0.103 -0.122 0.033
0.103 -0.121 0.033
0.104 -0.120 0.033
0.104 -0.118 0.033
0.103 -0.115 0.032
0.104 -0.115 0.033
0.107 -0.116 0.033
0.106 -0.114 0.033
0.112 -0.118 0.034
0.267 -0.269 0.081
0.270 -0.267 0.082
0.272 -0.265 0.082
0.275 -0.263 0.082
0.278 -0.263 0.083
0.278 -0.258 0.082
0.278 -0.254 0.082
0.277 -0.249 0.081
0.276 -0.244 0.081
0.276 -0.241 0.080
0.279 -0.239 0.081
0.279 -0.236 0.081
0.278 -0.231 0.080
0.278 -0.227 0.079
0.276 -0.222 0.079
0.221 -0.175 0.063
0.213 -0.166 0.060
0.206 -0.158 0.058
0.202 -0.152 0.057
0.205 -0.152 0.057
0.200 -0.146 0.056
0.197 -0.141 0.055
0.201 -0.141 0.056
0.207 -0.143 0.057
0.205 -0.139 0.056
0.203 -0.136 0.056
0.204 -0.134 0.056
0.200 -0.129 0.055
0.196 -0.124 0.053
0.196 -0.122 0.053
0.207 -0.126 0.056
0.209 -0.125 0.057
0.169 -0.099 0.046
0.169 -0.097 0.045
0.167 -0.094 0.045
0.169 -0.094 0.045
0.169 -0.092 0.045
0.170 -0.090 0.045
0.171 -0.089 0.046
0.205 -0.103 0.054
0.205 -0.101 0.054
0.207 -0.099 0.055
0.210 -0.098 0.055
0.212 -0.097 0.056
0.211 -0.095 0.055
0.200 -0.088 0.052
0.210 -0.090 0.055
0.212 -0.089 0.055
0.214 -0.087 0.056
0.218 -0.087 0.057
0.208 -0.081 0.054
0.196 -0.074 0.051
0.187 -0.069 0.048
0.186 -0.067 0.048
0.186 -0.065 0.048
0.187 -0.063 0.048
0.188 -0.062 0.048
0.190 -0.061 0.049
0.199 -0.062 0.051
0.247 -0.072 0.063
0.246 -0.069 0.063
0.286 -0.078 0.073
0.302 -0.079 0.077
0.309 -0.078 0.079
0.312 -0.076 0.079
0.316 -0.074 0.080
0.319 -0.072 0.081
0.313 -0.067 0.079
0.300 -0.062 0.076
0.301 -0.059 0.076
0.305 -0.057 0.077
0.299 -0.053 0.076
0.291 -0.049 0.074
0.283 -0.045 0.072
0.276 -0.042 0.070
0.276 -0.039 0.070
0.278 -0.037 0.070
0.281 -0.035 0.071
0.280 -0.032 0.071
0.280 -0.029 0.070
0.281 -0.027 0.071
0.282 -0.024 0.071
0.284 -0.022 0.071
0.282 -0.019 0.071
0.285 -0.017 0.072
0.286 -0.014 0.072
0.287 -0.012 0.072
0.283 -0.009 0.071
0.283 -0.006 0.071
0.289 -0.004 0.073
0.291 -0.001 0.073
0.287 0.001 0.072
0.282 0.004 0.071
0.282 0.006 0.071
0.289 0.009 0.073
0.282 0.012 0.071
0.273 0.014 0.069
0.270 0.016 0.068
0.272 0.019 0.069
0.274 0.021 0.069
0.276 0.024 0.069
0.281 0.027 0.071
0.269 0.028 0.068
0.270 0.031 0.068
0.277 0.034 0.070
0.282 0.037 0.071
0.290 0.041 0.073
0.291 0.044 0.074
0.288 0.046 0.073
0.289 0.049 0.073
0.294 0.053 0.074
0.296 0.056 0.075
0.295 0.058 0.075
0.294 0.061 0.075
0.286 0.062 0.073
0.285 0.064 0.073
0.284 0.067 0.072
0.283 0.069 0.072
0.281 0.071 0.072
0.272 0.072 0.070
0.249 0.068 0.064
0.238 0.067 0.061
0.244 0.072 0.063
0.267 0.081 0.069
0.280 0.088 0.072
0.285 0.092 0.073
0.289 0.096 0.075
0.292 0.100 0.075
0.291 0.102 0.075
0.291 0.105 0.075
0.291 0.108 0.076
0.289 0.110 0.075
0.287 0.112 0.075
0.286 0.115 0.075
0.286 0.118 0.075
0.289 0.122 0.076
0.291 0.126 0.076
0.290 0.128 0.076
0.281 0.127 0.074
0.264 0.122 0.070
0.271 0.128 0.072
0.273 0.132 0.072
0.285 0.141 0.076
0.286 0.145 0.076
0.284 0.147 0.076
0.278 0.147 0.074
0.290 0.156 0.078
0.287 0.158 0.077
0.287 0.161 0.077
0.287 0.164 0.078
0.284 0.166 0.077
0.282 0.168 0.077
0.280 0.170 0.076
0.277 0.172 0.076
0.275 0.174 0.076
0.273 0.176 0.075
0.270 0.177 0.075
0.267 0.178 0.074
0.266 0.181 0.074
0.266 0.184 0.074
0.265 0.186 0.074
0.262 0.188 0.074
0.260 0.190 0.073
0.259 0.192 0.073
0.257 0.195 0.073
0.258 0.198 0.074
0.258 0.202 0.074
0.258 0.205 0.074
0.258 0.209 0.075
0.255 0.211 0.074
0.253 0.212 0.074
0.252 0.215 0.074
0.253 0.219 0.074
0.247 0.218 0.073
0.246 0.221 0.073
0.242 0.221 0.073
0.231 0.215 0.070
0.225 0.213 0.068
0.222 0.213 0.068
0.221 0.216 0.068
0.218 0.216 0.067
0.205 0.207 0.064
0.207 0.213 0.064
0.211 0.220 0.066
0.211 0.225 0.067
0.204 0.221 0.065
0.201 0.221 0.064
0.201 0.225 0.065
0.201 0.229 0.065
0.204 0.236 0.066
0.202 0.238 0.066
0.199 0.237 0.066
0.198 0.240 0.066
0.200 0.246 0.067
0.196 0.245 0.066
0.196 0.249 0.066
0.202 0.261 0.069
0.203 0.266 0.069
0.195 0.259 0.067
0.100 -0.139 0.035
0.101 -0.138 0.035
0.102 -0.137 0.036
0.102 -0.136 0.036
0.102 -0.134 0.035
0.103 -0.133 0.035
0.103 -0.132 0.035
0.104 -0.131 0.035
0.103 -0.128 0.035
0.103 -0.126 0.035
0.104 -0.125 0.035
0.104 -0.124 0.035
0.104 -0.122 0.034
0.104 -0.120 0.034
0.104 -0.118 0.034
0.104 -0.117 0.034
0.105 -0.115 0.034
0.106 -0.115 0.034
0.106 -0.114 0.034
0.107 -0.113 0.034
0.114 -0.118 0.036
0.268 -0.265 0.084
0.270 -0.263 0.084
0.272 -0.261 0.084
0.273 -0.258 0.084
0.273 -0.254 0.084
0.273 -0.250 0.083
0.274 -0.247 0.083
0.274 -0.243 0.083
0.275 -0.240 0.083
0.276 -0.237 0.083
0.274 -0.231 0.082
0.273 -0.227 0.081
0.276 -0.226 0.082
0.276 -0.222 0.082
0.208 -0.159 0.061
0.203 -0.153 0.059
0.203 -0.150 0.059
0.199 -0.145 0.058
0.199 -0.142 0.057
0.203 -0.143 0.058
0.207 -0.143 0.059
0.207 -0.140 0.059
0.204 -0.136 0.058
0.210 -0.137 0.060
0.208 -0.134 0.059
0.196 -0.124 0.055
0.206 -0.128 0.058
0.170 -0.102 0.048
0.168 -0.099 0.047
0.169 -0.098 0.047
0.168 -0.095 0.047
0.169 -0.094 0.047
0.182 -0.099 0.050
0.200 -0.106 0.055
0.207 -0.108 0.057
0.206 -0.105 0.057
0.208 -0.104 0.057
0.209 -0.103 0.057
0.207 -0.099 0.056
0.212 -0.099 0.058
0.211 -0.097 0.057
0.211 -0.095 0.057
0.212 -0.093 0.057
0.204 -0.088 0.055
0.211 -0.088 0.057
0.216 -0.088 0.058
0.212 -0.084 0.057
0.208 -0.081 0.056
0.211 -0.080 0.057
0.216 -0.079 0.058
0.218 -0.078 0.058
0.195 -0.068 0.052
0.188 -0.064 0.050
0.188 -0.062 0.050
0.189 -0.061 0.050
0.191 -0.059 0.051
0.191 -0.058 0.051
0.192 -0.056 0.051
0.200 -0.056 0.053
0.297 -0.078 0.078
0.303 -0.077 0.080
0.297 -0.073 0.078
0.310 -0.070 0.082
0.299 -0.064 0.079
0.292 -0.060 0.077
0.294 -0.058 0.077
0.294 -0.055 0.077
0.293 -0.052 0.077
0.290 -0.049 0.076
0.282 -0.045 0.074
0.275 -0.041 0.072
0.271 -0.038 0.071
0.274 -0.036 0.072
0.279 -0.034 0.073
0.280 -0.032 0.073
0.282 -0.030 0.074
0.282 -0.027 0.074
0.284 -0.025 0.074
0.285 -0.022 0.074
0.286 -0.020 0.075
0.286 -0.017 0.075
0.285 -0.014 0.074
0.286 -0.012 0.074
0.282 -0.009 0.074
0.283 -0.006 0.074
0.288 -0.004 0.075
0.288 -0.001 0.075
0.285 0.001 0.074
0.282 0.004 0.074
0.277 0.006 0.072
0.277 0.009 0.072
0.280 0.011 0.073
0.271 0.014 0.071
0.266 0.016 0.069
0.264 0.018 0.069
0.267 0.021 0.070
0.276 0.024 0.072
0.283 0.027 0.074
0.282 0.030 0.074
0.273 0.031 0.071
0.273 0.034 0.071
0.283 0.038 0.074
0.287 0.041 0.075
0.288 0.044 0.076
0.285 0.046 0.075
0.276 0.047 0.073
0.294 0.053 0.077
0.293 0.055 0.077
0.292 0.058 0.077
0.288 0.060 0.076
0.287 0.062 0.076
0.281 0.063 0.074
0.277 0.065 0.073
0.273 0.067 0.072
0.262 0.067 0.069
0.239 0.063 0.063
0.234 0.064 0.062
0.238 0.067 0.063
0.248 0.073 0.066
0.269 0.082 0.072
0.279 0.087 0.074
0.279 0.090 0.075
0.280 0.093 0.075
0.281 0.096 0.075
0.280 0.099 0.075
0.285 0.103 0.077
0.284 0.106 0.077
0.281 0.107 0.076
0.280 0.110 0.076
0.279 0.112 0.075
0.279 0.115 0.076
0.282 0.119 0.077
0.285 0.123 0.078
0.286 0.127 0.078
0.285 0.129 0.078
0.269 0.125 0.074
0.261 0.124 0.072
0.259 0.126 0.071
0.261 0.130 0.072
0.277 0.140 0.077
0.272 0.141 0.075
0.276 0.146 0.077
0.283 0.153 0.079
0.282 0.156 0.079
0.280 0.157 0.078
0.277 0.159 0.078
0.280 0.164 0.079
0.277 0.165 0.078
0.272 0.166 0.077
0.271 0.168 0.077
0.270 0.171 0.077
0.270 0.174 0.077
0.265 0.174 0.076
0.264 0.177 0.076
0.264 0.180 0.076
0.265 0.184 0.077
0.263 0.186 0.077
0.261 0.187 0.076
0.258 0.188 0.076
0.256 0.190 0.075
0.255 0.193 0.075
0.254 0.196 0.075
0.254 0.199 0.076
0.253 0.202 0.076
0.252 0.205 0.076
0.251 0.207 0.076
0.250 0.210 0.076
0.251 0.214 0.076
0.247 0.215 0.076
0.240 0.213 0.074
0.240 0.216 0.074
0.241 0.220 0.075
0.233 0.217 0.073
0.227 0.215 0.071
0.232 0.223 0.073
0.220 0.216 0.070
0.209 0.208 0.067
0.204 0.206 0.065
0.207 0.213 0.067
0.210 0.220 0.068
0.211 0.225 0.069
0.204 0.220 0.067
0.199 0.219 0.066
0.196 0.219 0.065
0.199 0.227 0.067
0.199 0.230 0.067
0.197 0.232 0.067
0.196 0.235 0.067
0.195 0.237 0.067
0.197 0.243 0.068
0.199 0.249 0.069
0.192 0.245 0.067
0.193 0.250 0.068
0.199 0.262 0.071
0.201 0.268 0.072
0.101 -0.138 0.037
0.102 -0.138 0.037
0.102 -0.136 0.037
0.102 -0.134 0.037
0.102 -0.133 0.037
0.103 -0.132 0.037
0.103 -0.129 0.036
0.103 -0.128 0.036
0.104 -0.127 0.036
0.104 -0.126 0.036
0.104 -0.124 0.036
0.104 -0.122 0.036
0.103 -0.119 0.035
0.104 -0.118 0.035
0.105 -0.117 0.035
0.105 -0.116 0.035
0.111 -0.121 0.037
0.108 -0.115 0.036
0.106 -0.112 0.035
0.110 -0.115 0.036
0.116 -0.119 0.038
0.266 -0.260 0.086
0.269 -0.259 0.087
0.269 -0.255 0.086
0.267 -0.249 0.085
0.269 -0.247 0.085
0.270 -0.244 0.085
0.273 -0.242 0.086
0.274 -0.239 0.086
0.272 -0.234 0.085
0.270 -0.229 0.084
0.271 -0.225 0.084
0.271 -0.222 0.083
0.271 -0.219 0.083
0.207 -0.159 0.063
0.204 -0.154 0.062
0.201 -0.149 0.060
0.198 -0.144 0.059
0.201 -0.144 0.060
0.205 -0.144 0.061
0.205 -0.142 0.061
0.203 -0.138 0.060
0.208 -0.139 0.061
0.210 -0.138 0.062
0.210 -0.135 0.062
0.181 -0.112 0.053
0.170 -0.104 0.050
0.170 -0.102 0.049
0.170 -0.100 0.049
0.172 -0.099 0.050
0.208 -0.115 0.060
0.206 -0.112 0.059
0.206 -0.110 0.059
0.202 -0.106 0.058
0.206 -0.105 0.059
0.210 -0.105 0.060
0.212 -0.104 0.060
0.206 -0.099 0.058
0.206 -0.097 0.058
0.208 -0.096 0.059
0.210 -0.094 0.059
0.211 -0.093 0.059
0.198 -0.085 0.056
0.212 -0.089 0.059
0.206 -0.084 0.058
0.209 -0.083 0.058
0.212 -0.082 0.059
0.213 -0.081 0.059
0.216 -0.080 0.060
0.215 -0.077 0.060
0.214 -0.075 0.059
0.222 -0.075 0.061
0.218 -0.072 0.060
0.196 -0.063 0.054
0.190 -0.059 0.052
0.191 -0.058 0.053
0.192 -0.056 0.053
0.194 -0.055 0.053
0.195 -0.053 0.053
0.195 -0.051 0.054
0.206 -0.052 0.056
0.292 -0.060 0.079
0.290 -0.057 0.079
0.289 -0.054 0.079
0.289 -0.052 0.079
0.284 -0.048 0.077
0.276 -0.044 0.075
0.274 -0.041 0.074
0.271 -0.038 0.073
0.272 -0.036 0.074
0.277 -0.034 0.075
0.280 -0.032 0.076
0.281 -0.030 0.076
0.284 -0.027 0.077
0.282 -0.024 0.076
0.284 -0.022 0.077
0.286 -0.020 0.077
0.286 -0.017 0.077
0.285 -0.014 0.077
0.285 -0.012 0.077
0.282 -0.009 0.076
0.284 -0.006 0.077
0.285 -0.004 0.077
0.286 -0.001 0.077
0.286 0.001 0.077
0.284 0.004 0.077
0.281 0.006 0.076
0.277 0.009 0.075
0.270 0.011 0.073
0.266 0.013 0.072
0.270 0.016 0.073
0.266 0.018 0.072
0.257 0.020 0.070
0.290 0.028 0.079
0.282 0.030 0.076
0.277 0.032 0.075
0.278 0.034 0.075
0.281 0.037 0.076
0.285 0.040 0.077
0.282 0.043 0.077
0.282 0.045 0.077
0.282 0.048 0.077
0.282 0.051 0.077
0.293 0.055 0.080
0.287 0.057 0.078
0.287 0.060 0.078
0.284 0.062 0.078
0.279 0.063 0.076
0.272 0.064 0.074
0.263 0.065 0.072
0.249 0.063 0.068
0.231 0.061 0.064
0.226 0.062 0.062
0.281 0.085 0.078
0.281 0.088 0.078
0.280 0.090 0.078
0.278 0.092 0.077
0.274 0.094 0.076
0.275 0.097 0.076
0.277 0.100 0.077
0.278 0.103 0.078
0.275 0.105 0.077
0.273 0.107 0.076
0.274 0.110 0.077
0.275 0.114 0.077
0.277 0.117 0.078
0.278 0.121 0.079
0.277 0.123 0.078
0.268 0.122 0.076
0.263 0.122 0.075
0.260 0.124 0.074
0.259 0.126 0.074
0.263 0.131 0.075
0.260 0.132 0.074
0.267 0.138 0.077
0.274 0.145 0.079
0.273 0.147 0.079
0.272 0.150 0.079
0.272 0.153 0.079
0.276 0.158 0.080
0.269 0.158 0.079
0.270 0.162 0.079
0.265 0.161 0.078
0.260 0.162 0.077
0.258 0.163 0.076
0.256 0.165 0.076
0.254 0.167 0.075
0.252 0.169 0.075
0.263 0.179 0.079
0.262 0.182 0.079
0.259 0.183 0.078
0.258 0.185 0.078
0.254 0.186 0.077
0.254 0.189 0.077
0.253 0.192 0.077
0.252 0.194 0.077
0.251 0.197 0.077
0.251 0.200 0.078
0.249 0.203 0.078
0.249 0.206 0.078
0.248 0.209 0.078
0.247 0.211 0.078
0.244 0.212 0.077
0.235 0.208 0.075
0.233 0.210 0.075
0.234 0.214 0.075
0.229 0.214 0.074
0.223 0.212 0.073
0.223 0.215 0.073
0.214 0.210 0.070
0.207 0.206 0.069
0.204 0.207 0.068
0.207 0.213 0.069
0.213 0.223 0.072
0.214 0.228 0.072
0.206 0.223 0.070
0.202 0.222 0.069
0.202 0.227 0.070
0.203 0.232 0.071
0.200 0.232 0.070
0.198 0.233 0.070
0.197 0.235 0.070
0.195 0.237 0.070
0.195 0.241 0.070
0.198 0.248 0.072
0.197 0.252 0.072
0.193 0.250 0.071
0.196 0.258 0.072
0.210 0.280 0.078
0.101 -0.138 0.038
0.102 -0.138 0.038
0.103 -0.137 0.038
0.102 -0.135 0.038
0.103 -0.134 0.038
0.103 -0.132 0.038
0.103 -0.130 0.038
0.104 -0.129 0.038
0.105 -0.129 0.038
0.103 -0.125 0.037
0.104 -0.124 0.037
0.102 -0.120 0.036
0.104 -0.120 0.037
0.103 -0.118 0.036
0.104 -0.117 0.037
0.107 -0.118 0.037
0.113 -0.123 0.039
0.109 -0.117 0.038
0.106 -0.112 0.036
0.109 -0.113 0.037
0.104 -0.107 0.035
0.261 -0.256 0.087
0.264 -0.255 0.088
0.262 -0.248 0.087
0.265 -0.248 0.088
0.266 -0.245 0.088
0.268 -0.242 0.087
0.269 -0.240 0.088
0.270 -0.237 0.088
0.268 -0.231 0.087
0.267 -0.227 0.086
0.268 -0.224 0.086
0.267 -0.220 0.085
0.264 -0.214 0.084
0.211 -0.162 0.066
0.204 -0.154 0.064
0.201 -0.149 0.063
0.198 -0.145 0.062
0.199 -0.143 0.062
0.203 -0.143 0.063
0.204 -0.141 0.063
0.206 -0.140 0.063
0.208 -0.139 0.063
0.209 -0.137 0.064
0.208 -0.134 0.063
0.185 -0.117 0.056
0.172 -0.107 0.052
0.170 -0.104 0.051
0.170 -0.102 0.051
0.173 -0.102 0.052
0.205 -0.118 0.061
0.207 -0.117 0.062
0.209 -0.116 0.062
0.208 -0.113 0.062
0.204 -0.109 0.060
0.204 -0.107 0.060
0.206 -0.106 0.061
0.207 -0.104 0.061
0.208 -0.102 0.061
0.211 -0.101 0.062
0.205 -0.096 0.060
0.206 -0.095 0.060
0.210 -0.094 0.061
0.208 -0.092 0.061
0.211 -0.091 0.061
0.198 -0.083 0.057
0.209 -0.086 0.061
0.208 -0.083 0.060
0.212 -0.083 0.061
0.213 -0.081 0.061
0.212 -0.078 0.061
0.215 -0.077 0.062
0.214 -0.075 0.061
0.218 -0.074 0.062
0.221 -0.073 0.063
0.228 -0.073 0.065
0.226 -0.070 0.064
0.193 -0.056 0.055
0.194 -0.055 0.055
0.195 -0.053 0.055
0.195 -0.051 0.055
0.195 -0.050 0.055
0.196 -0.048 0.056
0.198 -0.047 0.056
0.201 -0.045 0.057
0.202 -0.044 0.057
0.213 -0.044 0.060
0.217 -0.043 0.061
0.271 -0.043 0.076
0.274 -0.041 0.077
0.273 -0.039 0.077
0.274 -0.036 0.077
0.275 -0.034 0.077
0.276 -0.032 0.077
0.277 -0.029 0.078
0.277 -0.027 0.077
0.277 -0.024 0.078
0.281 -0.022 0.079
0.285 -0.019 0.080
0.282 -0.017 0.079
0.283 -0.014 0.079
0.283 -0.012 0.079
0.281 -0.009 0.078
0.282 -0.006 0.079
0.283 -0.004 0.079
0.283 -0.001 0.079
0.284 0.001 0.079
0.283 0.004 0.079
0.280 0.006 0.078
0.276 0.009 0.077
0.277 0.011 0.077
0.277 0.014 0.078
0.275 0.016 0.077
0.267 0.018 0.075
0.260 0.020 0.073
0.265 0.023 0.074
0.277 0.027 0.078
0.279 0.029 0.078
0.275 0.032 0.077
0.279 0.035 0.078
0.281 0.037 0.079
0.282 0.040 0.079
0.283 0.043 0.080
0.278 0.045 0.078
0.282 0.048 0.079
0.286 0.051 0.081
0.289 0.055 0.081
0.290 0.058 0.082
0.285 0.059 0.080
0.279 0.061 0.079
0.274 0.062 0.078
0.266 0.063 0.075
0.252 0.062 0.072
0.245 0.063 0.070
0.239 0.063 0.068
0.244 0.067 0.069
0.241 0.069 0.069
0.274 0.080 0.078
0.281 0.085 0.080
0.292 0.091 0.083
0.285 0.092 0.082
0.278 0.093 0.080
0.271 0.093 0.078
0.268 0.094 0.077
0.270 0.098 0.078
0.269 0.100 0.078
0.268 0.103 0.078
0.271 0.106 0.079
0.269 0.109 0.078
0.271 0.112 0.079
0.270 0.114 0.079
0.267 0.116 0.078
0.258 0.115 0.076
0.253 0.115 0.074
0.256 0.119 0.075
0.258 0.123 0.076
0.258 0.126 0.076
0.259 0.129 0.077
0.261 0.133 0.077
0.263 0.137 0.078
0.267 0.141 0.079
0.267 0.145 0.080
0.262 0.145 0.079
0.257 0.145 0.077
0.252 0.145 0.076
0.254 0.149 0.077
0.251 0.150 0.076
0.249 0.152 0.076
0.247 0.154 0.075
0.248 0.157 0.076
0.250 0.161 0.077
0.248 0.163 0.076
0.251 0.168 0.077
0.257 0.176 0.080
0.254 0.177 0.079
0.252 0.178 0.079
0.250 0.180 0.078
0.252 0.185 0.079
0.251 0.187 0.079
0.250 0.190 0.079
0.248 0.192 0.079
0.248 0.195 0.079
0.247 0.198 0.079
0.248 0.202 0.080
0.247 0.204 0.080
0.244 0.206 0.080
0.241 0.207 0.079
0.234 0.204 0.077
0.227 0.201 0.075
0.224 0.203 0.074
0.222 0.204 0.074
0.217 0.202 0.073
0.213 0.203 0.072
0.210 0.202 0.071
0.212 0.209 0.072
0.209 0.209 0.072
0.206 0.209 0.071
0.211 0.218 0.073
0.216 0.227 0.075
0.212 0.226 0.074
0.207 0.224 0.073
0.205 0.227 0.073
0.206 0.232 0.074
0.206 0.236 0.074
0.204 0.236 0.074
0.201 0.237 0.073
0.200 0.240 0.073
0.195 0.238 0.072
0.192 0.238 0.071
0.192 0.241 0.072
0.192 0.245 0.072
0.194 0.251 0.073
0.191 0.252 0.073
0.186 0.249 0.071
0.101 -0.138 0.039
0.102 -0.138 0.040
0.103 -0.137 0.040
0.103 -0.136 0.040
0.103 -0.133 0.039
0.103 -0.132 0.039
0.104 -0.131 0.039
0.104 -0.130 0.039
0.105 -0.130 0.039
0.106 -0.128 0.039
0.104 -0.124 0.038
0.104 -0.123 0.038
0.104 -0.121 0.038
0.105 -0.120 0.038
0.104 -0.117 0.038
0.113 -0.126 0.041
0.110 -0.121 0.040
0.107 -0.115 0.038
0.104 -0.110 0.037
0.109 -0.114 0.038
0.121 -0.124 0.042
0.120 -0.122 0.042
0.122 -0.121 0.042
0.258 -0.249 0.089
0.261 -0.248 0.089
0.262 -0.245 0.089
0.263 -0.242 0.089
0.264 -0.239 0.089
0.265 -0.236 0.089
0.265 -0.233 0.089
0.263 -0.227 0.088
0.265 -0.225 0.088
0.265 -0.222 0.088
0.264 -0.217 0.087
0.261 -0.211 0.086
0.254 -0.202 0.083
0.214 -0.164 0.069
0.207 -0.157 0.067
0.204 -0.152 0.066
0.202 -0.148 0.065
0.199 -0.143 0.064
0.199 -0.140 0.063
0.205 -0.142 0.065
0.206 -0.141 0.065
0.206 -0.138 0.065
0.204 -0.134 0.064
0.200 -0.129 0.063
0.176 -0.112 0.055
0.175 -0.109 0.055
0.174 -0.107 0.054
0.196 -0.118 0.061
0.209 -0.123 0.065
0.204 -0.118 0.063
0.209 -0.119 0.064
0.213 -0.119 0.066
0.212 -0.116 0.065
0.206 -0.110 0.063
0.208 -0.109 0.063
0.205 -0.105 0.062
0.204 -0.103 0.062
0.206 -0.101 0.062
0.206 -0.099 0.062
0.207 -0.098 0.063
0.206 -0.095 0.062
0.209 -0.094 0.063
0.209 -0.092 0.063
0.204 -0.088 0.061
0.213 -0.090 0.064
0.207 -0.085 0.062
0.209 -0.083 0.062
0.211 -0.082 0.063
0.211 -0.080 0.063
0.211 -0.078 0.063
0.210 -0.076 0.062
0.219 -0.077 0.065
0.217 -0.074 0.064
0.221 -0.073 0.065
0.227 -0.073 0.067
0.228 -0.071 0.067
0.235 -0.071 0.069
0.243 -0.071 0.072
0.248 -0.070 0.073
0.206 -0.054 0.060
0.203 -0.052 0.059
0.198 -0.049 0.058
0.199 -0.047 0.058
0.200 -0.045 0.058
0.200 -0.043 0.058
0.202 -0.042 0.059
0.203 -0.040 0.059
0.204 -0.038 0.059
0.205 -0.037 0.060
0.209 -0.035 0.061
0.210 -0.034 0.061
0.213 -0.032 0.062
0.224 -0.032 0.065
0.265 -0.033 0.077
0.273 -0.031 0.079
0.272 -0.029 0.079
0.272 -0.026 0.079
0.274 -0.024 0.079
0.277 -0.022 0.080
0.277 -0.019 0.080
0.276 -0.016 0.080
0.275 -0.014 0.080
0.277 -0.011 0.080
0.277 -0.009 0.080
0.277 -0.006 0.080
0.279 -0.004 0.081
0.278 -0.001 0.080
0.276 0.001 0.080
0.278 0.004 0.080
0.273 0.006 0.079
0.272 0.009 0.079
0.277 0.011 0.080
0.284 0.014 0.082
0.283 0.017 0.082
0.268 0.018 0.078
0.255 0.020 0.074
0.258 0.022 0.075
0.268 0.026 0.078
0.273 0.029 0.079
0.278 0.032 0.081
0.283 0.035 0.082
0.283 0.038 0.082
0.282 0.040 0.082
0.280 0.042 0.081
0.281 0.045 0.082
0.279 0.048 0.081
0.284 0.051 0.083
0.290 0.055 0.085
0.289 0.057 0.085
0.283 0.059 0.083
0.275 0.060 0.080
0.263 0.060 0.077
0.247 0.058 0.072
0.240 0.059 0.071
0.235 0.060 0.069
0.245 0.065 0.072
0.255 0.070 0.075
0.266 0.076 0.078
0.259 0.076 0.076
0.289 0.088 0.085
0.293 0.092 0.087
0.291 0.094 0.086
0.279 0.093 0.083
0.268 0.092 0.080
0.263 0.093 0.078
0.261 0.095 0.078
0.258 0.096 0.077
0.261 0.100 0.078
0.268 0.105 0.080
0.263 0.106 0.079
0.257 0.106 0.077
0.257 0.109 0.078
0.252 0.110 0.076
0.250 0.111 0.076
0.250 0.114 0.076
0.252 0.118 0.077
0.252 0.120 0.077
0.254 0.124 0.078
0.256 0.127 0.078
0.258 0.131 0.079
0.259 0.135 0.080
0.263 0.140 0.081
0.262 0.142 0.081
0.255 0.141 0.079
0.248 0.140 0.077
0.245 0.141 0.076
0.245 0.144 0.077
0.245 0.147 0.077
0.244 0.149 0.077
0.243 0.151 0.077
0.243 0.154 0.077
0.243 0.157 0.077
0.244 0.161 0.078
0.250 0.168 0.080
0.251 0.171 0.080
0.249 0.173 0.080
0.248 0.175 0.080
0.249 0.179 0.081
0.248 0.182 0.081
0.248 0.185 0.081
0.245 0.187 0.080
0.244 0.189 0.080
0.246 0.194 0.081
0.246 0.197 0.082
0.243 0.198 0.081
0.239 0.199 0.080
0.225 0.190 0.076
0.214 0.184 0.072
0.217 0.189 0.074
0.218 0.194 0.075
0.216 0.195 0.074
0.211 0.194 0.073
0.205 0.192 0.071
0.200 0.190 0.070
0.205 0.198 0.072
0.209 0.206 0.074
0.210 0.210 0.075
0.204 0.207 0.073
0.208 0.216 0.075
0.211 0.222 0.076
0.207 0.221 0.075
0.199 0.217 0.073
0.200 0.221 0.073
0.201 0.226 0.074
0.201 0.230 0.075
0.201 0.234 0.076
0.200 0.237 0.076
0.198 0.238 0.075
0.194 0.237 0.074
0.190 0.236 0.073
0.188 0.237 0.073
0.191 0.245 0.074
0.189 0.246 0.074
0.191 0.253 0.075
0.174 0.233 0.069
0.102 -0.138 0.041
0.103 -0.138 0.041
0.103 -0.135 0.041
0.103 -0.134 0.041
0.104 -0.134 0.041
0.105 -0.133 0.041
0.104 -0.130 0.041
0.105 -0.129 0.041
0.105 -0.128 0.041
0.105 -0.126 0.040
0.105 -0.124 0.040
0.105 -0.122 0.040
0.104 -0.120 0.039
0.106 -0.119 0.040
0.114 -0.127 0.043
0.107 -0.117 0.040
0.107 -0.116 0.040
0.102 -0.108 0.037
0.108 -0.112 0.039
0.122 -0.125 0.044
0.118 -0.119 0.043
0.118 -0.117 0.042
0.119 -0.116 0.042
0.247 -0.239 0.088
0.258 -0.245 0.091
0.256 -0.239 0.090
0.258 -0.238 0.090
0.260 -0.236 0.091
0.260 -0.232 0.090
0.260 -0.228 0.090
0.261 -0.226 0.090
0.261 -0.222 0.090
0.260 -0.218 0.089
0.260 -0.214 0.088
0.256 -0.208 0.087
0.249 -0.198 0.084
0.205 -0.156 0.069
0.205 -0.153 0.068
0.203 -0.148 0.067
0.199 -0.143 0.066
0.199 -0.141 0.066
0.201 -0.140 0.066
0.204 -0.139 0.067
0.203 -0.136 0.066
0.202 -0.133 0.066
0.178 -0.115 0.058
0.176 -0.112 0.057
0.176 -0.110 0.057
0.194 -0.119 0.062
0.206 -0.124 0.066
0.207 -0.122 0.066
0.211 -0.123 0.067
0.214 -0.121 0.068
0.216 -0.120 0.069
0.216 -0.118 0.069
0.212 -0.113 0.067
0.204 -0.107 0.064
0.203 -0.104 0.064
0.203 -0.102 0.064
0.204 -0.101 0.064
0.204 -0.098 0.064
0.205 -0.097 0.064
0.207 -0.095 0.064
0.207 -0.093 0.064
0.206 -0.091 0.064
0.204 -0.088 0.063
0.208 -0.087 0.064
0.204 -0.084 0.063
0.207 -0.083 0.064
0.209 -0.082 0.064
0.210 -0.080 0.065
0.210 -0.078 0.064
0.211 -0.076 0.065
0.217 -0.076 0.066
0.221 -0.075 0.067
0.219 -0.073 0.067
0.220 -0.071 0.067
0.231 -0.072 0.070
0.240 -0.072 0.073
0.249 -0.073 0.076
0.254 -0.072 0.077
0.259 -0.071 0.078
0.274 -0.072 0.083
0.272 -0.069 0.082
0.268 -0.066 0.081
0.267 -0.063 0.081
0.216 -0.045 0.065
0.208 -0.041 0.063
0.206 -0.039 0.062
0.206 -0.037 0.062
0.207 -0.035 0.062
0.207 -0.033 0.062
0.210 -0.032 0.063
0.211 -0.030 0.063
0.215 -0.029 0.064
0.216 -0.027 0.065
0.217 -0.025 0.065
0.227 -0.024 0.068
0.268 -0.026 0.080
0.272 -0.024 0.081
0.273 -0.021 0.082
0.268 -0.018 0.080
0.267 -0.016 0.080
0.269 -0.014 0.080
0.270 -0.011 0.081
0.270 -0.009 0.081
0.272 -0.006 0.081
0.272 -0.004 0.081
0.272 -0.001 0.081
0.271 0.001 0.081
0.271 0.004 0.081
0.271 0.006 0.081
0.278 0.009 0.083
0.278 0.011 0.083
0.278 0.014 0.083
0.281 0.017 0.084
0.265 0.018 0.079
0.258 0.020 0.077
0.259 0.023 0.078
0.269 0.026 0.081
0.270 0.029 0.081
0.274 0.031 0.082
0.285 0.035 0.085
0.284 0.038 0.085
0.279 0.040 0.084
0.276 0.042 0.083
0.275 0.044 0.083
0.276 0.047 0.083
0.281 0.051 0.085
0.285 0.054 0.086
0.282 0.056 0.085
0.274 0.057 0.083
0.263 0.057 0.080
0.248 0.056 0.075
0.239 0.057 0.072
0.230 0.057 0.070
0.234 0.060 0.071
0.242 0.064 0.073
0.261 0.072 0.079
0.265 0.075 0.081
0.276 0.081 0.084
0.298 0.091 0.091
0.289 0.091 0.088
0.283 0.092 0.087
0.275 0.092 0.084
0.262 0.090 0.080
0.255 0.090 0.078
0.253 0.092 0.078
0.250 0.093 0.077
0.246 0.095 0.076
0.248 0.098 0.077
0.246 0.099 0.076
0.248 0.103 0.077
0.248 0.105 0.077
0.249 0.108 0.078
0.248 0.110 0.078
0.249 0.114 0.078
0.249 0.116 0.078
0.249 0.119 0.078
0.249 0.122 0.079
0.251 0.125 0.079
0.252 0.129 0.080
0.254 0.132 0.081
0.247 0.131 0.079
0.249 0.135 0.080
0.248 0.137 0.079
0.245 0.139 0.079
0.245 0.142 0.079
0.245 0.144 0.079
0.245 0.147 0.079
0.244 0.149 0.079
0.242 0.151 0.079
0.241 0.153 0.079
0.241 0.156 0.079
0.243 0.160 0.080
0.249 0.168 0.082
0.248 0.170 0.082
0.245 0.171 0.082
0.246 0.174 0.082
0.247 0.178 0.083
0.247 0.182 0.083
0.245 0.184 0.083
0.245 0.187 0.083
0.245 0.190 0.083
0.239 0.188 0.082
0.233 0.187 0.080
0.221 0.183 0.076
0.214 0.181 0.074
0.209 0.180 0.073
0.207 0.181 0.073
0.207 0.185 0.073
0.208 0.189 0.074
0.203 0.187 0.072
0.199 0.186 0.071
0.197 0.188 0.071
0.198 0.192 0.072
0.208 0.205 0.076
0.204 0.205 0.075
0.204 0.208 0.075
0.204 0.212 0.076
0.207 0.219 0.077
0.204 0.219 0.077
0.198 0.216 0.075
0.192 0.213 0.073
0.192 0.216 0.073
0.195 0.223 0.075
0.198 0.231 0.077
0.199 0.236 0.078
0.199 0.239 0.078
0.195 0.238 0.077
0.191 0.238 0.076
0.198 0.249 0.079
0.197 0.253 0.079
0.195 0.254 0.079
0.192 0.253 0.078
0.205 0.275 0.084
0.103 -0.140 0.043
0.103 -0.137 0.042
0.103 -0.137 0.042
0.104 -0.136 0.042
0.104 -0.134 0.042
0.105 -0.133 0.042
0.105 -0.131 0.042
0.105 -0.129 0.042
0.105 -0.128 0.042
0.105 -0.126 0.042
0.105 -0.125 0.041
0.105 -0.122 0.041
0.110 -0.126 0.043
0.104 -0.116 0.040
0.105 -0.115 0.040
0.099 -0.107 0.038
0.102 -0.108 0.039
0.104 -0.109 0.039
0.115 -0.117 0.043
0.111 -0.111 0.041
0.110 -0.108 0.040
0.245 -0.233 0.090
0.248 -0.233 0.090
0.252 -0.233 0.091
0.253 -0.230 0.091
0.254 -0.227 0.091
0.256 -0.226 0.092
0.257 -0.222 0.091
0.254 -0.217 0.090
0.253 -0.212 0.089
0.251 -0.207 0.088
0.248 -0.201 0.087
0.245 -0.195 0.085
0.236 -0.185 0.082
0.207 -0.157 0.071
0.204 -0.152 0.070
0.205 -0.150 0.070
0.199 -0.144 0.068
0.200 -0.141 0.068
0.201 -0.140 0.068
0.202 -0.138 0.068
0.200 -0.135 0.067
0.191 -0.126 0.064
0.178 -0.116 0.060
0.178 -0.114 0.060
0.191 -0.120 0.064
0.204 -0.126 0.068
0.206 -0.124 0.068
0.210 -0.124 0.069
0.213 -0.123 0.070
0.216 -0.123 0.071
0.217 -0.121 0.071
0.217 -0.119 0.071
0.215 -0.115 0.070
0.205 -0.108 0.067
0.203 -0.105 0.066
0.204 -0.103 0.066
0.205 -0.101 0.066
0.204 -0.099 0.066
0.206 -0.097 0.066
0.205 -0.095 0.066
0.205 -0.093 0.066
0.205 -0.090 0.066
0.207 -0.089 0.066
0.197 -0.083 0.063
0.207 -0.085 0.066
0.207 -0.083 0.066
0.210 -0.082 0.067
0.209 -0.079 0.066
0.207 -0.077 0.066
0.207 -0.075 0.066
0.211 -0.074 0.067
0.217 -0.074 0.068
0.220 -0.073 0.069
0.223 -0.072 0.070
0.233 -0.073 0.073
0.243 -0.074 0.076
0.253 -0.074 0.079
0.258 -0.073 0.081
0.261 -0.072 0.082
0.271 -0.072 0.085
0.273 -0.069 0.085
0.269 -0.066 0.084
0.269 -0.063 0.084
0.271 -0.061 0.084
0.271 -0.059 0.084
0.272 -0.056 0.084
0.270 -0.054 0.084
0.268 -0.051 0.083
0.264 -0.047 0.082
0.263 -0.045 0.081
0.247 -0.040 0.076
0.218 -0.031 0.067
0.215 -0.029 0.067
0.216 -0.027 0.067
0.215 -0.025 0.066
0.214 -0.023 0.066
0.219 -0.021 0.068
0.222 -0.019 0.068
0.260 -0.018 0.080
0.263 -0.016 0.081
0.265 -0.013 0.082
0.265 -0.011 0.082
0.264 -0.008 0.081
0.265 -0.006 0.082
0.267 -0.004 0.082
0.268 -0.001 0.083
0.269 0.001 0.083
0.270 0.004 0.083
0.282 0.006 0.087
0.281 0.009 0.087
0.276 0.011 0.085
0.274 0.014 0.084
0.265 0.016 0.082
0.262 0.018 0.081
0.261 0.020 0.081
0.269 0.024 0.083
0.264 0.026 0.082
0.267 0.028 0.082
0.269 0.031 0.083
0.273 0.034 0.085
0.281 0.038 0.087
0.275 0.039 0.085
0.272 0.041 0.084
0.270 0.044 0.084
0.273 0.047 0.085
0.278 0.050 0.086
0.279 0.053 0.087
0.272 0.054 0.085
0.255 0.053 0.079
0.245 0.053 0.076
0.236 0.054 0.074
0.230 0.055 0.072
0.225 0.056 0.070
0.228 0.058 0.071
0.237 0.063 0.074
0.254 0.070 0.080
0.270 0.077 0.085
0.282 0.083 0.089
0.285 0.087 0.090
0.279 0.088 0.088
0.273 0.089 0.086
0.265 0.088 0.084
0.253 0.087 0.080
0.246 0.087 0.078
0.247 0.090 0.079
0.244 0.091 0.078
0.243 0.094 0.078
0.242 0.096 0.077
0.246 0.099 0.079
0.244 0.101 0.078
0.245 0.104 0.079
0.245 0.107 0.079
0.246 0.110 0.079
0.246 0.112 0.080
0.246 0.115 0.080
0.245 0.117 0.080
0.245 0.120 0.080
0.246 0.123 0.080
0.244 0.125 0.080
0.242 0.126 0.079
0.241 0.129 0.079
0.241 0.131 0.079
0.241 0.134 0.080
0.242 0.137 0.080
0.244 0.141 0.081
0.246 0.145 0.082
0.246 0.148 0.082
0.244 0.150 0.082
0.242 0.151 0.081
0.241 0.153 0.081
0.241 0.156 0.081
0.243 0.161 0.083
0.247 0.166 0.084
0.247 0.169 0.084
0.242 0.169 0.083
0.242 0.172 0.083
0.246 0.178 0.085
0.246 0.181 0.085
0.246 0.184 0.086
0.244 0.187 0.085
0.241 0.187 0.084
0.225 0.178 0.079
0.216 0.174 0.077
0.211 0.173 0.075
0.213 0.177 0.076
0.211 0.179 0.076
0.207 0.178 0.075
0.203 0.178 0.074
0.201 0.179 0.073
0.200 0.181 0.073
0.198 0.183 0.073
0.197 0.185 0.073
0.198 0.189 0.074
0.199 0.194 0.075
0.196 0.194 0.074
0.202 0.203 0.076
0.202 0.207 0.077
0.203 0.211 0.078
0.204 0.216 0.079
0.202 0.217 0.078
0.195 0.213 0.076
0.191 0.213 0.075
0.190 0.215 0.075
0.195 0.224 0.077
0.195 0.228 0.078
0.195 0.232 0.079
0.198 0.239 0.080
0.196 0.240 0.080
0.197 0.245 0.081
0.197 0.250 0.081
0.197 0.253 0.082
0.193 0.252 0.081
0.193 0.256 0.081
0.198 0.266 0.084
0.103 -0.140 0.044
0.102 -0.137 0.043
0.103 -0.137 0.044
0.104 -0.136 0.044
0.104 -0.134 0.044
0.105 -0.133 0.044
0.105 -0.131 0.043
0.105 -0.130 0.043
0.105 -0.128 0.043
0.106 -0.127 0.043
0.106 -0.125 0.043
0.117 -0.137 0.047
0.119 -0.137 0.048
0.108 -0.122 0.043
0.105 -0.117 0.042
0.102 -0.112 0.040
0.099 -0.107 0.039
0.100 -0.107 0.039
0.102 -0.107 0.040
0.111 -0.113 0.043
0.108 -0.108 0.041
0.107 -0.105 0.041
0.239 -0.225 0.090
0.245 -0.226 0.091
0.247 -0.225 0.092
0.248 -0.222 0.092
0.248 -0.219 0.092
0.249 -0.216 0.091
0.249 -0.212 0.091
0.246 -0.207 0.090
0.246 -0.203 0.089
0.245 -0.199 0.089
0.243 -0.194 0.087
0.216 -0.167 0.077
0.206 -0.157 0.073
0.205 -0.153 0.073
0.204 -0.150 0.072
0.203 -0.147 0.071
0.200 -0.142 0.070
0.205 -0.143 0.072
0.205 -0.140 0.071
0.197 -0.133 0.068
0.187 -0.124 0.065
0.183 -0.119 0.063
0.187 -0.119 0.064
0.201 -0.126 0.069
0.204 -0.126 0.070
0.207 -0.125 0.071
0.210 -0.124 0.072
0.214 -0.124 0.073
0.216 -0.123 0.073
0.217 -0.121 0.073
0.218 -0.120 0.074
0.216 -0.116 0.073
0.209 -0.110 0.070
0.205 -0.106 0.069
0.206 -0.104 0.069
0.207 -0.102 0.069
0.209 -0.101 0.070
0.209 -0.099 0.069
0.208 -0.096 0.069
0.206 -0.093 0.068
0.205 -0.091 0.068
0.206 -0.089 0.068
0.206 -0.087 0.068
0.204 -0.084 0.067
0.209 -0.084 0.069
0.211 -0.082 0.069
0.210 -0.080 0.069
0.207 -0.077 0.068
