VERSION .7
FIELDS x y z
SIZE 4 4 4
TYPE F F F
COUNT 1 1 1
WIDTH     2586
HEIGHT 1
VIEWPOINT 0 0 0 1 0 0 0
POINTS     2586
DATA ascii
0.321 0.179 0.068
0.317 0.180 0.067
0.313 0.181 0.066
0.309 0.183 0.066
0.306 0.184 0.065
0.299 0.184 0.064
0.293 0.184 0.063
0.289 0.184 0.062
0.286 0.186 0.062
0.280 0.186 0.060
0.277 0.187 0.060
0.271 0.186 0.059
0.266 0.186 0.058
0.264 0.188 0.058
0.262 0.190 0.058
0.261 0.192 0.058
0.261 0.196 0.058
0.260 0.199 0.058
0.261 0.203 0.058
0.261 0.206 0.058
0.260 0.209 0.059
0.259 0.212 0.059
0.259 0.215 0.059
0.258 0.219 0.059
0.258 0.222 0.059
0.257 0.225 0.059
0.257 0.229 0.060
0.257 0.232 0.060
0.256 0.235 0.060
0.255 0.239 0.060
0.255 0.243 0.060
0.255 0.246 0.061
0.254 0.250 0.061
0.253 0.253 0.061
0.256 0.260 0.062
0.258 0.267 0.063
0.259 0.272 0.063
0.262 0.280 0.064
0.267 0.290 0.066
0.271 0.299 0.068
0.271 0.305 0.068
0.267 0.305 0.068
0.263 0.305 0.067
0.277 0.327 0.071
0.280 0.336 0.072
0.202 0.258 0.053
0.193 0.251 0.051
0.197 0.260 0.053
0.111 -0.155 0.031
0.112 -0.154 0.031
0.113 -0.153 0.031
0.116 -0.155 0.032
0.118 -0.156 0.032
0.117 -0.153 0.032
0.114 -0.147 0.031
0.114 -0.144 0.031
0.116 -0.144 0.031
0.118 -0.146 0.032
0.118 -0.143 0.031
0.131 -0.157 0.035
0.135 -0.159 0.035
0.291 -0.318 0.074
0.292 -0.314 0.074
0.292 -0.310 0.074
0.291 -0.305 0.073
0.293 -0.302 0.073
0.294 -0.298 0.073
0.293 -0.293 0.073
0.293 -0.287 0.072
0.293 -0.283 0.072
0.292 -0.278 0.071
0.292 -0.274 0.071
0.290 -0.268 0.070
0.290 -0.263 0.070
0.290 -0.260 0.069
0.290 -0.255 0.069
0.289 -0.250 0.068
0.288 -0.246 0.068
0.287 -0.241 0.067
0.282 -0.233 0.066
0.282 -0.229 0.066
0.279 -0.223 0.065
0.277 -0.218 0.064
0.223 -0.172 0.051
0.214 -0.163 0.049
0.211 -0.158 0.048
0.210 -0.155 0.048
0.209 -0.151 0.048
0.209 -0.149 0.047
0.213 -0.149 0.048
0.209 -0.144 0.047
0.205 -0.138 0.046
0.208 -0.138 0.047
0.219 -0.143 0.049
0.220 -0.141 0.049
0.221 -0.139 0.049
0.222 -0.137 0.049
0.222 -0.135 0.049
0.218 -0.130 0.048
0.211 -0.123 0.046
0.210 -0.120 0.046
0.211 -0.119 0.046
0.213 -0.117 0.046
0.212 -0.114 0.046
0.211 -0.112 0.046
0.207 -0.108 0.045
0.218 -0.111 0.047
0.212 -0.106 0.046
0.216 -0.105 0.046
0.216 -0.103 0.046
0.206 -0.096 0.044
0.215 -0.098 0.046
0.213 -0.095 0.045
0.211 -0.092 0.045
0.213 -0.091 0.045
0.213 -0.089 0.045
0.215 -0.087 0.045
0.211 -0.084 0.045
0.220 -0.085 0.046
0.215 -0.081 0.045
0.223 -0.082 0.047
0.218 -0.078 0.046
0.216 -0.075 0.045
0.217 -0.073 0.046
0.227 -0.074 0.048
0.235 -0.075 0.049
0.240 -0.074 0.050
0.247 -0.074 0.052
0.258 -0.075 0.054
0.271 -0.076 0.056
0.350 -0.095 0.073
0.364 -0.095 0.076
0.369 -0.093 0.076
0.370 -0.090 0.077
0.364 -0.085 0.075
0.360 -0.081 0.074
0.355 -0.076 0.073
0.353 -0.073 0.073
0.351 -0.069 0.073
0.343 -0.064 0.071
0.296 -0.050 0.061
0.286 -0.046 0.059
0.282 -0.042 0.058
0.284 -0.040 0.058
0.286 -0.038 0.059
0.290 -0.036 0.060
0.290 -0.033 0.059
0.286 -0.030 0.059
0.284 -0.027 0.058
0.283 -0.024 0.058
0.284 -0.022 0.058
0.287 -0.020 0.059
0.288 -0.017 0.059
0.288 -0.014 0.059
0.288 -0.012 0.059
0.292 -0.009 0.060
0.293 -0.007 0.060
0.295 -0.004 0.061
0.295 -0.001 0.060
0.294 0.001 0.060
0.295 0.004 0.060
0.296 0.007 0.061
0.296 0.009 0.061
0.296 0.012 0.061
0.297 0.015 0.061
0.297 0.017 0.061
0.297 0.020 0.061
0.299 0.023 0.061
0.299 0.026 0.061
0.293 0.028 0.060
0.297 0.031 0.061
0.307 0.035 0.063
0.310 0.038 0.064
0.302 0.040 0.062
0.296 0.042 0.061
0.292 0.044 0.060
0.313 0.050 0.064
0.309 0.052 0.064
0.296 0.053 0.061
0.295 0.055 0.061
0.299 0.059 0.062
0.295 0.061 0.061
0.279 0.060 0.058
0.285 0.064 0.059
0.295 0.069 0.061
0.294 0.072 0.061
0.295 0.075 0.061
0.304 0.080 0.063
0.308 0.084 0.064
0.306 0.086 0.064
0.302 0.088 0.063
0.309 0.093 0.065
0.312 0.097 0.065
0.305 0.098 0.064
0.295 0.097 0.062
0.292 0.099 0.062
0.288 0.101 0.061
0.277 0.100 0.059
0.271 0.100 0.057
0.277 0.105 0.059
0.278 0.108 0.059
0.279 0.112 0.059
0.322 0.135 0.069
0.323 0.139 0.069
0.320 0.141 0.069
0.317 0.143 0.068
0.310 0.143 0.067
0.322 0.152 0.069
0.325 0.157 0.070
0.322 0.159 0.070
0.321 0.162 0.070
0.319 0.164 0.069
0.322 0.169 0.070
0.319 0.171 0.070
0.318 0.174 0.070
0.316 0.176 0.069
0.314 0.179 0.069
0.311 0.181 0.069
0.309 0.183 0.068
0.306 0.184 0.068
0.300 0.185 0.067
0.292 0.183 0.065
0.289 0.184 0.065
0.284 0.185 0.064
0.279 0.185 0.063
0.276 0.186 0.063
0.271 0.186 0.062
0.266 0.186 0.061
0.263 0.187 0.060
0.261 0.189 0.060
0.261 0.192 0.060
0.261 0.196 0.060
0.260 0.199 0.060
0.260 0.202 0.061
0.260 0.206 0.061
0.259 0.209 0.061
0.259 0.212 0.061
0.259 0.216 0.062
0.258 0.219 0.062
0.258 0.222 0.062
0.257 0.225 0.062
0.256 0.229 0.062
0.256 0.232 0.062
0.256 0.235 0.063
0.255 0.239 0.063
0.254 0.242 0.063
0.255 0.247 0.064
0.253 0.250 0.063
0.251 0.252 0.063
0.252 0.257 0.064
0.255 0.264 0.065
0.254 0.267 0.065
0.259 0.278 0.067
0.264 0.287 0.068
0.205 0.243 0.055
0.203 0.244 0.055
0.202 0.247 0.055
0.201 0.250 0.055
0.196 0.247 0.054
0.193 0.247 0.054
0.192 0.250 0.054
0.179 0.237 0.050
0.116 -0.161 0.034
0.111 -0.153 0.032
0.110 -0.150 0.032
0.110 -0.148 0.032
0.110 -0.146 0.032
0.109 -0.142 0.031
0.111 -0.143 0.032
0.109 -0.139 0.031
0.115 -0.144 0.032
0.118 -0.146 0.033
0.124 -0.151 0.034
0.125 -0.150 0.035
0.136 -0.155 0.037
0.295 -0.313 0.078
0.292 -0.306 0.077
0.293 -0.302 0.077
0.293 -0.297 0.076
0.293 -0.293 0.076
0.294 -0.289 0.076
0.291 -0.282 0.074
0.290 -0.276 0.074
0.290 -0.273 0.074
0.290 -0.268 0.073
0.290 -0.264 0.073
0.289 -0.259 0.072
0.289 -0.255 0.072
0.289 -0.250 0.072
0.287 -0.245 0.071
0.288 -0.242 0.071
0.287 -0.237 0.070
0.281 -0.228 0.068
0.279 -0.223 0.068
0.269 -0.212 0.065
0.220 -0.170 0.053
0.213 -0.162 0.051
0.209 -0.156 0.050
0.208 -0.153 0.050
0.207 -0.150 0.049
0.207 -0.147 0.049
0.208 -0.145 0.049
0.205 -0.141 0.048
0.204 -0.138 0.048
0.208 -0.138 0.049
0.212 -0.139 0.050
0.214 -0.137 0.050
0.215 -0.135 0.050
0.217 -0.134 0.050
0.216 -0.131 0.050
0.217 -0.129 0.050
0.203 -0.118 0.046
0.204 -0.117 0.047
0.206 -0.116 0.047
0.206 -0.114 0.047
0.209 -0.113 0.047
0.208 -0.110 0.047
0.209 -0.109 0.047
0.209 -0.106 0.047
0.207 -0.103 0.047
0.216 -0.105 0.049
0.216 -0.103 0.048
0.212 -0.099 0.048
0.203 -0.093 0.045
0.201 -0.090 0.045
0.204 -0.089 0.045
0.207 -0.088 0.046
0.204 -0.085 0.045
0.212 -0.086 0.047
0.202 -0.080 0.045
0.209 -0.081 0.046
0.205 -0.077 0.045
0.209 -0.077 0.046
0.214 -0.076 0.047
0.223 -0.077 0.049
0.225 -0.076 0.049
0.227 -0.075 0.050
0.234 -0.075 0.051
0.239 -0.074 0.052
0.243 -0.073 0.053
0.252 -0.073 0.055
0.255 -0.072 0.056
0.343 -0.090 0.074
0.360 -0.091 0.078
0.359 -0.087 0.078
0.359 -0.084 0.078
0.356 -0.080 0.077
0.347 -0.074 0.075
0.340 -0.070 0.073
0.339 -0.067 0.073
0.330 -0.062 0.071
0.314 -0.056 0.068
0.295 -0.050 0.064
0.285 -0.045 0.061
0.284 -0.043 0.061
0.286 -0.040 0.061
0.289 -0.038 0.062
0.289 -0.036 0.062
0.288 -0.033 0.062
0.285 -0.030 0.061
0.282 -0.027 0.061
0.280 -0.024 0.060
0.283 -0.022 0.061
0.287 -0.020 0.062
0.290 -0.017 0.062
0.291 -0.015 0.062
0.289 -0.012 0.062
0.289 -0.009 0.062
0.287 -0.007 0.061
0.287 -0.004 0.062
0.291 -0.001 0.062
0.295 0.001 0.063
0.298 0.004 0.064
0.298 0.007 0.064
0.299 0.009 0.064
0.300 0.012 0.064
0.301 0.015 0.064
0.299 0.018 0.064
0.299 0.020 0.064
0.299 0.023 0.064
0.296 0.025 0.063
0.295 0.028 0.063
0.296 0.031 0.064
0.305 0.035 0.066
0.303 0.037 0.065
0.299 0.039 0.064
0.297 0.042 0.064
0.312 0.047 0.067
0.312 0.050 0.067
0.312 0.053 0.067
0.302 0.054 0.065
0.306 0.057 0.066
0.304 0.060 0.066
0.286 0.059 0.062
0.273 0.059 0.059
0.274 0.062 0.059
0.284 0.066 0.062
0.290 0.071 0.063
0.288 0.073 0.063
0.302 0.079 0.066
0.305 0.083 0.067
0.300 0.085 0.065
0.296 0.086 0.065
0.300 0.090 0.066
0.304 0.094 0.067
0.299 0.096 0.066
0.291 0.096 0.064
0.293 0.100 0.064
0.292 0.102 0.064
0.283 0.102 0.062
0.282 0.104 0.062
0.295 0.112 0.065
0.297 0.116 0.066
0.276 0.110 0.061
0.268 0.110 0.060
0.321 0.135 0.072
0.317 0.137 0.071
0.317 0.140 0.071
0.318 0.143 0.071
0.321 0.148 0.072
0.309 0.146 0.070
0.309 0.149 0.070
0.311 0.154 0.070
0.313 0.158 0.071
0.315 0.162 0.072
0.315 0.166 0.072
0.317 0.170 0.072
0.317 0.173 0.073
0.314 0.175 0.072
0.312 0.178 0.072
0.309 0.180 0.071
0.307 0.182 0.071
0.304 0.183 0.071
0.299 0.184 0.070
0.293 0.184 0.068
0.288 0.184 0.068
0.282 0.184 0.066
0.279 0.185 0.066
0.275 0.186 0.065
0.271 0.187 0.064
0.265 0.186 0.063
0.263 0.187 0.063
0.261 0.189 0.063
0.261 0.193 0.063
0.260 0.196 0.063
0.261 0.199 0.063
0.259 0.202 0.063
0.259 0.205 0.064
0.259 0.208 0.064
0.259 0.213 0.064
0.258 0.215 0.064
0.257 0.218 0.064
0.256 0.221 0.064
0.257 0.225 0.065
0.256 0.228 0.065
0.257 0.233 0.065
0.256 0.236 0.065
0.255 0.239 0.066
0.256 0.245 0.066
0.255 0.247 0.066
0.244 0.241 0.064
0.243 0.244 0.064
0.252 0.257 0.067
0.242 0.251 0.065
0.199 0.232 0.056
0.199 0.235 0.056
0.196 0.236 0.055
0.193 0.236 0.055
0.192 0.238 0.055
0.191 0.241 0.055
0.195 0.250 0.056
0.225 0.297 0.066
0.102 -0.142 0.031
0.097 -0.133 0.029
0.099 -0.135 0.030
0.100 -0.135 0.030
0.101 -0.133 0.030
0.101 -0.132 0.030
0.100 -0.129 0.030
0.101 -0.128 0.030
0.101 -0.127 0.030
0.102 -0.126 0.030
0.100 -0.122 0.029
0.103 -0.123 0.030
0.103 -0.122 0.029
0.110 -0.128 0.031
0.126 -0.144 0.036
0.127 -0.141 0.035
0.123 -0.135 0.034
0.135 -0.146 0.038
0.280 -0.293 0.077
0.283 -0.293 0.077
0.278 -0.283 0.075
0.290 -0.290 0.078
0.288 -0.283 0.077
0.287 -0.278 0.077
0.287 -0.274 0.076
0.287 -0.269 0.076
0.288 -0.266 0.076
0.289 -0.263 0.076
0.289 -0.259 0.075
0.288 -0.254 0.075
0.288 -0.250 0.075
0.287 -0.245 0.074
0.288 -0.242 0.074
0.288 -0.238 0.073
0.284 -0.231 0.072
0.277 -0.222 0.070
0.211 -0.161 0.053
0.206 -0.154 0.051
0.203 -0.149 0.050
0.202 -0.146 0.050
0.201 -0.143 0.050
0.202 -0.142 0.050
0.201 -0.138 0.049
0.202 -0.137 0.049
0.206 -0.137 0.050
0.209 -0.137 0.051
0.207 -0.133 0.050
0.204 -0.128 0.049
0.204 -0.126 0.049
0.209 -0.127 0.050
0.208 -0.124 0.050
0.203 -0.119 0.049
0.199 -0.114 0.048
0.201 -0.113 0.048
0.208 -0.115 0.049
0.220 -0.119 0.052
0.209 -0.111 0.049
0.181 -0.092 0.043
0.173 -0.086 0.041
0.171 -0.083 0.040
0.172 -0.082 0.040
0.173 -0.081 0.040
0.174 -0.080 0.041
0.175 -0.078 0.041
0.176 -0.077 0.041
0.178 -0.076 0.041
0.179 -0.075 0.041
0.180 -0.073 0.041
0.183 -0.073 0.042
0.190 -0.073 0.044
0.209 -0.079 0.048
0.214 -0.079 0.049
0.217 -0.078 0.050
0.224 -0.078 0.051
0.229 -0.077 0.052
0.231 -0.076 0.053
0.234 -0.075 0.053
0.241 -0.074 0.055
0.247 -0.074 0.056
0.250 -0.072 0.057
0.335 -0.088 0.076
0.344 -0.087 0.078
0.349 -0.085 0.079
0.355 -0.083 0.080
0.347 -0.078 0.078
0.336 -0.072 0.076
0.331 -0.068 0.075
0.329 -0.065 0.074
0.326 -0.061 0.073
0.312 -0.056 0.070
0.291 -0.049 0.065
0.282 -0.045 0.063
0.282 -0.042 0.063
0.285 -0.040 0.064
0.287 -0.038 0.064
0.286 -0.035 0.064
0.287 -0.033 0.064
0.285 -0.030 0.064
0.283 -0.027 0.063
0.282 -0.024 0.063
0.285 -0.022 0.064
0.288 -0.020 0.064
0.289 -0.017 0.065
0.292 -0.015 0.065
0.286 -0.012 0.064
0.285 -0.009 0.064
0.283 -0.006 0.063
0.283 -0.004 0.063
0.288 -0.001 0.064
0.297 0.001 0.066
0.293 0.004 0.066
0.294 0.007 0.066
0.299 0.009 0.067
0.301 0.012 0.067
0.299 0.015 0.067
0.300 0.018 0.067
0.298 0.020 0.067
0.299 0.023 0.067
0.298 0.026 0.067
0.296 0.028 0.066
0.296 0.031 0.066
0.294 0.033 0.066
0.288 0.035 0.065
0.287 0.038 0.065
0.303 0.043 0.068
0.312 0.047 0.070
0.310 0.049 0.070
0.307 0.052 0.069
0.305 0.054 0.069
0.308 0.058 0.069
0.301 0.059 0.068
0.290 0.060 0.065
0.282 0.061 0.064
0.286 0.064 0.065
0.270 0.063 0.061
0.273 0.069 0.062
0.296 0.078 0.067
0.299 0.082 0.068
0.293 0.083 0.067
0.291 0.085 0.066
0.295 0.089 0.067
0.297 0.093 0.068
0.295 0.095 0.068
0.294 0.097 0.067
0.300 0.102 0.069
0.305 0.107 0.070
0.304 0.110 0.070
0.306 0.113 0.071
0.308 0.117 0.071
0.309 0.121 0.072
0.302 0.121 0.070
0.276 0.113 0.064
0.306 0.135 0.072
0.317 0.143 0.074
0.317 0.146 0.074
0.315 0.149 0.074
0.309 0.149 0.073
0.304 0.150 0.072
0.307 0.155 0.073
0.307 0.158 0.073
0.308 0.162 0.073
0.314 0.169 0.075
0.315 0.173 0.075
0.312 0.175 0.075
0.308 0.176 0.074
0.306 0.178 0.074
0.301 0.179 0.073
0.298 0.180 0.072
0.293 0.181 0.071
0.290 0.182 0.071
0.287 0.184 0.070
0.282 0.184 0.069
0.277 0.184 0.068
0.274 0.185 0.068
0.270 0.186 0.067
0.265 0.186 0.066
0.262 0.187 0.066
0.261 0.189 0.065
0.261 0.193 0.066
0.261 0.196 0.066
0.260 0.199 0.066
0.260 0.203 0.066
0.259 0.205 0.066
0.259 0.209 0.066
0.259 0.212 0.067
0.257 0.215 0.067
0.254 0.216 0.066
0.254 0.219 0.066
0.252 0.221 0.066
0.257 0.230 0.068
0.256 0.232 0.068
0.251 0.232 0.067
0.252 0.237 0.068
0.252 0.241 0.068
0.244 0.237 0.066
0.234 0.232 0.064
0.234 0.236 0.064
0.208 0.220 0.058
0.202 0.217 0.057
0.201 0.220 0.057
0.203 0.226 0.058
0.205 0.231 0.059
0.196 0.229 0.057
0.195 0.231 0.057
0.195 0.235 0.058
0.197 0.242 0.058
0.225 0.280 0.067
0.230 0.291 0.069
0.251 0.333 0.077
0.099 -0.137 0.031
0.100 -0.136 0.031
0.100 -0.135 0.031
0.101 -0.134 0.031
0.101 -0.133 0.031
0.102 -0.131 0.031
0.100 -0.127 0.031
0.101 -0.127 0.031
0.102 -0.126 0.031
0.103 -0.125 0.031
0.102 -0.123 0.031
0.102 -0.121 0.030
0.101 -0.118 0.030
0.103 -0.118 0.030
0.105 -0.118 0.031
0.121 -0.135 0.035
0.119 -0.131 0.035
0.124 -0.134 0.036
0.272 -0.281 0.077
0.273 -0.278 0.077
0.276 -0.276 0.078
0.281 -0.278 0.079
0.283 -0.275 0.079
0.279 -0.267 0.077
0.280 -0.264 0.077
0.282 -0.261 0.077
0.284 -0.259 0.078
0.286 -0.257 0.078
0.287 -0.253 0.078
0.285 -0.248 0.077
0.285 -0.244 0.076
0.285 -0.240 0.076
0.283 -0.235 0.075
0.280 -0.228 0.074
0.272 -0.218 0.072
0.204 -0.155 0.053
0.204 -0.153 0.053
0.203 -0.150 0.053
0.199 -0.144 0.051
0.198 -0.141 0.051
0.200 -0.140 0.051
0.202 -0.139 0.052
0.202 -0.137 0.052
0.204 -0.136 0.052
0.208 -0.136 0.053
0.208 -0.133 0.052
0.204 -0.129 0.051
0.204 -0.126 0.051
0.207 -0.126 0.052
0.208 -0.124 0.052
0.210 -0.123 0.052
0.209 -0.120 0.052
0.215 -0.121 0.053
0.171 -0.093 0.042
0.169 -0.090 0.042
0.170 -0.088 0.042
0.171 -0.087 0.042
0.171 -0.082 0.042
0.173 -0.081 0.042
0.174 -0.080 0.042
0.174 -0.078 0.042
0.176 -0.077 0.042
0.177 -0.076 0.043
0.178 -0.074 0.043
0.180 -0.073 0.043
0.180 -0.072 0.043
0.182 -0.070 0.044
0.182 -0.069 0.044
0.186 -0.068 0.045
0.190 -0.068 0.045
0.218 -0.076 0.052
0.231 -0.078 0.055
0.231 -0.076 0.055
0.233 -0.074 0.055
0.242 -0.075 0.057
0.247 -0.074 0.058
0.251 -0.073 0.059
0.265 -0.074 0.063
0.330 -0.087 0.078
0.336 -0.085 0.079
0.342 -0.083 0.081
0.340 -0.079 0.080
0.346 -0.078 0.081
0.328 -0.071 0.077
0.324 -0.067 0.076
0.324 -0.064 0.076
0.323 -0.061 0.076
0.312 -0.055 0.073
0.286 -0.048 0.067
0.282 -0.045 0.066
0.283 -0.043 0.066
0.280 -0.040 0.066
0.282 -0.037 0.066
0.284 -0.035 0.066
0.286 -0.033 0.067
0.287 -0.030 0.067
0.287 -0.027 0.067
0.287 -0.025 0.067
0.285 -0.022 0.066
0.286 -0.020 0.067
0.289 -0.017 0.067
0.286 -0.014 0.067
0.284 -0.012 0.066
0.285 -0.009 0.066
0.282 -0.006 0.066
0.284 -0.004 0.066
0.293 -0.001 0.068
0.293 0.001 0.068
0.292 0.004 0.068
0.291 0.007 0.068
0.294 0.009 0.068
0.294 0.012 0.068
0.293 0.015 0.068
0.292 0.017 0.068
0.296 0.020 0.069
0.296 0.023 0.069
0.297 0.026 0.069
0.295 0.028 0.069
0.288 0.030 0.067
0.280 0.032 0.066
0.271 0.033 0.063
0.279 0.037 0.065
0.297 0.042 0.069
0.306 0.046 0.072
0.303 0.048 0.071
0.305 0.052 0.072
0.301 0.054 0.071
0.302 0.057 0.071
0.287 0.057 0.068
0.290 0.060 0.068
0.293 0.063 0.069
0.292 0.066 0.069
0.293 0.069 0.069
0.293 0.072 0.069
0.293 0.074 0.069
0.292 0.077 0.069
0.290 0.079 0.069
0.286 0.081 0.068
0.276 0.080 0.065
0.290 0.088 0.069
0.303 0.094 0.072
0.301 0.097 0.072
0.300 0.099 0.072
0.300 0.102 0.072
0.304 0.107 0.073
0.307 0.111 0.074
0.306 0.113 0.073
0.306 0.116 0.074
0.303 0.118 0.073
0.306 0.123 0.074
0.308 0.127 0.075
0.275 0.121 0.067
0.306 0.138 0.075
0.310 0.144 0.076
0.311 0.147 0.076
0.307 0.149 0.075
0.301 0.149 0.074
0.293 0.148 0.072
0.296 0.153 0.073
0.300 0.158 0.074
0.301 0.162 0.075
0.301 0.165 0.075
0.301 0.169 0.075
0.299 0.171 0.075
0.301 0.175 0.076
0.296 0.176 0.075
0.291 0.176 0.074
0.291 0.180 0.074
0.287 0.181 0.073
0.283 0.182 0.072
0.278 0.182 0.071
0.275 0.183 0.071
0.272 0.184 0.070
0.268 0.185 0.069
0.265 0.186 0.069
0.262 0.187 0.068
0.262 0.191 0.068
0.261 0.194 0.069
0.260 0.196 0.069
0.260 0.199 0.069
0.260 0.203 0.069
0.259 0.206 0.069
0.259 0.210 0.069
0.258 0.212 0.069
0.255 0.213 0.069
0.253 0.215 0.069
0.252 0.218 0.069
0.255 0.225 0.070
0.254 0.227 0.070
0.249 0.227 0.069
0.246 0.228 0.068
0.242 0.228 0.068
0.240 0.230 0.068
0.229 0.223 0.065
0.227 0.225 0.065
0.227 0.229 0.065
0.213 0.218 0.061
0.206 0.215 0.060
0.201 0.213 0.059
0.199 0.215 0.059
0.200 0.219 0.059
0.202 0.225 0.060
0.202 0.229 0.061
0.214 0.246 0.064
0.219 0.256 0.066
0.231 0.274 0.070
0.221 0.272 0.068
0.221 0.276 0.069
0.227 0.287 0.071
0.220 0.288 0.070
0.231 0.307 0.074
0.100 -0.138 0.033
0.101 -0.137 0.033
0.101 -0.135 0.033
0.102 -0.135 0.033
0.102 -0.133 0.033
0.102 -0.132 0.033
0.102 -0.130 0.033
0.102 -0.129 0.032
0.103 -0.127 0.032
0.103 -0.126 0.032
0.103 -0.124 0.032
0.103 -0.122 0.032
0.103 -0.120 0.032
0.103 -0.118 0.032
0.102 -0.116 0.031
0.102 -0.114 0.031
0.115 -0.127 0.035
0.114 -0.124 0.034
0.111 -0.119 0.033
0.266 -0.271 0.078
0.274 -0.275 0.080
0.278 -0.274 0.081
0.278 -0.270 0.080
0.278 -0.266 0.080
0.277 -0.261 0.080
0.279 -0.259 0.080
0.280 -0.256 0.079
0.282 -0.253 0.080
0.282 -0.249 0.079
0.280 -0.244 0.079
0.280 -0.240 0.078
0.280 -0.236 0.078
0.277 -0.229 0.077
0.274 -0.223 0.075
0.263 -0.211 0.072
0.208 -0.159 0.057
0.205 -0.154 0.056
0.205 -0.151 0.055
0.202 -0.147 0.054
0.197 -0.141 0.053
0.201 -0.141 0.054
0.208 -0.144 0.055
0.207 -0.140 0.055
0.203 -0.135 0.054
0.207 -0.135 0.054
0.207 -0.133 0.054
0.209 -0.132 0.055
0.208 -0.129 0.054
0.205 -0.125 0.053
0.213 -0.127 0.055
0.214 -0.126 0.056
0.183 -0.105 0.047
0.169 -0.096 0.044
0.169 -0.093 0.043
0.168 -0.091 0.043
0.169 -0.090 0.043
0.171 -0.089 0.044
0.171 -0.087 0.044
0.172 -0.086 0.044
0.173 -0.085 0.044
0.179 -0.086 0.045
0.181 -0.085 0.046
0.184 -0.084 0.046
0.193 -0.084 0.049
0.190 -0.081 0.048
0.187 -0.078 0.047
0.180 -0.073 0.045
0.181 -0.072 0.045
0.181 -0.070 0.045
0.182 -0.069 0.045
0.185 -0.068 0.046
0.186 -0.067 0.046
0.186 -0.065 0.046
0.189 -0.064 0.047
0.203 -0.067 0.050
0.233 -0.074 0.058
0.237 -0.074 0.059
0.244 -0.073 0.060
0.246 -0.072 0.061
0.255 -0.072 0.063
0.318 -0.083 0.078
0.330 -0.084 0.081
0.328 -0.080 0.080
0.327 -0.077 0.080
0.325 -0.073 0.079
0.322 -0.069 0.079
0.316 -0.065 0.077
0.317 -0.062 0.077
0.318 -0.060 0.078
0.306 -0.055 0.075
0.289 -0.049 0.070
0.283 -0.045 0.069
0.284 -0.043 0.069
0.282 -0.040 0.068
0.280 -0.037 0.068
0.283 -0.035 0.069
0.285 -0.032 0.069
0.285 -0.030 0.069
0.288 -0.028 0.070
0.287 -0.025 0.070
0.285 -0.022 0.069
0.286 -0.020 0.069
0.287 -0.017 0.070
0.287 -0.014 0.069
0.285 -0.012 0.069
0.287 -0.009 0.070
0.286 -0.007 0.069
0.284 -0.004 0.069
0.290 -0.001 0.070
0.291 0.001 0.070
0.289 0.004 0.070
0.290 0.007 0.070
0.288 0.009 0.070
0.284 0.012 0.069
0.284 0.014 0.069
0.292 0.017 0.071
0.290 0.020 0.070
0.291 0.022 0.071
0.293 0.025 0.071
0.291 0.028 0.071
0.280 0.029 0.068
0.293 0.033 0.071
0.272 0.034 0.066
0.277 0.037 0.067
0.291 0.041 0.071
0.300 0.045 0.073
0.302 0.048 0.074
0.302 0.051 0.074
0.301 0.054 0.073
0.291 0.055 0.071
0.291 0.058 0.071
0.296 0.061 0.072
0.297 0.064 0.073
0.296 0.067 0.073
0.291 0.068 0.071
0.291 0.071 0.071
0.289 0.073 0.071
0.285 0.075 0.070
0.288 0.079 0.071
0.276 0.078 0.068
0.263 0.077 0.065
0.270 0.082 0.067
0.301 0.094 0.075
0.306 0.098 0.076
0.300 0.100 0.075
0.299 0.102 0.074
0.300 0.105 0.075
0.301 0.109 0.075
0.300 0.111 0.075
0.297 0.113 0.074
0.296 0.116 0.074
0.293 0.118 0.074
0.297 0.122 0.075
0.302 0.127 0.076
0.292 0.126 0.074
0.266 0.118 0.067
0.267 0.121 0.068
0.303 0.144 0.077
0.299 0.145 0.076
0.293 0.145 0.075
0.290 0.147 0.075
0.289 0.149 0.074
0.299 0.158 0.077
0.297 0.160 0.077
0.297 0.163 0.077
0.294 0.165 0.076
0.293 0.167 0.076
0.292 0.170 0.076
0.285 0.170 0.075
0.285 0.173 0.075
0.285 0.176 0.075
0.285 0.180 0.075
0.281 0.180 0.074
0.276 0.181 0.073
0.272 0.181 0.073
0.270 0.183 0.072
0.267 0.185 0.072
0.265 0.187 0.072
0.263 0.189 0.071
0.262 0.191 0.071
0.261 0.194 0.071
0.261 0.197 0.071
0.260 0.199 0.071
0.259 0.202 0.072
0.260 0.207 0.072
0.260 0.210 0.072
0.258 0.213 0.072
0.256 0.214 0.072
0.255 0.217 0.072
0.251 0.218 0.071
0.250 0.221 0.071
0.246 0.220 0.070
0.245 0.223 0.071
0.243 0.225 0.070
0.239 0.225 0.070
0.232 0.222 0.068
0.228 0.222 0.067
0.223 0.221 0.066
0.215 0.217 0.064
0.210 0.216 0.063
0.204 0.213 0.062
0.201 0.213 0.061
0.201 0.217 0.061
0.207 0.227 0.064
0.211 0.235 0.065
0.213 0.245 0.067
0.224 0.263 0.071
0.230 0.274 0.073
0.222 0.268 0.071
0.210 0.258 0.068
0.204 0.255 0.066
0.203 0.257 0.066
0.208 0.268 0.068
0.211 0.276 0.070
0.191 0.253 0.063
0.100 -0.138 0.034
0.101 -0.138 0.034
0.102 -0.137 0.034
0.102 -0.135 0.034
0.103 -0.135 0.034
0.102 -0.132 0.034
0.103 -0.131 0.034
0.103 -0.130 0.034
0.103 -0.128 0.034
0.103 -0.126 0.034
0.103 -0.124 0.033
0.103 -0.123 0.033
0.104 -0.121 0.033
0.104 -0.120 0.033
0.103 -0.117 0.033
0.103 -0.115 0.032
0.104 -0.114 0.033
0.107 -0.116 0.033
0.105 -0.113 0.033
0.110 -0.115 0.034
0.274 -0.275 0.083
0.275 -0.272 0.083
0.277 -0.269 0.083
0.279 -0.267 0.083
0.277 -0.261 0.082
0.277 -0.257 0.082
0.279 -0.255 0.082
0.279 -0.251 0.082
0.279 -0.247 0.082
0.279 -0.243 0.081
0.279 -0.240 0.081
0.275 -0.232 0.079
0.274 -0.228 0.079
0.271 -0.222 0.078
0.255 -0.205 0.073
0.244 -0.193 0.069
0.211 -0.162 0.060
0.204 -0.153 0.057
0.208 -0.154 0.058
0.205 -0.149 0.057
0.201 -0.143 0.056
0.204 -0.143 0.057
0.207 -0.143 0.057
0.206 -0.140 0.057
0.204 -0.136 0.056
0.205 -0.134 0.056
0.207 -0.133 0.056
0.206 -0.130 0.056
0.207 -0.128 0.056
0.212 -0.129 0.057
0.170 -0.100 0.046
0.168 -0.097 0.045
0.169 -0.095 0.045
0.169 -0.094 0.045
0.169 -0.092 0.045
0.171 -0.091 0.046
0.172 -0.090 0.046
0.207 -0.104 0.055
0.207 -0.101 0.054
0.209 -0.100 0.055
0.212 -0.099 0.056
0.211 -0.097 0.055
0.210 -0.094 0.055
0.195 -0.085 0.051
0.212 -0.091 0.055
0.209 -0.087 0.054
0.211 -0.086 0.055
0.214 -0.085 0.055
0.216 -0.084 0.056
0.196 -0.074 0.051
0.187 -0.069 0.048
0.185 -0.066 0.048
0.186 -0.065 0.048
0.186 -0.063 0.048
0.188 -0.062 0.048
0.190 -0.061 0.049
0.193 -0.060 0.050
0.246 -0.072 0.063
0.296 -0.080 0.075
0.307 -0.081 0.078
0.319 -0.081 0.081
0.316 -0.077 0.080
0.317 -0.074 0.081
0.316 -0.071 0.080
0.310 -0.067 0.079
0.308 -0.063 0.078
0.309 -0.061 0.078
0.310 -0.058 0.078
0.299 -0.053 0.076
0.288 -0.049 0.073
0.283 -0.045 0.071
0.283 -0.043 0.071
0.284 -0.040 0.072
0.283 -0.037 0.071
0.284 -0.035 0.072
0.281 -0.032 0.071
0.281 -0.029 0.071
0.284 -0.027 0.072
0.284 -0.025 0.071
0.282 -0.022 0.071
0.285 -0.019 0.072
0.285 -0.017 0.072
0.286 -0.014 0.072
0.286 -0.012 0.072
0.285 -0.009 0.072
0.286 -0.007 0.072
0.288 -0.004 0.072
0.286 -0.001 0.072
0.289 0.001 0.073
0.289 0.004 0.073
0.290 0.007 0.073
0.288 0.009 0.072
0.282 0.012 0.071
0.278 0.014 0.070
0.285 0.017 0.072
0.294 0.020 0.074
0.291 0.023 0.073
0.288 0.025 0.073
0.288 0.028 0.073
0.294 0.031 0.074
0.278 0.032 0.070
0.280 0.035 0.071
0.281 0.037 0.071
0.287 0.041 0.072
0.296 0.045 0.075
0.300 0.048 0.076
0.299 0.051 0.076
0.293 0.052 0.074
0.291 0.055 0.074
0.293 0.058 0.074
0.297 0.062 0.076
0.299 0.065 0.076
0.289 0.065 0.074
0.283 0.067 0.072
0.280 0.068 0.071
0.277 0.070 0.071
0.274 0.072 0.070
0.273 0.075 0.070
0.271 0.077 0.069
0.251 0.073 0.064
0.263 0.079 0.068
0.286 0.089 0.074
0.297 0.096 0.077
0.300 0.100 0.077
0.296 0.101 0.076
0.293 0.103 0.076
0.294 0.106 0.076
0.293 0.109 0.076
0.292 0.111 0.076
0.290 0.113 0.075
0.289 0.116 0.076
0.292 0.120 0.076
0.295 0.125 0.077
0.295 0.128 0.077
0.290 0.128 0.076
0.276 0.125 0.073
0.270 0.125 0.071
0.267 0.127 0.071
0.275 0.133 0.073
0.286 0.142 0.076
0.289 0.147 0.077
0.289 0.150 0.077
0.295 0.156 0.079
0.295 0.159 0.079
0.289 0.159 0.078
0.289 0.162 0.078
0.288 0.165 0.078
0.285 0.166 0.077
0.280 0.167 0.076
0.280 0.170 0.076
0.281 0.174 0.077
0.278 0.176 0.076
0.277 0.178 0.076
0.272 0.178 0.075
0.268 0.179 0.074
0.266 0.181 0.074
0.267 0.185 0.075
0.265 0.186 0.074
0.262 0.188 0.074
0.260 0.190 0.074
0.261 0.194 0.074
0.260 0.196 0.074
0.259 0.199 0.074
0.258 0.202 0.074
0.258 0.205 0.074
0.258 0.209 0.075
0.257 0.212 0.075
0.254 0.213 0.074
0.252 0.215 0.074
0.248 0.216 0.073
0.243 0.215 0.072
0.241 0.216 0.072
0.242 0.221 0.072
0.244 0.227 0.074
0.243 0.230 0.074
0.238 0.229 0.072
0.232 0.227 0.071
0.223 0.222 0.069
0.217 0.219 0.067
0.212 0.218 0.066
0.206 0.216 0.065
0.201 0.214 0.063
0.204 0.221 0.065
0.207 0.228 0.066
0.208 0.233 0.067
0.205 0.232 0.066
0.206 0.238 0.067
0.222 0.260 0.073
0.219 0.261 0.072
0.212 0.258 0.071
0.204 0.252 0.068
0.195 0.245 0.066
0.195 0.248 0.066
0.202 0.260 0.069
0.205 0.269 0.070
0.218 0.290 0.075
0.100 -0.139 0.035
0.101 -0.138 0.035
0.102 -0.137 0.036
0.102 -0.136 0.036
0.102 -0.134 0.035
0.102 -0.133 0.035
0.103 -0.131 0.035
0.103 -0.130 0.035
0.104 -0.129 0.035
0.103 -0.126 0.035
0.104 -0.125 0.035
0.103 -0.123 0.035
0.104 -0.122 0.035
0.104 -0.121 0.035
0.103 -0.118 0.034
0.104 -0.116 0.034
0.105 -0.116 0.034
0.108 -0.117 0.035
0.108 -0.115 0.035
0.107 -0.113 0.034
0.109 -0.113 0.035
0.274 -0.271 0.086
0.274 -0.268 0.086
0.274 -0.263 0.085
0.273 -0.258 0.084
0.274 -0.255 0.084
0.276 -0.252 0.084
0.278 -0.251 0.085
0.277 -0.246 0.084
0.278 -0.243 0.084
0.275 -0.236 0.083
0.276 -0.233 0.083
0.274 -0.228 0.082
0.272 -0.223 0.081
0.263 -0.212 0.078
0.248 -0.196 0.073
0.238 -0.185 0.070
0.202 -0.155 0.059
0.198 -0.149 0.058
0.201 -0.149 0.059
0.202 -0.147 0.059
0.206 -0.147 0.059
0.203 -0.143 0.058
0.204 -0.141 0.058
0.205 -0.139 0.058
0.203 -0.136 0.058
0.207 -0.136 0.059
0.206 -0.133 0.058
0.205 -0.130 0.058
0.211 -0.131 0.060
0.171 -0.102 0.048
0.168 -0.099 0.047
0.168 -0.097 0.047
0.169 -0.095 0.047
0.169 -0.094 0.047
0.204 -0.109 0.056
0.209 -0.109 0.058
0.216 -0.111 0.059
0.208 -0.104 0.057
0.208 -0.102 0.057
0.207 -0.100 0.057
0.210 -0.099 0.057
0.212 -0.097 0.058
0.210 -0.094 0.057
0.210 -0.092 0.057
0.211 -0.091 0.057
0.211 -0.088 0.057
0.209 -0.085 0.056
0.210 -0.084 0.057
0.210 -0.082 0.056
0.212 -0.080 0.057
0.211 -0.078 0.057
0.209 -0.075 0.056
0.197 -0.069 0.053
0.190 -0.064 0.051
0.189 -0.062 0.050
0.191 -0.061 0.051
0.190 -0.059 0.050
0.191 -0.058 0.051
0.193 -0.056 0.051
0.206 -0.058 0.055
0.297 -0.078 0.078
0.304 -0.077 0.080
0.302 -0.074 0.080
0.295 -0.066 0.078
0.302 -0.065 0.080
0.300 -0.062 0.079
0.301 -0.059 0.079
0.303 -0.057 0.080
0.298 -0.053 0.078
0.288 -0.049 0.075
0.283 -0.045 0.074
0.281 -0.042 0.074
0.283 -0.040 0.074
0.285 -0.038 0.074
0.282 -0.035 0.074
0.277 -0.032 0.072
0.276 -0.029 0.072
0.278 -0.027 0.073
0.282 -0.024 0.074
0.282 -0.022 0.074
0.282 -0.019 0.074
0.285 -0.017 0.074
0.286 -0.014 0.075
0.288 -0.012 0.075
0.287 -0.009 0.075
0.284 -0.006 0.074
0.285 -0.004 0.074
0.287 -0.001 0.075
0.286 0.001 0.075
0.286 0.004 0.075
0.286 0.006 0.075
0.286 0.009 0.075
0.282 0.012 0.073
0.279 0.014 0.073
0.284 0.017 0.074
0.291 0.020 0.076
0.286 0.022 0.075
0.281 0.024 0.073
0.287 0.028 0.075
0.287 0.030 0.075
0.284 0.032 0.074
0.277 0.034 0.073
0.281 0.037 0.074
0.288 0.041 0.076
0.292 0.044 0.077
0.294 0.047 0.077
0.293 0.050 0.077
0.288 0.052 0.076
0.285 0.054 0.075
0.290 0.057 0.077
0.293 0.061 0.077
0.292 0.063 0.077
0.286 0.065 0.075
0.277 0.065 0.073
0.267 0.066 0.071
0.267 0.068 0.071
0.267 0.070 0.071
0.263 0.072 0.070
0.251 0.071 0.067
0.252 0.074 0.067
0.267 0.081 0.071
0.288 0.090 0.077
0.294 0.095 0.079
0.292 0.097 0.078
0.286 0.098 0.077
0.287 0.101 0.077
0.287 0.104 0.077
0.288 0.107 0.078
0.286 0.109 0.077
0.284 0.111 0.077
0.285 0.115 0.077
0.285 0.118 0.077
0.285 0.120 0.077
0.285 0.123 0.078
0.285 0.126 0.078
0.281 0.127 0.077
0.270 0.125 0.074
0.265 0.126 0.073
0.268 0.130 0.074
0.271 0.135 0.075
0.274 0.139 0.076
0.280 0.145 0.078
0.286 0.151 0.079
0.284 0.153 0.079
0.282 0.156 0.079
0.283 0.159 0.079
0.283 0.162 0.079
0.279 0.163 0.079
0.277 0.165 0.078
0.276 0.168 0.078
0.275 0.170 0.078
0.266 0.168 0.076
0.268 0.172 0.077
0.267 0.175 0.076
0.264 0.176 0.076
0.263 0.179 0.076
0.263 0.182 0.076
0.261 0.184 0.076
0.259 0.186 0.075
0.257 0.188 0.075
0.257 0.191 0.076
0.258 0.196 0.076
0.256 0.198 0.076
0.256 0.200 0.076
0.256 0.204 0.076
0.256 0.208 0.077
0.254 0.209 0.077
0.252 0.212 0.076
0.249 0.213 0.076
0.246 0.214 0.075
0.243 0.215 0.075
0.238 0.214 0.074
0.238 0.218 0.074
0.242 0.225 0.075
0.243 0.230 0.076
0.239 0.230 0.076
0.232 0.227 0.074
0.223 0.222 0.071
0.216 0.219 0.069
0.207 0.213 0.067
0.202 0.212 0.066
0.203 0.216 0.066
0.202 0.218 0.066
0.202 0.223 0.067
0.203 0.227 0.068
0.203 0.231 0.068
0.209 0.241 0.070
0.212 0.249 0.072
0.211 0.252 0.072
0.205 0.249 0.071
0.202 0.249 0.070
0.196 0.245 0.068
0.191 0.243 0.067
0.198 0.256 0.070
0.201 0.263 0.071
0.200 0.266 0.071
0.101 -0.138 0.037
0.102 -0.137 0.037
0.102 -0.136 0.037
0.102 -0.134 0.037
0.102 -0.133 0.037
0.103 -0.132 0.037
0.104 -0.131 0.037
0.104 -0.130 0.037
0.104 -0.127 0.036
0.105 -0.127 0.037
0.104 -0.124 0.036
0.104 -0.122 0.036
0.104 -0.120 0.036
0.104 -0.119 0.035
0.104 -0.117 0.035
0.105 -0.116 0.035
0.108 -0.118 0.036
0.108 -0.116 0.036
0.107 -0.112 0.035
0.109 -0.113 0.036
0.117 -0.120 0.038
0.269 -0.263 0.087
0.269 -0.258 0.086
0.270 -0.255 0.086
0.270 -0.252 0.086
0.272 -0.250 0.086
0.274 -0.247 0.087
0.273 -0.243 0.086
0.273 -0.239 0.086
0.271 -0.233 0.085
0.272 -0.230 0.084
0.275 -0.229 0.085
0.270 -0.221 0.083
0.268 -0.216 0.082
0.203 -0.156 0.062
0.200 -0.151 0.061
0.199 -0.148 0.060
0.205 -0.150 0.062
0.203 -0.146 0.061
0.207 -0.146 0.062
0.206 -0.143 0.061
0.205 -0.140 0.061
0.213 -0.142 0.063
0.213 -0.140 0.063
0.210 -0.135 0.062
0.211 -0.134 0.062
0.184 -0.115 0.054
0.171 -0.105 0.050
0.171 -0.102 0.050
0.170 -0.100 0.049
0.175 -0.101 0.051
0.204 -0.113 0.059
0.202 -0.110 0.058
0.206 -0.110 0.059
0.208 -0.109 0.059
0.215 -0.110 0.061
0.206 -0.103 0.059
0.208 -0.102 0.059
0.207 -0.100 0.059
0.207 -0.097 0.058
0.209 -0.096 0.059
0.208 -0.094 0.059
0.208 -0.091 0.058
0.198 -0.085 0.055
0.216 -0.090 0.060
0.208 -0.085 0.058
0.206 -0.082 0.058
0.210 -0.082 0.058
0.212 -0.080 0.059
0.213 -0.079 0.059
0.211 -0.076 0.059
0.223 -0.078 0.062
0.229 -0.078 0.063
0.220 -0.073 0.061
0.196 -0.063 0.054
0.192 -0.060 0.053
0.192 -0.058 0.053
0.192 -0.056 0.053
0.193 -0.054 0.053
0.194 -0.053 0.053
0.195 -0.051 0.054
0.209 -0.053 0.057
0.213 -0.052 0.058
0.280 -0.063 0.076
0.290 -0.063 0.079
0.296 -0.061 0.081
0.296 -0.058 0.081
0.294 -0.055 0.080
0.292 -0.052 0.079
0.289 -0.049 0.079
0.284 -0.046 0.077
0.276 -0.042 0.075
0.273 -0.039 0.074
0.278 -0.037 0.075
0.278 -0.034 0.075
0.275 -0.031 0.074
0.275 -0.029 0.074
0.278 -0.027 0.075
0.281 -0.024 0.076
0.280 -0.022 0.076
0.279 -0.019 0.075
0.280 -0.017 0.076
0.282 -0.014 0.076
0.287 -0.012 0.077
0.289 -0.009 0.078
0.286 -0.007 0.077
0.283 -0.004 0.077
0.286 -0.001 0.077
0.287 0.001 0.078
0.287 0.004 0.078
0.282 0.006 0.076
0.280 0.009 0.076
0.280 0.011 0.076
0.275 0.014 0.074
0.281 0.017 0.076
0.281 0.022 0.076
0.279 0.024 0.076
0.281 0.027 0.076
0.286 0.030 0.078
0.281 0.032 0.076
0.276 0.034 0.075
0.285 0.038 0.077
0.289 0.041 0.079
0.286 0.043 0.078
0.285 0.046 0.078
0.289 0.049 0.079
0.288 0.052 0.078
0.285 0.054 0.078
0.284 0.056 0.077
0.291 0.060 0.079
0.286 0.062 0.078
0.282 0.064 0.077
0.268 0.063 0.073
0.254 0.062 0.070
0.251 0.064 0.069
0.258 0.068 0.071
0.262 0.072 0.072
0.258 0.073 0.071
0.265 0.078 0.073
0.284 0.086 0.078
0.293 0.092 0.081
0.292 0.094 0.081
0.287 0.095 0.080
0.281 0.096 0.078
0.279 0.098 0.078
0.281 0.102 0.078
0.281 0.105 0.078
0.278 0.106 0.078
0.277 0.109 0.078
0.273 0.110 0.077
0.278 0.115 0.078
0.278 0.118 0.078
0.277 0.120 0.078
0.276 0.123 0.078
0.274 0.124 0.078
0.267 0.124 0.076
0.268 0.127 0.076
0.271 0.132 0.077
0.267 0.133 0.076
0.265 0.135 0.076
0.263 0.136 0.075
0.268 0.142 0.077
0.269 0.146 0.078
0.271 0.150 0.078
0.274 0.154 0.079
0.274 0.157 0.080
0.272 0.159 0.079
0.273 0.163 0.080
0.273 0.166 0.080
0.263 0.163 0.078
0.261 0.165 0.077
0.260 0.168 0.077
0.260 0.171 0.077
0.261 0.174 0.078
0.261 0.178 0.078
0.259 0.180 0.078
0.256 0.181 0.077
0.254 0.182 0.077
0.254 0.186 0.077
0.253 0.189 0.077
0.253 0.192 0.077
0.254 0.196 0.078
0.253 0.199 0.078
0.253 0.202 0.079
0.250 0.203 0.078
0.250 0.206 0.078
0.249 0.209 0.078
0.247 0.211 0.078
0.245 0.213 0.078
0.241 0.213 0.077
0.236 0.213 0.076
0.233 0.214 0.075
0.235 0.219 0.076
0.235 0.223 0.077
0.231 0.223 0.076
0.222 0.218 0.073
0.217 0.216 0.072
0.211 0.214 0.070
0.202 0.208 0.068
0.200 0.210 0.068
0.202 0.215 0.068
0.201 0.218 0.069
0.203 0.224 0.070
0.206 0.230 0.071
0.206 0.235 0.072
0.208 0.241 0.073
0.208 0.245 0.073
0.201 0.241 0.071
0.196 0.239 0.070
0.198 0.245 0.071
0.197 0.247 0.071
0.194 0.247 0.070
0.192 0.249 0.070
0.195 0.257 0.072
0.195 0.260 0.072
0.101 -0.139 0.038
0.102 -0.138 0.038
0.102 -0.136 0.038
0.102 -0.134 0.038
0.102 -0.133 0.038
0.103 -0.132 0.038
0.104 -0.132 0.038
0.104 -0.130 0.038
0.105 -0.129 0.038
0.105 -0.127 0.038
0.104 -0.125 0.037
0.104 -0.122 0.037
0.104 -0.121 0.037
0.103 -0.118 0.036
0.104 -0.117 0.036
0.106 -0.117 0.037
0.108 -0.118 0.038
0.109 -0.118 0.038
0.105 -0.111 0.036
0.114 -0.118 0.039
0.112 -0.115 0.038
0.121 -0.123 0.041
0.263 -0.257 0.088
0.266 -0.256 0.088
0.266 -0.252 0.088
0.267 -0.249 0.088
0.269 -0.247 0.088
0.270 -0.244 0.088
0.270 -0.240 0.088
0.269 -0.236 0.087
0.269 -0.232 0.087
0.270 -0.229 0.087
0.269 -0.224 0.086
0.267 -0.219 0.085
0.265 -0.214 0.084
0.259 -0.206 0.082
0.209 -0.161 0.066
0.207 -0.157 0.065
0.205 -0.152 0.064
0.202 -0.147 0.063
0.203 -0.146 0.063
0.204 -0.144 0.063
0.208 -0.144 0.064
0.209 -0.143 0.064
0.215 -0.144 0.066
0.214 -0.141 0.065
0.214 -0.138 0.065
0.172 -0.107 0.052
0.172 -0.105 0.052
0.170 -0.102 0.051
0.182 -0.107 0.055
0.207 -0.119 0.062
0.208 -0.118 0.062
0.206 -0.115 0.061
0.207 -0.113 0.061
0.208 -0.111 0.062
0.207 -0.108 0.061
0.206 -0.106 0.061
0.211 -0.106 0.062
0.209 -0.103 0.061
0.210 -0.101 0.061
0.206 -0.097 0.060
0.205 -0.094 0.060
0.208 -0.094 0.061
0.209 -0.092 0.061
0.213 -0.091 0.062
0.198 -0.083 0.057
0.214 -0.088 0.062
0.210 -0.084 0.061
0.209 -0.081 0.060
0.211 -0.080 0.061
0.213 -0.079 0.061
0.217 -0.078 0.062
0.216 -0.076 0.062
0.224 -0.076 0.064
0.227 -0.075 0.065
0.236 -0.076 0.067
0.233 -0.073 0.066
0.206 -0.062 0.059
0.195 -0.057 0.055
0.194 -0.055 0.055
0.194 -0.053 0.055
0.195 -0.051 0.055
0.196 -0.050 0.055
0.198 -0.048 0.056
0.200 -0.047 0.056
0.200 -0.045 0.057
0.202 -0.044 0.057
0.206 -0.043 0.058
0.219 -0.043 0.062
0.270 -0.041 0.076
0.265 -0.038 0.074
0.273 -0.036 0.076
0.274 -0.034 0.077
0.274 -0.031 0.077
0.276 -0.029 0.077
0.278 -0.027 0.078
0.279 -0.024 0.078
0.276 -0.021 0.077
0.274 -0.019 0.077
0.278 -0.017 0.078
0.281 -0.014 0.079
0.284 -0.012 0.079
0.285 -0.009 0.080
0.284 -0.006 0.080
0.282 -0.004 0.079
0.284 -0.001 0.079
0.286 0.001 0.080
0.284 0.004 0.079
0.283 0.006 0.079
0.281 0.009 0.079
0.281 0.012 0.079
0.277 0.014 0.077
0.275 0.016 0.077
0.278 0.022 0.078
0.274 0.024 0.077
0.275 0.026 0.077
0.278 0.029 0.078
0.280 0.032 0.079
0.282 0.035 0.079
0.290 0.039 0.082
0.289 0.041 0.081
0.282 0.043 0.079
0.279 0.045 0.079
0.291 0.049 0.082
0.291 0.052 0.082
0.289 0.055 0.082
0.288 0.057 0.081
0.286 0.059 0.081
0.287 0.062 0.081
0.275 0.062 0.078
0.263 0.062 0.075
0.254 0.062 0.072
0.247 0.063 0.070
0.250 0.066 0.071
0.262 0.072 0.075
0.270 0.077 0.077
0.276 0.081 0.079
0.290 0.088 0.083
0.293 0.092 0.084
0.289 0.093 0.083
0.285 0.095 0.082
0.279 0.096 0.080
0.275 0.097 0.079
0.272 0.099 0.078
0.272 0.101 0.078
0.272 0.104 0.079
0.264 0.104 0.076
0.265 0.107 0.077
0.269 0.111 0.078
0.269 0.114 0.078
0.267 0.116 0.078
0.266 0.118 0.078
0.260 0.118 0.076
0.261 0.121 0.077
0.264 0.126 0.078
0.266 0.129 0.079
0.263 0.131 0.078
0.262 0.133 0.078
0.264 0.137 0.079
0.265 0.140 0.079
0.265 0.143 0.079
0.262 0.145 0.078
0.262 0.147 0.079
0.261 0.150 0.079
0.261 0.153 0.079
0.259 0.155 0.079
0.249 0.152 0.076
0.249 0.155 0.076
0.253 0.161 0.077
0.254 0.164 0.078
0.256 0.168 0.079
0.258 0.173 0.080
0.260 0.177 0.081
0.252 0.175 0.078
0.251 0.178 0.078
0.250 0.180 0.078
0.251 0.184 0.079
0.250 0.187 0.079
0.249 0.189 0.079
0.250 0.193 0.080
0.250 0.197 0.080
0.250 0.200 0.080
0.249 0.202 0.080
0.248 0.206 0.080
0.247 0.208 0.080
0.243 0.209 0.080
0.239 0.208 0.078
0.233 0.207 0.077
0.229 0.207 0.076
0.226 0.208 0.075
0.225 0.210 0.076
0.224 0.213 0.075
0.217 0.209 0.074
0.212 0.208 0.072
0.208 0.208 0.071
0.201 0.205 0.069
0.202 0.209 0.070
0.203 0.213 0.071
0.204 0.218 0.072
0.203 0.221 0.072
0.204 0.226 0.073
0.209 0.234 0.075
0.208 0.237 0.075
0.204 0.237 0.074
0.204 0.241 0.074
0.201 0.241 0.074
0.193 0.235 0.071
0.195 0.242 0.073
0.199 0.250 0.074
0.199 0.254 0.075
0.193 0.250 0.073
0.192 0.252 0.073
0.199 0.266 0.076
0.102 -0.139 0.040
0.102 -0.138 0.040
0.102 -0.137 0.039
0.104 -0.137 0.040
0.102 -0.133 0.039
0.104 -0.133 0.039
0.104 -0.132 0.039
0.104 -0.130 0.039
0.105 -0.129 0.039
0.106 -0.128 0.039
0.105 -0.126 0.039
0.104 -0.123 0.038
0.105 -0.122 0.038
0.106 -0.122 0.039
0.105 -0.118 0.038
0.110 -0.122 0.040
0.107 -0.117 0.038
0.107 -0.115 0.038
0.103 -0.109 0.037
0.113 -0.117 0.040
0.119 -0.122 0.042
0.121 -0.123 0.042
0.122 -0.122 0.043
0.259 -0.250 0.089
0.262 -0.249 0.090
0.263 -0.246 0.090
0.264 -0.243 0.090
0.265 -0.240 0.090
0.267 -0.238 0.090
0.267 -0.234 0.089
0.267 -0.231 0.089
0.267 -0.226 0.089
0.266 -0.222 0.088
0.263 -0.216 0.087
0.261 -0.211 0.086
0.256 -0.204 0.084
0.208 -0.160 0.068
0.200 -0.151 0.065
0.203 -0.151 0.065
0.202 -0.148 0.065
0.201 -0.144 0.064
0.202 -0.143 0.065
0.205 -0.142 0.065
0.210 -0.143 0.067
0.206 -0.138 0.065
0.213 -0.140 0.067
0.175 -0.111 0.055
0.174 -0.108 0.054
0.175 -0.107 0.054
0.212 -0.125 0.066
0.209 -0.121 0.064
0.209 -0.119 0.064
0.211 -0.118 0.065
0.210 -0.114 0.064
0.208 -0.111 0.064
0.207 -0.108 0.063
0.209 -0.107 0.064
0.211 -0.106 0.064
0.214 -0.105 0.065
0.212 -0.102 0.064
0.211 -0.100 0.064
0.207 -0.095 0.062
0.209 -0.094 0.063
0.209 -0.092 0.063
0.207 -0.089 0.062
0.213 -0.089 0.064
0.210 -0.086 0.063
0.212 -0.085 0.063
0.209 -0.082 0.062
0.210 -0.080 0.062
0.213 -0.079 0.063
0.212 -0.076 0.063
0.216 -0.076 0.064
0.219 -0.075 0.065
0.227 -0.075 0.067
0.234 -0.075 0.069
0.237 -0.074 0.070
0.240 -0.072 0.071
0.251 -0.073 0.074
0.240 -0.068 0.070
0.209 -0.055 0.061
0.202 -0.051 0.059
0.201 -0.049 0.059
0.199 -0.047 0.058
0.200 -0.045 0.058
0.200 -0.043 0.058
0.202 -0.042 0.059
0.205 -0.040 0.060
0.206 -0.039 0.060
0.206 -0.037 0.060
0.210 -0.036 0.061
0.211 -0.034 0.061
0.212 -0.032 0.061
0.223 -0.032 0.065
0.271 -0.033 0.078
0.272 -0.031 0.079
0.273 -0.029 0.079
0.274 -0.026 0.079
0.274 -0.024 0.079
0.272 -0.021 0.079
0.271 -0.019 0.078
0.275 -0.016 0.080
0.279 -0.014 0.081
0.279 -0.011 0.081
0.279 -0.009 0.081
0.280 -0.006 0.081
0.279 -0.004 0.081
0.280 -0.001 0.081
0.282 0.001 0.082
0.281 0.004 0.081
0.280 0.006 0.081
0.281 0.009 0.081
0.286 0.012 0.083
0.283 0.014 0.082
0.275 0.016 0.080
0.277 0.019 0.080
0.276 0.021 0.080
0.271 0.024 0.079
0.269 0.026 0.078
0.277 0.029 0.080
0.280 0.032 0.081
0.288 0.036 0.084
0.289 0.038 0.084
0.284 0.040 0.083
0.277 0.042 0.081
0.286 0.046 0.083
0.290 0.049 0.084
0.289 0.052 0.084
0.287 0.054 0.084
0.284 0.056 0.083
0.283 0.059 0.083
0.279 0.061 0.082
0.272 0.062 0.080
0.261 0.062 0.077
0.255 0.063 0.075
0.250 0.064 0.073
0.247 0.066 0.073
0.254 0.070 0.075
0.268 0.076 0.079
0.277 0.081 0.082
0.281 0.085 0.083
0.284 0.089 0.084
0.283 0.092 0.084
0.280 0.093 0.083
0.276 0.095 0.082
0.270 0.095 0.080
0.266 0.097 0.079
0.265 0.099 0.079
0.260 0.100 0.078
0.256 0.101 0.077
0.254 0.103 0.076
0.256 0.106 0.077
0.257 0.109 0.077
0.250 0.109 0.076
0.251 0.112 0.076
0.251 0.114 0.076
0.255 0.119 0.078
0.259 0.123 0.079
0.259 0.126 0.079
0.260 0.129 0.079
0.259 0.132 0.080
0.261 0.136 0.080
0.264 0.140 0.081
0.261 0.141 0.081
0.256 0.142 0.079
0.253 0.143 0.079
0.250 0.144 0.078
0.247 0.145 0.077
0.245 0.147 0.077
0.243 0.149 0.076
0.246 0.153 0.078
0.248 0.157 0.078
0.250 0.161 0.079
0.252 0.166 0.080
0.256 0.172 0.082
0.252 0.172 0.081
0.249 0.173 0.080
0.248 0.176 0.080
0.248 0.179 0.080
0.248 0.182 0.081
0.248 0.185 0.081
0.247 0.188 0.081
0.248 0.192 0.082
0.248 0.195 0.082
0.249 0.200 0.083
0.249 0.204 0.083
0.244 0.203 0.082
0.232 0.196 0.078
0.228 0.196 0.077
0.230 0.201 0.078
0.224 0.199 0.076
0.218 0.197 0.075
0.216 0.199 0.074
0.214 0.200 0.074
0.211 0.201 0.074
0.208 0.201 0.073
0.207 0.203 0.073
0.204 0.204 0.072
0.201 0.205 0.072
0.196 0.203 0.070
0.210 0.222 0.076
0.210 0.224 0.076
0.204 0.222 0.075
0.204 0.226 0.075
0.209 0.235 0.077
0.208 0.238 0.077
0.206 0.239 0.077
0.205 0.242 0.077
0.205 0.246 0.078
0.198 0.242 0.076
0.193 0.239 0.074
0.201 0.253 0.078
0.200 0.255 0.078
0.192 0.250 0.075
0.191 0.251 0.075
0.183 0.245 0.073
0.103 -0.139 0.041
0.103 -0.138 0.041
0.102 -0.135 0.041
0.103 -0.134 0.041
0.104 -0.134 0.041
0.105 -0.133 0.041
0.105 -0.132 0.041
0.105 -0.130 0.041
0.106 -0.129 0.041
0.106 -0.127 0.041
0.106 -0.125 0.040
0.105 -0.122 0.040
0.106 -0.121 0.040
0.110 -0.125 0.041
0.115 -0.127 0.043
0.103 -0.113 0.038
0.104 -0.112 0.038
0.100 -0.106 0.037
0.113 -0.118 0.041
0.124 -0.127 0.045
0.121 -0.123 0.044
0.119 -0.118 0.043
0.115 -0.113 0.041
0.255 -0.243 0.090
0.255 -0.239 0.090
0.257 -0.237 0.090
0.261 -0.237 0.091
0.258 -0.230 0.090
0.261 -0.229 0.090
0.263 -0.228 0.091
0.261 -0.222 0.090
0.262 -0.220 0.090
0.263 -0.217 0.090
0.256 -0.207 0.087
0.253 -0.202 0.086
0.200 -0.152 0.067
0.200 -0.149 0.066
0.201 -0.147 0.067
0.201 -0.145 0.067
0.200 -0.142 0.066
0.202 -0.140 0.066
0.206 -0.140 0.067
0.208 -0.139 0.068
0.191 -0.126 0.062
0.181 -0.117 0.059
0.175 -0.111 0.056
0.176 -0.110 0.057
0.196 -0.120 0.063
0.208 -0.125 0.067
0.212 -0.125 0.068
0.208 -0.121 0.066
0.211 -0.120 0.067
0.215 -0.120 0.068
0.214 -0.117 0.068
0.208 -0.111 0.066
0.207 -0.109 0.065
0.209 -0.107 0.066
0.211 -0.106 0.066
0.212 -0.105 0.066
0.213 -0.103 0.067
0.210 -0.099 0.066
0.209 -0.096 0.065
0.208 -0.094 0.065
0.208 -0.092 0.065
0.207 -0.089 0.064
0.207 -0.087 0.064
0.205 -0.084 0.063
0.210 -0.084 0.065
0.210 -0.082 0.065
0.208 -0.079 0.064
0.211 -0.078 0.065
0.211 -0.076 0.065
0.215 -0.075 0.066
0.222 -0.076 0.068
0.227 -0.075 0.069
0.232 -0.075 0.071
0.235 -0.073 0.072
0.243 -0.073 0.074
0.247 -0.072 0.075
0.253 -0.072 0.077
0.263 -0.072 0.080
0.274 -0.072 0.083
0.276 -0.070 0.083
0.270 -0.066 0.082
0.266 -0.063 0.080
0.217 -0.045 0.065
0.212 -0.042 0.064
0.210 -0.040 0.063
0.207 -0.037 0.062
0.207 -0.035 0.062
0.208 -0.034 0.063
0.209 -0.032 0.063
0.210 -0.030 0.063
0.212 -0.028 0.064
0.216 -0.027 0.065
0.216 -0.025 0.065
0.230 -0.024 0.069
0.268 -0.026 0.080
0.269 -0.023 0.080
0.270 -0.021 0.081
0.270 -0.019 0.081
0.271 -0.016 0.081
0.275 -0.014 0.082
0.275 -0.011 0.082
0.273 -0.009 0.082
0.274 -0.006 0.082
0.276 -0.004 0.082
0.277 -0.001 0.083
0.277 0.001 0.083
0.277 0.004 0.083
0.278 0.006 0.083
0.281 0.009 0.084
0.284 0.012 0.085
0.282 0.014 0.084
0.281 0.017 0.084
0.277 0.019 0.083
0.274 0.021 0.082
0.269 0.023 0.081
0.266 0.026 0.080
0.269 0.028 0.080
0.282 0.032 0.084
0.286 0.036 0.086
0.284 0.038 0.085
0.277 0.039 0.083
0.277 0.042 0.083
0.282 0.045 0.085
0.287 0.049 0.086
0.282 0.051 0.085
0.278 0.053 0.084
0.278 0.055 0.084
0.278 0.058 0.084
0.275 0.060 0.083
0.265 0.060 0.080
0.255 0.060 0.077
0.247 0.061 0.075
0.250 0.064 0.076
0.252 0.067 0.077
0.259 0.071 0.079
0.270 0.077 0.082
0.276 0.081 0.084
0.278 0.085 0.085
0.276 0.087 0.084
0.276 0.089 0.084
0.271 0.090 0.083
0.260 0.089 0.080
0.258 0.091 0.079
0.259 0.094 0.080
0.253 0.094 0.078
0.250 0.096 0.077
0.250 0.098 0.077
0.248 0.100 0.077
0.248 0.103 0.077
0.247 0.105 0.077
0.248 0.108 0.077
0.248 0.111 0.078
0.249 0.114 0.078
0.250 0.117 0.078
0.252 0.120 0.079
0.253 0.124 0.080
0.252 0.126 0.080
0.255 0.130 0.081
0.254 0.133 0.081
0.251 0.134 0.080
0.247 0.134 0.079
0.245 0.136 0.079
0.246 0.139 0.079
0.246 0.142 0.079
0.246 0.144 0.079
0.244 0.147 0.079
0.246 0.150 0.080
0.246 0.154 0.080
0.247 0.157 0.081
0.247 0.160 0.081
0.249 0.164 0.082
0.251 0.168 0.083
0.249 0.171 0.083
0.246 0.172 0.082
0.246 0.175 0.082
0.245 0.177 0.082
0.245 0.180 0.082
0.247 0.185 0.083
0.249 0.190 0.084
0.248 0.192 0.084
0.245 0.193 0.084
0.242 0.195 0.083
0.244 0.199 0.084
0.234 0.194 0.081
0.224 0.190 0.078
0.222 0.191 0.077
0.217 0.190 0.076
0.213 0.190 0.075
0.208 0.189 0.074
0.207 0.191 0.074
0.208 0.195 0.075
0.205 0.196 0.074
0.203 0.197 0.074
0.202 0.199 0.074
0.200 0.200 0.073
0.198 0.202 0.073
0.206 0.214 0.076
0.203 0.214 0.076
0.205 0.220 0.077
0.202 0.221 0.076
0.201 0.223 0.077
0.204 0.230 0.078
0.204 0.234 0.078
0.202 0.235 0.078
0.202 0.239 0.079
0.205 0.247 0.081
0.203 0.249 0.080
0.199 0.248 0.079
0.197 0.249 0.079
0.197 0.253 0.079
0.194 0.253 0.079
0.191 0.253 0.078
0.200 0.267 0.082
0.102 -0.139 0.042
0.103 -0.138 0.042
0.103 -0.136 0.042
0.103 -0.135 0.042
0.104 -0.134 0.042
0.105 -0.133 0.042
0.105 -0.132 0.042
0.105 -0.130 0.042
0.105 -0.128 0.042
0.106 -0.127 0.042
0.104 -0.123 0.041
0.105 -0.122 0.041
0.108 -0.124 0.042
0.117 -0.132 0.045
0.111 -0.124 0.043
0.101 -0.110 0.039
0.098 -0.105 0.037
0.099 -0.105 0.037
0.103 -0.107 0.039
0.115 -0.117 0.043
0.111 -0.111 0.041
0.110 -0.109 0.041
0.244 -0.232 0.089
0.248 -0.233 0.090
0.251 -0.232 0.091
0.251 -0.229 0.091
0.251 -0.225 0.090
0.253 -0.223 0.091
0.255 -0.221 0.091
0.254 -0.217 0.090
0.259 -0.217 0.091
0.260 -0.214 0.091
0.254 -0.206 0.089
0.249 -0.199 0.087
0.240 -0.189 0.083
0.228 -0.176 0.079
0.206 -0.156 0.071
0.200 -0.149 0.069
0.200 -0.147 0.068
0.199 -0.144 0.068
0.201 -0.143 0.068
0.202 -0.140 0.068
0.204 -0.140 0.069
0.201 -0.135 0.068
0.183 -0.121 0.062
0.180 -0.117 0.060
0.180 -0.115 0.060
0.189 -0.119 0.063
0.204 -0.125 0.068
0.206 -0.124 0.068
0.206 -0.122 0.068
0.209 -0.121 0.069
0.214 -0.122 0.070
0.216 -0.121 0.071
0.213 -0.116 0.070
0.210 -0.113 0.069
0.207 -0.109 0.067
0.208 -0.107 0.068
0.207 -0.104 0.067
0.208 -0.102 0.067
0.207 -0.100 0.067
0.208 -0.098 0.067
0.209 -0.097 0.067
0.207 -0.094 0.067
0.209 -0.092 0.067
0.210 -0.090 0.067
0.200 -0.084 0.064
0.206 -0.085 0.066
0.207 -0.083 0.066
0.212 -0.083 0.067
0.213 -0.081 0.067
0.210 -0.078 0.066
0.212 -0.077 0.067
0.214 -0.075 0.067
0.220 -0.075 0.069
0.225 -0.075 0.071
0.227 -0.073 0.071
0.235 -0.073 0.074
0.239 -0.072 0.075
0.247 -0.072 0.078
0.255 -0.072 0.080
0.261 -0.071 0.081
0.271 -0.072 0.085
0.274 -0.070 0.085
0.272 -0.067 0.085
0.268 -0.063 0.084
0.267 -0.060 0.083
0.267 -0.058 0.083
0.269 -0.056 0.083
0.269 -0.053 0.083
0.268 -0.051 0.083
0.265 -0.048 0.082
0.260 -0.044 0.081
0.247 -0.040 0.077
0.221 -0.031 0.068
0.217 -0.029 0.067
0.215 -0.027 0.066
0.216 -0.025 0.067
0.215 -0.023 0.066
0.216 -0.021 0.067
0.223 -0.019 0.069
0.269 -0.018 0.083
0.270 -0.016 0.083
0.270 -0.014 0.083
0.270 -0.011 0.083
0.266 -0.009 0.082
0.268 -0.006 0.083
0.271 -0.004 0.084
0.273 -0.001 0.084
0.274 0.001 0.084
0.276 0.004 0.085
0.282 0.006 0.087
0.282 0.009 0.087
0.281 0.012 0.087
0.276 0.014 0.085
0.272 0.016 0.084
0.271 0.019 0.084
0.273 0.021 0.084
0.274 0.024 0.085
0.270 0.026 0.083
0.271 0.029 0.084
0.272 0.031 0.084
0.280 0.035 0.087
0.280 0.037 0.087
0.275 0.039 0.085
0.273 0.042 0.085
0.276 0.045 0.086
0.280 0.048 0.087
0.278 0.050 0.087
0.275 0.052 0.085
0.271 0.054 0.084
0.272 0.057 0.085
0.264 0.057 0.082
0.251 0.057 0.078
0.238 0.056 0.074
0.236 0.058 0.074
0.241 0.062 0.075
0.251 0.067 0.079
0.265 0.073 0.083
0.274 0.078 0.086
0.274 0.081 0.086
0.275 0.084 0.086
0.273 0.086 0.086
0.270 0.088 0.085
0.262 0.088 0.083
0.252 0.087 0.080
0.249 0.088 0.079
0.249 0.091 0.079
0.245 0.092 0.078
0.244 0.094 0.078
0.247 0.097 0.079
0.248 0.100 0.079
0.245 0.102 0.079
0.244 0.104 0.079
0.245 0.107 0.079
0.247 0.110 0.080
0.246 0.112 0.079
0.244 0.114 0.079
0.242 0.116 0.079
0.243 0.119 0.079
0.246 0.123 0.080
0.248 0.127 0.081
0.246 0.128 0.081
0.246 0.131 0.081
0.244 0.133 0.080
0.243 0.135 0.080
0.243 0.137 0.080
0.245 0.142 0.081
0.246 0.145 0.082
0.247 0.148 0.082
0.245 0.150 0.082
0.245 0.153 0.082
0.245 0.156 0.083
0.246 0.159 0.083
0.247 0.164 0.084
0.251 0.169 0.085
0.246 0.169 0.084
0.241 0.168 0.083
0.241 0.171 0.083
0.243 0.176 0.084
0.244 0.180 0.085
0.249 0.187 0.087
0.248 0.190 0.087
0.245 0.190 0.086
0.235 0.186 0.083
