VERSION .7
FIELDS x y z
SIZE 4 4 4
TYPE F F F
COUNT 1 1 1
WIDTH     2587
HEIGHT 1
VIEWPOINT 0 0 0 1 0 0 0
POINTS     2587
DATA ascii
0.297 0.020 0.034
0.295 0.023 0.034
0.292 0.025 0.033
0.292 0.028 0.033
0.296 0.031 0.034
0.303 0.034 0.035
0.296 0.036 0.034
0.309 0.040 0.035
0.309 0.043 0.035
0.316 0.047 0.036
0.317 0.050 0.036
0.318 0.053 0.036
0.310 0.055 0.036
0.303 0.056 0.035
0.306 0.060 0.035
0.309 0.063 0.035
0.316 0.068 0.036
0.302 0.067 0.035
0.288 0.067 0.033
0.293 0.071 0.034
0.318 0.080 0.037
0.322 0.084 0.037
0.319 0.086 0.037
0.313 0.088 0.036
0.317 0.092 0.037
0.315 0.094 0.037
0.318 0.098 0.037
0.315 0.100 0.037
0.311 0.102 0.036
0.321 0.108 0.038
0.323 0.112 0.038
0.315 0.112 0.037
0.324 0.119 0.038
0.317 0.119 0.037
0.318 0.123 0.037
0.319 0.127 0.038
0.325 0.132 0.038
0.337 0.140 0.040
0.392 0.171 0.047
0.394 0.176 0.047
0.391 0.179 0.047
0.387 0.181 0.046
0.382 0.183 0.046
0.372 0.182 0.045
0.361 0.180 0.043
0.355 0.181 0.043
0.349 0.182 0.042
0.346 0.184 0.042
0.335 0.182 0.041
0.331 0.183 0.040
0.323 0.182 0.039
0.318 0.183 0.039
0.313 0.184 0.039
0.306 0.183 0.038
0.302 0.184 0.037
0.298 0.185 0.037
0.294 0.186 0.037
0.290 0.187 0.036
0.285 0.187 0.036
0.282 0.188 0.035
0.275 0.188 0.035
0.270 0.187 0.034
0.265 0.187 0.034
0.263 0.189 0.034
0.262 0.191 0.034
0.261 0.194 0.034
0.260 0.197 0.034
0.259 0.200 0.034
0.260 0.203 0.034
0.261 0.208 0.034
0.261 0.211 0.034
0.260 0.214 0.034
0.260 0.218 0.034
0.259 0.221 0.034
0.257 0.223 0.034
0.256 0.225 0.034
0.258 0.231 0.035
0.257 0.234 0.035
0.256 0.237 0.035
0.257 0.242 0.035
0.257 0.246 0.036
0.256 0.249 0.036
0.255 0.252 0.036
0.375 0.391 0.053
0.377 0.399 0.054
0.319 0.350 0.046
0.317 0.352 0.046
0.297 0.336 0.044
0.301 0.346 0.045
0.301 0.352 0.045
0.292 0.347 0.044
0.295 0.356 0.045
0.303 0.372 0.046
0.304 0.380 0.047
0.302 0.382 0.047
0.298 0.383 0.046
0.295 0.386 0.046
0.165 -0.228 0.028
0.176 -0.240 0.030
0.180 -0.242 0.030
0.182 -0.241 0.030
0.183 -0.241 0.030
0.184 -0.238 0.030
0.186 -0.237 0.030
0.188 -0.236 0.031
0.190 -0.235 0.031
0.192 -0.234 0.031
0.194 -0.233 0.031
0.196 -0.232 0.031
0.199 -0.233 0.031
0.203 -0.233 0.032
0.208 -0.237 0.032
0.282 -0.262 0.041
0.286 -0.262 0.041
0.292 -0.263 0.042
0.294 -0.260 0.042
0.293 -0.256 0.042
0.295 -0.253 0.042
0.297 -0.251 0.042
0.298 -0.248 0.042
0.299 -0.245 0.042
0.263 -0.209 0.037
0.207 -0.159 0.029
0.210 -0.159 0.029
0.212 -0.157 0.029
0.210 -0.154 0.029
0.211 -0.152 0.029
0.213 -0.151 0.029
0.214 -0.148 0.029
0.207 -0.141 0.028
0.215 -0.144 0.029
0.216 -0.142 0.029
0.213 -0.137 0.028
0.211 -0.134 0.028
0.207 -0.129 0.028
0.203 -0.124 0.027
0.209 -0.126 0.028
0.208 -0.123 0.027
0.207 -0.120 0.027
0.207 -0.118 0.027
0.206 -0.115 0.027
0.213 -0.116 0.028
0.222 -0.119 0.029
0.216 -0.114 0.028
0.215 -0.111 0.028
0.213 -0.108 0.028
0.209 -0.104 0.027
0.205 -0.099 0.026
0.203 -0.096 0.026
0.207 -0.094 0.027
0.213 -0.094 0.027
0.206 -0.089 0.026
0.214 -0.091 0.027
0.216 -0.089 0.027
0.220 -0.089 0.028
0.217 -0.085 0.027
0.217 -0.083 0.027
0.209 -0.078 0.026
0.213 -0.078 0.027
0.219 -0.078 0.027
0.225 -0.078 0.028
0.232 -0.078 0.029
0.237 -0.077 0.030
0.245 -0.078 0.031
0.254 -0.078 0.032
0.257 -0.076 0.032
0.270 -0.078 0.034
0.407 -0.110 0.051
0.418 -0.108 0.052
0.432 -0.108 0.054
0.427 -0.103 0.053
0.438 -0.102 0.054
0.363 -0.078 0.045
0.362 -0.074 0.045
0.369 -0.072 0.046
0.353 -0.066 0.044
0.294 -0.049 0.036
0.285 -0.045 0.035
0.286 -0.043 0.035
0.286 -0.040 0.035
0.286 -0.038 0.035
0.288 -0.035 0.035
0.290 -0.033 0.036
0.289 -0.030 0.035
0.286 -0.027 0.035
0.287 -0.025 0.035
0.289 -0.022 0.036
0.292 -0.020 0.036
0.291 -0.017 0.036
0.290 -0.014 0.036
0.295 -0.012 0.036
0.298 -0.009 0.037
0.298 -0.007 0.037
0.291 -0.004 0.036
0.288 -0.001 0.035
0.293 0.001 0.036
0.303 0.004 0.037
0.312 0.007 0.038
0.315 0.010 0.039
0.302 0.012 0.037
0.299 0.015 0.037
0.303 0.018 0.037
0.302 0.020 0.037
0.302 0.023 0.037
0.302 0.026 0.037
0.300 0.028 0.037
0.295 0.031 0.036
0.297 0.034 0.037
0.301 0.037 0.037
0.302 0.040 0.037
0.332 0.046 0.041
0.320 0.048 0.039
0.319 0.051 0.039
0.311 0.052 0.038
0.306 0.054 0.038
0.291 0.054 0.036
0.295 0.058 0.037
0.302 0.062 0.037
0.313 0.067 0.039
0.316 0.071 0.039
0.299 0.070 0.037
0.302 0.073 0.038
0.318 0.080 0.040
0.319 0.083 0.040
0.313 0.085 0.039
0.321 0.090 0.040
0.320 0.093 0.040
0.317 0.095 0.040
0.311 0.096 0.039
0.310 0.099 0.039
0.313 0.103 0.039
0.322 0.108 0.041
0.323 0.112 0.041
0.325 0.116 0.041
0.319 0.117 0.040
0.333 0.125 0.042
0.330 0.128 0.042
0.326 0.129 0.042
0.327 0.133 0.042
0.332 0.138 0.042
0.337 0.144 0.043
0.375 0.164 0.048
0.389 0.174 0.050
0.393 0.180 0.051
0.387 0.181 0.050
0.383 0.183 0.050
0.374 0.183 0.048
0.363 0.181 0.047
0.355 0.181 0.046
0.349 0.182 0.046
0.342 0.182 0.045
0.339 0.184 0.044
0.327 0.181 0.043
0.323 0.182 0.043
0.318 0.183 0.042
0.313 0.184 0.042
0.307 0.184 0.041
0.301 0.184 0.040
0.297 0.185 0.040
0.293 0.186 0.039
0.288 0.186 0.039
0.284 0.187 0.038
0.280 0.187 0.038
0.272 0.186 0.037
0.268 0.186 0.037
0.266 0.188 0.036
0.263 0.189 0.036
0.261 0.191 0.036
0.260 0.194 0.036
0.260 0.197 0.036
0.260 0.200 0.036
0.260 0.204 0.037
0.261 0.208 0.037
0.261 0.211 0.037
0.260 0.214 0.037
0.260 0.218 0.037
0.258 0.220 0.037
0.257 0.223 0.037
0.257 0.227 0.037
0.258 0.231 0.038
0.258 0.235 0.038
0.257 0.238 0.038
0.257 0.242 0.038
0.255 0.245 0.038
0.255 0.249 0.038
0.254 0.252 0.038
0.358 0.367 0.055
0.365 0.380 0.056
0.359 0.381 0.056
0.352 0.379 0.055
0.310 0.339 0.049
0.297 0.331 0.047
0.295 0.334 0.047
0.292 0.336 0.047
0.290 0.340 0.047
0.291 0.346 0.047
0.297 0.359 0.048
0.304 0.373 0.050
0.306 0.383 0.051
0.299 0.380 0.050
0.298 0.384 0.050
0.296 0.387 0.050
0.171 -0.237 0.031
0.178 -0.243 0.032
0.182 -0.245 0.033
0.185 -0.247 0.033
0.273 -0.329 0.047
0.277 -0.314 0.046
0.280 -0.314 0.047
0.282 -0.311 0.047
0.285 -0.309 0.047
0.286 -0.305 0.047
0.283 -0.297 0.046
0.286 -0.297 0.046
0.288 -0.294 0.046
0.288 -0.289 0.046
0.287 -0.284 0.046
0.288 -0.280 0.046
0.290 -0.278 0.046
0.294 -0.277 0.046
0.288 -0.267 0.045
0.289 -0.265 0.045
0.291 -0.263 0.045
0.292 -0.259 0.045
0.291 -0.254 0.045
0.293 -0.252 0.045
0.296 -0.250 0.045
0.294 -0.245 0.044
0.297 -0.243 0.045
0.291 -0.235 0.044
0.201 -0.154 0.030
0.204 -0.154 0.030
0.207 -0.153 0.030
0.207 -0.151 0.030
0.208 -0.149 0.030
0.212 -0.150 0.031
0.215 -0.149 0.031
0.222 -0.151 0.032
0.222 -0.149 0.032
0.214 -0.141 0.031
0.215 -0.139 0.031
0.212 -0.135 0.030
0.207 -0.129 0.030
0.206 -0.126 0.029
0.208 -0.125 0.029
0.209 -0.123 0.030
0.207 -0.120 0.029
0.207 -0.118 0.029
0.205 -0.115 0.029
0.209 -0.114 0.029
0.210 -0.113 0.029
0.215 -0.113 0.030
0.214 -0.111 0.030
0.212 -0.107 0.029
0.208 -0.103 0.029
0.205 -0.099 0.028
0.203 -0.096 0.028
0.207 -0.096 0.028
0.207 -0.094 0.028
0.209 -0.093 0.029
0.206 -0.089 0.028
0.211 -0.089 0.029
0.219 -0.091 0.030
0.216 -0.087 0.029
0.218 -0.086 0.030
0.211 -0.081 0.029
0.210 -0.079 0.028
0.211 -0.077 0.029
0.219 -0.078 0.030
0.226 -0.078 0.030
0.228 -0.077 0.031
0.236 -0.077 0.032
0.245 -0.078 0.033
0.253 -0.078 0.034
0.264 -0.079 0.035
0.407 -0.110 0.054
0.417 -0.108 0.056
0.432 -0.108 0.058
0.435 -0.105 0.058
0.421 -0.098 0.056
0.405 -0.090 0.054
0.376 -0.080 0.050
0.372 -0.076 0.049
0.367 -0.072 0.049
0.289 -0.048 0.038
0.287 -0.046 0.038
0.287 -0.043 0.038
0.284 -0.040 0.038
0.286 -0.037 0.038
0.289 -0.035 0.038
0.288 -0.033 0.038
0.288 -0.030 0.038
0.286 -0.027 0.038
0.288 -0.025 0.038
0.292 -0.022 0.038
0.296 -0.020 0.039
0.296 -0.017 0.039
0.297 -0.015 0.039
0.297 -0.012 0.039
0.295 -0.009 0.039
0.293 -0.007 0.039
0.289 -0.004 0.038
0.288 -0.001 0.038
0.295 0.001 0.039
0.307 0.004 0.040
0.313 0.007 0.041
0.308 0.010 0.041
0.298 0.012 0.039
0.297 0.015 0.039
0.298 0.017 0.039
0.301 0.020 0.040
0.307 0.023 0.041
0.317 0.027 0.042
0.304 0.029 0.040
0.302 0.031 0.040
0.304 0.034 0.040
0.303 0.037 0.040
0.319 0.042 0.042
0.326 0.046 0.043
0.330 0.049 0.044
0.311 0.049 0.041
0.309 0.052 0.041
0.295 0.052 0.039
0.289 0.054 0.038
0.293 0.057 0.039
0.299 0.061 0.040
0.318 0.068 0.042
0.317 0.071 0.042
0.316 0.074 0.042
0.318 0.077 0.042
0.312 0.078 0.042
0.310 0.081 0.042
0.316 0.085 0.042
0.321 0.090 0.043
0.321 0.093 0.043
0.316 0.094 0.043
0.310 0.096 0.042
0.305 0.097 0.041
0.307 0.101 0.041
0.309 0.104 0.042
0.318 0.110 0.043
0.321 0.115 0.044
0.331 0.121 0.045
0.334 0.126 0.045
0.333 0.129 0.045
0.335 0.133 0.046
0.335 0.136 0.046
0.334 0.139 0.046
0.337 0.144 0.046
0.388 0.174 0.054
0.394 0.181 0.055
0.395 0.185 0.055
0.383 0.183 0.053
0.377 0.185 0.053
0.363 0.182 0.051
0.355 0.182 0.050
0.349 0.182 0.049
0.344 0.183 0.048
0.339 0.184 0.048
0.330 0.183 0.047
0.323 0.182 0.046
0.319 0.184 0.045
0.314 0.185 0.045
0.308 0.185 0.044
0.300 0.183 0.043
0.296 0.185 0.043
0.292 0.185 0.042
0.287 0.185 0.042
0.282 0.186 0.041
0.279 0.187 0.041
0.274 0.187 0.040
0.268 0.186 0.039
0.265 0.187 0.039
0.263 0.189 0.039
0.261 0.191 0.039
0.261 0.194 0.039
0.260 0.197 0.039
0.261 0.201 0.039
0.260 0.204 0.039
0.260 0.207 0.039
0.260 0.211 0.040
0.259 0.214 0.040
0.258 0.217 0.040
0.257 0.220 0.040
0.256 0.222 0.040
0.257 0.227 0.040
0.258 0.231 0.040
0.258 0.235 0.041
0.257 0.239 0.041
0.256 0.242 0.041
0.255 0.245 0.041
0.253 0.247 0.041
0.254 0.252 0.041
0.353 0.368 0.058
0.352 0.373 0.058
0.305 0.334 0.051
0.295 0.329 0.050
0.290 0.328 0.049
0.289 0.333 0.050
0.290 0.339 0.050
0.291 0.346 0.051
0.294 0.356 0.052
0.306 0.376 0.054
0.308 0.385 0.055
0.299 0.380 0.053
0.297 0.383 0.053
0.294 0.385 0.053
0.184 -0.254 0.035
0.180 -0.246 0.035
0.186 -0.251 0.036
0.193 -0.257 0.037
0.274 -0.355 0.052
0.283 -0.362 0.053
0.285 -0.358 0.053
0.283 -0.351 0.052
0.285 -0.349 0.052
0.283 -0.342 0.052
0.286 -0.340 0.052
0.289 -0.339 0.052
0.290 -0.335 0.052
0.285 -0.324 0.051
0.284 -0.318 0.051
0.287 -0.316 0.051
0.286 -0.311 0.050
0.287 -0.307 0.050
0.288 -0.303 0.050
0.288 -0.299 0.050
0.289 -0.295 0.050
0.289 -0.291 0.049
0.289 -0.286 0.049
0.289 -0.282 0.049
0.291 -0.279 0.049
0.290 -0.275 0.049
0.291 -0.270 0.048
0.290 -0.265 0.048
0.289 -0.260 0.048
0.288 -0.255 0.047
0.288 -0.252 0.047
0.288 -0.247 0.047
0.289 -0.244 0.047
0.290 -0.242 0.047
0.290 -0.237 0.047
0.283 -0.228 0.045
0.217 -0.169 0.034
0.204 -0.157 0.032
0.203 -0.154 0.032
0.210 -0.156 0.033
0.210 -0.153 0.033
0.207 -0.149 0.032
0.209 -0.148 0.033
0.216 -0.150 0.034
0.220 -0.150 0.034
0.217 -0.145 0.033
0.215 -0.142 0.033
0.216 -0.140 0.033
0.208 -0.132 0.032
0.206 -0.129 0.031
0.207 -0.127 0.031
0.209 -0.126 0.032
0.210 -0.124 0.032
0.210 -0.122 0.032
0.204 -0.116 0.031
0.208 -0.116 0.031
0.202 -0.110 0.030
0.212 -0.114 0.032
0.214 -0.113 0.032
0.214 -0.110 0.032
0.211 -0.107 0.031
0.211 -0.105 0.031
0.203 -0.098 0.030
0.202 -0.096 0.030
0.205 -0.095 0.030
0.212 -0.096 0.031
0.199 -0.088 0.029
0.206 -0.090 0.030
0.203 -0.086 0.030
0.218 -0.090 0.032
0.220 -0.089 0.032
0.216 -0.085 0.031
0.213 -0.082 0.031
0.201 -0.075 0.029
0.212 -0.077 0.031
0.223 -0.079 0.032
0.226 -0.078 0.033
0.228 -0.077 0.033
0.227 -0.074 0.033
0.239 -0.076 0.034
0.249 -0.077 0.036
0.264 -0.078 0.038
0.271 -0.078 0.039
0.275 -0.077 0.039
0.401 -0.108 0.057
0.411 -0.107 0.059
0.409 -0.103 0.058
0.396 -0.096 0.056
0.398 -0.092 0.057
0.394 -0.088 0.056
0.390 -0.083 0.055
0.376 -0.077 0.053
0.366 -0.071 0.052
0.286 -0.048 0.041
0.286 -0.045 0.040
0.285 -0.043 0.040
0.283 -0.040 0.040
0.285 -0.037 0.040
0.287 -0.035 0.041
0.287 -0.032 0.041
0.286 -0.030 0.040
0.288 -0.027 0.041
0.290 -0.025 0.041
0.295 -0.023 0.042
0.298 -0.020 0.042
0.299 -0.018 0.042
0.299 -0.015 0.042
0.297 -0.012 0.042
0.294 -0.009 0.041
0.291 -0.007 0.041
0.289 -0.004 0.041
0.291 -0.001 0.041
0.301 0.001 0.042
0.305 0.004 0.043
0.310 0.007 0.044
0.308 0.010 0.043
0.302 0.012 0.043
0.299 0.015 0.042
0.300 0.018 0.042
0.294 0.020 0.041
0.298 0.023 0.042
0.292 0.025 0.041
0.317 0.030 0.045
0.305 0.032 0.043
0.305 0.034 0.043
0.311 0.038 0.044
0.319 0.042 0.045
0.315 0.044 0.045
0.305 0.046 0.043
0.310 0.049 0.044
0.304 0.051 0.043
0.297 0.053 0.042
0.287 0.053 0.041
0.292 0.057 0.041
0.306 0.063 0.044
0.318 0.068 0.045
0.318 0.071 0.045
0.315 0.073 0.045
0.316 0.076 0.045
0.314 0.079 0.045
0.312 0.081 0.045
0.316 0.086 0.045
0.315 0.088 0.045
0.309 0.090 0.044
0.308 0.092 0.044
0.307 0.095 0.044
0.303 0.097 0.044
0.300 0.098 0.043
0.305 0.103 0.044
0.303 0.105 0.044
0.323 0.115 0.047
0.335 0.123 0.049
0.330 0.124 0.048
0.322 0.125 0.047
0.324 0.129 0.047
0.336 0.137 0.049
0.339 0.142 0.050
0.345 0.148 0.051
0.389 0.174 0.057
0.394 0.181 0.058
0.390 0.183 0.058
0.383 0.184 0.057
0.376 0.184 0.056
0.363 0.182 0.054
0.355 0.181 0.053
0.349 0.182 0.052
0.344 0.183 0.052
0.337 0.183 0.051
0.329 0.182 0.050
0.323 0.183 0.049
0.318 0.184 0.048
0.313 0.184 0.048
0.309 0.185 0.047
0.302 0.185 0.046
0.297 0.185 0.046
0.293 0.186 0.045
0.286 0.185 0.044
0.282 0.186 0.044
0.278 0.186 0.043
0.274 0.187 0.043
0.267 0.185 0.042
0.264 0.187 0.042
0.262 0.189 0.041
0.261 0.191 0.041
0.260 0.194 0.041
0.261 0.198 0.042
0.261 0.201 0.042
0.260 0.204 0.042
0.259 0.207 0.042
0.259 0.210 0.042
0.259 0.214 0.042
0.258 0.217 0.042
0.257 0.220 0.042
0.257 0.224 0.043
0.257 0.227 0.043
0.257 0.231 0.043
0.256 0.234 0.043
0.256 0.238 0.043
0.256 0.242 0.044
0.255 0.245 0.044
0.254 0.248 0.044
0.253 0.252 0.044
0.256 0.259 0.045
0.288 0.301 0.051
0.287 0.305 0.051
0.288 0.311 0.051
0.294 0.323 0.053
0.290 0.324 0.052
0.285 0.324 0.052
0.287 0.330 0.053
0.291 0.341 0.054
0.291 0.347 0.054
0.294 0.356 0.055
0.305 0.376 0.058
0.302 0.378 0.057
0.299 0.380 0.057
0.296 0.382 0.057
0.292 0.382 0.056
0.172 -0.239 0.035
0.180 -0.246 0.037
0.186 -0.252 0.038
0.195 -0.260 0.039
0.278 -0.361 0.056
0.282 -0.361 0.056
0.284 -0.358 0.056
0.285 -0.354 0.056
0.284 -0.348 0.056
0.287 -0.346 0.056
0.288 -0.343 0.056
0.290 -0.340 0.056
0.290 -0.335 0.055
0.290 -0.330 0.055
0.289 -0.324 0.055
0.290 -0.320 0.055
0.290 -0.315 0.054
0.289 -0.309 0.054
0.289 -0.305 0.053
0.290 -0.301 0.053
0.290 -0.297 0.053
0.290 -0.292 0.053
0.290 -0.288 0.053
0.289 -0.282 0.052
0.289 -0.278 0.052
0.290 -0.274 0.052
0.289 -0.269 0.051
0.288 -0.264 0.051
0.286 -0.259 0.050
0.288 -0.255 0.050
0.286 -0.250 0.050
0.287 -0.247 0.050
0.287 -0.243 0.050
0.286 -0.238 0.049
0.284 -0.233 0.049
0.282 -0.228 0.048
0.274 -0.218 0.047
0.206 -0.158 0.035
0.207 -0.157 0.035
0.211 -0.157 0.035
0.210 -0.154 0.035
0.207 -0.149 0.034
0.209 -0.148 0.035
0.213 -0.148 0.035
0.215 -0.147 0.035
0.211 -0.142 0.035
0.214 -0.141 0.035
0.215 -0.140 0.035
0.214 -0.136 0.035
0.210 -0.131 0.034
0.208 -0.128 0.034
0.209 -0.126 0.034
0.210 -0.124 0.034
0.210 -0.122 0.034
0.209 -0.119 0.033
0.208 -0.116 0.033
0.212 -0.116 0.034
0.210 -0.113 0.033
0.215 -0.113 0.034
0.215 -0.111 0.034
0.202 -0.102 0.032
0.213 -0.106 0.034
0.215 -0.104 0.034
0.209 -0.099 0.033
0.210 -0.098 0.033
0.210 -0.095 0.033
0.221 -0.098 0.034
0.204 -0.089 0.032
0.221 -0.094 0.034
0.207 -0.086 0.032
0.217 -0.088 0.034
0.219 -0.086 0.034
0.216 -0.083 0.033
0.213 -0.080 0.033
0.214 -0.078 0.033
0.224 -0.080 0.034
0.225 -0.078 0.035
0.224 -0.075 0.034
0.229 -0.075 0.035
0.235 -0.075 0.036
0.250 -0.077 0.038
0.255 -0.076 0.039
0.260 -0.075 0.040
0.271 -0.076 0.041
0.401 -0.108 0.061
0.398 -0.104 0.061
0.392 -0.098 0.060
0.385 -0.093 0.058
0.388 -0.090 0.059
0.395 -0.088 0.060
0.392 -0.084 0.059
0.376 -0.077 0.057
0.285 -0.048 0.043
0.283 -0.045 0.043
0.283 -0.042 0.043
0.283 -0.040 0.043
0.284 -0.037 0.043
0.284 -0.035 0.043
0.285 -0.032 0.043
0.286 -0.030 0.043
0.288 -0.027 0.043
0.289 -0.025 0.043
0.288 -0.022 0.043
0.293 -0.020 0.044
0.298 -0.018 0.045
0.298 -0.015 0.045
0.295 -0.012 0.044
0.290 -0.009 0.043
0.293 -0.007 0.044
0.293 -0.004 0.044
0.299 -0.001 0.045
0.298 0.001 0.045
0.298 0.004 0.045
0.301 0.007 0.045
0.306 0.010 0.046
0.306 0.012 0.046
0.308 0.015 0.046
0.308 0.018 0.046
0.301 0.020 0.045
0.286 0.022 0.043
0.294 0.025 0.044
0.294 0.028 0.044
0.302 0.031 0.045
0.303 0.034 0.046
0.309 0.038 0.046
0.313 0.041 0.047
0.304 0.043 0.046
0.297 0.044 0.045
0.302 0.048 0.046
0.311 0.052 0.047
0.308 0.055 0.047
0.305 0.057 0.046
0.307 0.060 0.047
0.318 0.065 0.048
0.316 0.068 0.048
0.308 0.069 0.047
0.310 0.072 0.047
0.312 0.076 0.047
0.310 0.078 0.047
0.317 0.083 0.048
0.315 0.085 0.048
0.305 0.085 0.047
0.294 0.085 0.045
0.296 0.089 0.045
0.297 0.092 0.046
0.293 0.093 0.045
0.307 0.101 0.047
0.301 0.102 0.046
0.303 0.105 0.047
0.318 0.114 0.049
0.330 0.121 0.051
0.312 0.118 0.048
0.310 0.120 0.048
0.321 0.128 0.050
0.327 0.133 0.051
0.345 0.144 0.054
0.356 0.152 0.056
0.374 0.164 0.059
0.386 0.173 0.061
0.386 0.177 0.061
0.383 0.179 0.060
0.378 0.181 0.060
0.370 0.182 0.059
0.361 0.181 0.057
0.353 0.181 0.056
0.347 0.181 0.055
0.341 0.182 0.055
0.335 0.182 0.054
0.328 0.182 0.053
0.321 0.182 0.052
0.317 0.183 0.051
0.313 0.185 0.051
0.306 0.184 0.050
0.301 0.184 0.049
0.298 0.186 0.049
0.295 0.187 0.048
0.290 0.188 0.048
0.282 0.186 0.047
0.277 0.186 0.046
0.273 0.186 0.045
0.267 0.185 0.044
0.264 0.187 0.044
0.262 0.189 0.044
0.261 0.192 0.044
0.260 0.194 0.044
0.260 0.197 0.044
0.260 0.201 0.044
0.260 0.204 0.045
0.259 0.207 0.045
0.258 0.210 0.045
0.258 0.214 0.045
0.258 0.217 0.045
0.258 0.221 0.045
0.257 0.223 0.045
0.257 0.228 0.046
0.257 0.231 0.046
0.256 0.234 0.046
0.254 0.237 0.046
0.255 0.242 0.046
0.255 0.245 0.046
0.255 0.250 0.047
0.255 0.253 0.047
0.259 0.262 0.048
0.268 0.275 0.050
0.284 0.297 0.053
0.285 0.303 0.054
0.283 0.306 0.054
0.280 0.307 0.053
0.279 0.311 0.054
0.277 0.315 0.054
0.280 0.323 0.055
0.290 0.340 0.057
0.291 0.347 0.057
0.292 0.355 0.058
0.301 0.371 0.060
0.301 0.377 0.061
0.297 0.378 0.060
0.295 0.381 0.060
0.293 0.385 0.060
0.143 -0.198 0.031
0.172 -0.236 0.037
0.177 -0.240 0.038
0.279 -0.361 0.059
0.281 -0.359 0.059
0.281 -0.355 0.059
0.281 -0.349 0.059
0.283 -0.348 0.059
0.285 -0.344 0.059
0.289 -0.345 0.059
0.289 -0.339 0.059
0.290 -0.336 0.059
0.291 -0.331 0.059
0.290 -0.325 0.058
0.291 -0.321 0.058
0.292 -0.318 0.058
0.290 -0.311 0.057
0.291 -0.307 0.057
0.291 -0.303 0.057
0.293 -0.300 0.057
0.292 -0.294 0.056
0.291 -0.289 0.056
0.290 -0.283 0.055
0.290 -0.279 0.055
0.290 -0.275 0.055
0.289 -0.269 0.054
0.287 -0.264 0.054
0.288 -0.260 0.054
0.288 -0.256 0.053
0.288 -0.252 0.053
0.287 -0.247 0.053
0.287 -0.243 0.053
0.281 -0.235 0.051
0.281 -0.231 0.051
0.283 -0.228 0.051
0.273 -0.217 0.049
0.210 -0.161 0.037
0.207 -0.156 0.037
0.210 -0.156 0.037
0.208 -0.153 0.037
0.209 -0.151 0.037
0.209 -0.148 0.037
0.208 -0.145 0.036
0.210 -0.143 0.037
0.214 -0.144 0.037
0.205 -0.135 0.036
0.212 -0.138 0.037
0.214 -0.136 0.037
0.214 -0.134 0.037
0.213 -0.131 0.036
0.208 -0.126 0.036
0.205 -0.122 0.035
0.208 -0.121 0.035
0.208 -0.119 0.035
0.210 -0.118 0.036
0.213 -0.117 0.036
0.202 -0.109 0.034
0.213 -0.112 0.036
0.213 -0.110 0.036
0.211 -0.107 0.035
0.211 -0.105 0.035
0.214 -0.104 0.036
0.202 -0.096 0.034
0.207 -0.096 0.034
0.208 -0.094 0.034
0.208 -0.093 0.035
0.202 -0.088 0.033
0.212 -0.090 0.035
0.208 -0.086 0.034
0.212 -0.086 0.035
0.218 -0.086 0.036
0.213 -0.082 0.035
0.213 -0.080 0.035
0.212 -0.077 0.035
0.220 -0.078 0.036
0.227 -0.078 0.037
0.227 -0.076 0.037
0.230 -0.075 0.037
0.237 -0.075 0.038
0.246 -0.076 0.040
0.251 -0.075 0.041
0.256 -0.074 0.041
0.269 -0.075 0.043
0.384 -0.104 0.062
0.394 -0.103 0.063
0.393 -0.099 0.063
0.400 -0.097 0.064
0.394 -0.092 0.063
0.394 -0.088 0.063
0.394 -0.084 0.063
0.340 -0.066 0.054
0.327 -0.061 0.052
0.315 -0.056 0.050
0.286 -0.048 0.046
0.283 -0.045 0.045
0.281 -0.042 0.045
0.283 -0.040 0.045
0.284 -0.037 0.045
0.284 -0.035 0.045
0.283 -0.032 0.045
0.283 -0.029 0.045
0.286 -0.027 0.045
0.283 -0.024 0.045
0.283 -0.022 0.045
0.286 -0.019 0.046
0.293 -0.017 0.047
0.295 -0.015 0.047
0.289 -0.012 0.046
0.291 -0.009 0.046
0.294 -0.007 0.047
0.297 -0.004 0.047
0.296 -0.001 0.047
0.292 0.001 0.047
0.292 0.004 0.046
0.295 0.007 0.047
0.301 0.009 0.048
0.304 0.012 0.048
0.305 0.015 0.049
0.308 0.018 0.049
0.304 0.021 0.048
0.295 0.023 0.047
0.288 0.025 0.046
0.289 0.027 0.046
0.291 0.030 0.046
0.300 0.034 0.048
0.308 0.038 0.049
0.302 0.040 0.048
0.306 0.043 0.049
0.298 0.045 0.048
0.311 0.049 0.050
0.303 0.051 0.049
0.310 0.055 0.050
0.314 0.059 0.050
0.315 0.062 0.051
0.310 0.064 0.050
0.304 0.065 0.049
0.300 0.067 0.048
0.297 0.069 0.048
0.307 0.075 0.050
0.311 0.078 0.050
0.308 0.081 0.050
0.307 0.083 0.050
0.294 0.082 0.048
0.292 0.085 0.047
0.290 0.087 0.047
0.283 0.088 0.046
0.277 0.088 0.045
0.287 0.094 0.047
0.291 0.098 0.048
0.308 0.107 0.050
0.316 0.113 0.052
0.308 0.113 0.051
0.305 0.115 0.050
0.309 0.120 0.051
0.318 0.126 0.052
0.330 0.135 0.055
0.343 0.143 0.057
0.359 0.154 0.060
0.374 0.164 0.062
0.377 0.169 0.063
0.374 0.172 0.063
0.375 0.176 0.063
0.373 0.179 0.063
0.367 0.180 0.062
0.359 0.180 0.061
0.351 0.180 0.059
0.346 0.181 0.059
0.341 0.182 0.058
0.335 0.182 0.057
0.325 0.181 0.055
0.321 0.182 0.055
0.317 0.183 0.054
0.310 0.183 0.053
0.304 0.183 0.053
0.301 0.184 0.052
0.296 0.185 0.051
0.292 0.186 0.051
0.288 0.186 0.050
0.282 0.186 0.049
0.277 0.186 0.049
0.271 0.185 0.048
0.267 0.186 0.047
0.264 0.187 0.047
0.262 0.189 0.047
0.261 0.192 0.047
0.261 0.195 0.047
0.260 0.197 0.047
0.260 0.201 0.047
0.259 0.204 0.047
0.259 0.207 0.047
0.258 0.210 0.047
0.258 0.213 0.048
0.258 0.218 0.048
0.258 0.221 0.048
0.257 0.224 0.048
0.258 0.228 0.048
0.257 0.232 0.049
0.256 0.235 0.049
0.256 0.238 0.049
0.255 0.242 0.049
0.255 0.246 0.049
0.255 0.250 0.050
0.254 0.253 0.050
0.255 0.258 0.050
0.276 0.285 0.055
0.284 0.298 0.057
0.287 0.305 0.057
0.282 0.305 0.057
0.275 0.303 0.056
0.270 0.302 0.055
0.271 0.308 0.056
0.279 0.322 0.058
0.286 0.336 0.060
0.290 0.347 0.061
0.298 0.361 0.063
0.300 0.370 0.064
0.298 0.374 0.064
0.294 0.375 0.063
0.290 0.375 0.063
0.285 0.375 0.062
0.130 -0.181 0.030
0.276 -0.348 0.061
0.277 -0.344 0.061
0.278 -0.342 0.061
0.286 -0.346 0.062
0.284 -0.338 0.061
0.289 -0.339 0.062
0.289 -0.334 0.062
0.290 -0.330 0.062
0.290 -0.325 0.061
0.290 -0.321 0.061
0.291 -0.317 0.061
0.292 -0.313 0.061
0.293 -0.309 0.061
0.293 -0.305 0.060
0.294 -0.301 0.060
0.295 -0.297 0.060
0.292 -0.290 0.059
0.291 -0.284 0.059
0.291 -0.280 0.058
0.291 -0.276 0.058
0.290 -0.270 0.058
0.289 -0.266 0.057
0.288 -0.261 0.057
0.288 -0.256 0.056
0.287 -0.251 0.056
0.287 -0.247 0.056
0.286 -0.242 0.055
0.282 -0.236 0.054
0.280 -0.230 0.054
0.278 -0.225 0.053
0.267 -0.213 0.051
0.205 -0.158 0.039
0.205 -0.155 0.039
0.204 -0.152 0.038
0.208 -0.153 0.039
0.213 -0.153 0.040
0.212 -0.150 0.039
0.208 -0.145 0.038
0.209 -0.143 0.039
0.220 -0.148 0.041
0.216 -0.143 0.040
0.212 -0.137 0.039
0.214 -0.136 0.039
0.217 -0.136 0.039
0.211 -0.130 0.038
0.207 -0.125 0.037
0.205 -0.121 0.037
0.202 -0.118 0.036
0.206 -0.117 0.037
0.211 -0.118 0.038
0.199 -0.109 0.036
0.210 -0.113 0.038
0.202 -0.107 0.036
0.211 -0.109 0.037
0.210 -0.106 0.037
0.209 -0.104 0.037
0.209 -0.102 0.037
0.214 -0.102 0.038
0.203 -0.094 0.036
0.206 -0.094 0.036
0.203 -0.090 0.035
0.214 -0.093 0.037
0.199 -0.084 0.035
0.210 -0.087 0.037
0.208 -0.084 0.036
0.212 -0.084 0.037
0.213 -0.082 0.037
0.204 -0.076 0.035
0.204 -0.075 0.035
0.219 -0.078 0.038
0.224 -0.078 0.039
0.228 -0.077 0.039
0.229 -0.075 0.039
0.234 -0.074 0.040
0.241 -0.074 0.041
0.250 -0.075 0.043
0.258 -0.074 0.044
0.391 -0.102 0.067
0.400 -0.100 0.068
0.395 -0.095 0.067
0.397 -0.092 0.067
0.396 -0.089 0.067
0.390 -0.083 0.066
0.382 -0.078 0.065
0.328 -0.061 0.055
0.314 -0.056 0.053
0.295 -0.050 0.050
0.285 -0.045 0.048
0.283 -0.042 0.048
0.283 -0.040 0.048
0.287 -0.038 0.048
0.285 -0.035 0.048
0.284 -0.032 0.048
0.283 -0.029 0.048
0.284 -0.027 0.048
0.281 -0.024 0.047
0.282 -0.022 0.047
0.285 -0.019 0.048
0.292 -0.017 0.049
0.287 -0.014 0.048
0.286 -0.012 0.048
0.290 -0.009 0.049
0.293 -0.007 0.049
0.294 -0.004 0.049
0.294 -0.001 0.049
0.290 0.001 0.049
0.291 0.004 0.049
0.297 0.007 0.050
0.298 0.009 0.050
0.298 0.012 0.050
0.300 0.015 0.050
0.299 0.017 0.050
0.295 0.020 0.050
0.298 0.023 0.050
0.292 0.025 0.049
0.291 0.028 0.049
0.293 0.030 0.049
0.300 0.034 0.051
0.297 0.036 0.050
0.307 0.040 0.052
0.300 0.042 0.051
0.299 0.045 0.051
0.298 0.047 0.050
0.301 0.051 0.051
0.306 0.054 0.052
0.309 0.058 0.053
0.308 0.060 0.052
0.299 0.061 0.051
0.302 0.065 0.051
0.299 0.067 0.051
0.295 0.069 0.050
0.300 0.073 0.051
0.306 0.080 0.052
0.297 0.081 0.051
0.296 0.083 0.051
0.299 0.087 0.051
0.297 0.089 0.051
0.280 0.087 0.048
0.280 0.089 0.048
0.274 0.090 0.047
0.277 0.094 0.048
0.304 0.109 0.053
0.300 0.110 0.052
0.306 0.116 0.053
0.315 0.122 0.055
0.324 0.129 0.057
0.328 0.134 0.057
0.341 0.142 0.060
0.350 0.150 0.061
0.363 0.159 0.064
0.366 0.164 0.064
0.367 0.169 0.065
0.367 0.172 0.065
0.367 0.177 0.065
0.366 0.180 0.065
0.361 0.181 0.064
0.353 0.181 0.063
0.346 0.181 0.062
0.341 0.182 0.061
0.335 0.182 0.060
0.326 0.181 0.059
0.321 0.182 0.058
0.317 0.183 0.057
0.308 0.182 0.056
0.304 0.183 0.056
0.301 0.185 0.055
0.294 0.183 0.054
0.291 0.185 0.054
0.287 0.186 0.053
0.282 0.186 0.052
0.277 0.186 0.052
0.272 0.186 0.051
0.266 0.186 0.050
0.264 0.188 0.050
0.262 0.189 0.049
0.262 0.192 0.050
0.261 0.195 0.050
0.260 0.198 0.050
0.259 0.201 0.050
0.260 0.205 0.050
0.260 0.208 0.050
0.258 0.210 0.050
0.259 0.215 0.050
0.258 0.217 0.051
0.257 0.221 0.051
0.257 0.224 0.051
0.258 0.229 0.051
0.257 0.232 0.051
0.256 0.235 0.051
0.256 0.239 0.052
0.255 0.242 0.052
0.255 0.246 0.052
0.255 0.250 0.052
0.254 0.253 0.052
0.258 0.262 0.054
0.275 0.283 0.057
0.284 0.298 0.060
0.284 0.303 0.060
0.275 0.298 0.059
0.268 0.295 0.057
0.266 0.297 0.057
0.268 0.305 0.058
0.275 0.319 0.060
0.285 0.335 0.063
0.288 0.344 0.064
0.299 0.364 0.067
0.298 0.368 0.067
0.293 0.368 0.066
0.289 0.368 0.066
0.285 0.369 0.065
0.284 0.374 0.066
0.109 -0.151 0.026
0.110 -0.151 0.027
0.115 -0.155 0.028
0.275 -0.333 0.063
0.280 -0.334 0.064
0.285 -0.335 0.065
0.288 -0.334 0.065
0.290 -0.331 0.065
0.291 -0.327 0.065
0.290 -0.321 0.064
0.291 -0.317 0.064
0.292 -0.314 0.064
0.292 -0.309 0.064
0.293 -0.305 0.064
0.294 -0.301 0.064
0.294 -0.297 0.063
0.292 -0.290 0.062
0.292 -0.285 0.062
0.291 -0.281 0.062
0.289 -0.275 0.061
0.290 -0.271 0.061
0.290 -0.267 0.061
0.288 -0.261 0.060
0.288 -0.256 0.060
0.286 -0.251 0.059
0.286 -0.247 0.059
0.285 -0.242 0.058
0.284 -0.237 0.058
0.279 -0.230 0.057
0.280 -0.226 0.056
0.272 -0.217 0.055
0.261 -0.204 0.052
0.215 -0.166 0.043
0.206 -0.156 0.041
0.205 -0.153 0.041
0.205 -0.150 0.040
0.213 -0.153 0.042
0.215 -0.152 0.042
0.208 -0.145 0.041
0.218 -0.149 0.042
0.222 -0.150 0.043
0.219 -0.145 0.042
0.219 -0.142 0.042
0.224 -0.143 0.043
0.216 -0.136 0.041
0.211 -0.130 0.040
0.207 -0.125 0.039
0.205 -0.122 0.039
0.204 -0.119 0.039
0.204 -0.116 0.039
0.207 -0.116 0.039
0.212 -0.117 0.040
0.203 -0.109 0.038
0.207 -0.109 0.039
0.207 -0.107 0.039
0.207 -0.105 0.039
0.206 -0.102 0.038
0.210 -0.102 0.039
0.213 -0.102 0.040
0.204 -0.095 0.038
0.209 -0.095 0.039
0.210 -0.093 0.039
0.213 -0.093 0.039
0.215 -0.091 0.039
0.205 -0.085 0.038
0.213 -0.086 0.039
0.214 -0.084 0.039
0.215 -0.083 0.039
0.225 -0.085 0.041
0.222 -0.081 0.040
0.222 -0.079 0.040
0.222 -0.077 0.040
0.224 -0.076 0.041
0.235 -0.077 0.043
0.237 -0.075 0.043
0.237 -0.073 0.043
0.251 -0.075 0.045
0.257 -0.074 0.046
0.385 -0.101 0.069
0.388 -0.098 0.070
0.391 -0.095 0.070
0.394 -0.092 0.071
0.390 -0.087 0.070
0.385 -0.082 0.069
0.372 -0.076 0.067
0.294 -0.049 0.052
0.287 -0.046 0.051
0.283 -0.042 0.050
0.284 -0.040 0.051
0.287 -0.038 0.051
0.287 -0.035 0.051
0.284 -0.032 0.051
0.284 -0.030 0.050
0.285 -0.027 0.051
0.283 -0.024 0.050
0.283 -0.022 0.050
0.295 -0.020 0.052
0.292 -0.017 0.052
0.288 -0.014 0.051
0.289 -0.012 0.051
0.286 -0.009 0.051
0.289 -0.007 0.051
0.292 -0.004 0.052
0.294 -0.001 0.052
0.292 0.001 0.052
0.295 0.004 0.052
0.299 0.007 0.053
0.296 0.009 0.053
0.295 0.012 0.052
0.294 0.015 0.052
0.293 0.017 0.052
0.296 0.020 0.053
0.296 0.023 0.053
0.300 0.026 0.053
0.301 0.029 0.054
0.301 0.031 0.054
0.300 0.034 0.053
0.296 0.036 0.053
0.294 0.039 0.052
0.294 0.041 0.052
0.299 0.045 0.053
0.299 0.047 0.053
0.298 0.050 0.053
0.303 0.054 0.054
0.300 0.056 0.054
0.295 0.058 0.053
0.304 0.062 0.054
0.302 0.065 0.054
0.298 0.067 0.054
0.299 0.070 0.054
0.299 0.073 0.054
0.302 0.076 0.054
0.297 0.078 0.054
0.297 0.081 0.054
0.298 0.084 0.054
0.293 0.085 0.053
0.292 0.088 0.053
0.298 0.092 0.054
0.289 0.092 0.052
0.286 0.094 0.052
0.280 0.095 0.051
0.267 0.093 0.049
0.267 0.096 0.049
0.305 0.115 0.056
0.314 0.122 0.058
0.322 0.128 0.059
0.332 0.136 0.061
0.340 0.142 0.063
0.341 0.146 0.063
0.345 0.152 0.064
0.359 0.162 0.067
0.362 0.166 0.067
0.362 0.170 0.068
0.361 0.174 0.068
0.359 0.176 0.067
0.358 0.180 0.067
0.350 0.179 0.066
0.343 0.180 0.065
0.339 0.181 0.064
0.332 0.181 0.063
0.326 0.182 0.062
0.322 0.183 0.061
0.315 0.182 0.060
0.308 0.182 0.059
0.305 0.184 0.059
0.302 0.185 0.058
0.294 0.184 0.057
0.290 0.185 0.056
0.287 0.186 0.056
0.283 0.187 0.055
0.277 0.187 0.054
0.272 0.186 0.053
0.267 0.186 0.053
0.263 0.187 0.052
0.262 0.190 0.052
0.261 0.192 0.052
0.260 0.195 0.052
0.260 0.198 0.052
0.260 0.201 0.052
0.260 0.205 0.053
0.260 0.208 0.053
0.259 0.211 0.053
0.257 0.213 0.053
0.257 0.217 0.053
0.258 0.221 0.054
0.258 0.225 0.054
0.257 0.228 0.054
0.257 0.232 0.054
0.257 0.236 0.054
0.255 0.238 0.054
0.255 0.242 0.055
0.255 0.246 0.055
0.254 0.250 0.055
0.254 0.254 0.055
0.266 0.270 0.058
0.270 0.278 0.059
0.275 0.289 0.061
0.261 0.279 0.058
0.260 0.282 0.058
0.262 0.289 0.059
0.263 0.295 0.060
0.266 0.303 0.061
0.269 0.312 0.062
0.285 0.336 0.066
0.284 0.340 0.066
0.278 0.339 0.065
0.293 0.362 0.069
0.289 0.363 0.069
0.284 0.363 0.068
0.279 0.362 0.068
0.272 0.358 0.066
0.105 -0.145 0.027
0.107 -0.146 0.027
0.107 -0.144 0.027
0.106 -0.142 0.027
0.107 -0.141 0.027
0.109 -0.142 0.027
0.287 -0.333 0.068
0.290 -0.331 0.068
0.291 -0.327 0.068
0.291 -0.322 0.068
0.291 -0.318 0.068
0.291 -0.313 0.067
0.292 -0.309 0.067
0.292 -0.304 0.067
0.293 -0.300 0.067
0.293 -0.296 0.066
0.292 -0.291 0.066
0.290 -0.284 0.065
0.291 -0.281 0.065
0.291 -0.276 0.064
0.291 -0.272 0.064
0.290 -0.267 0.064
0.290 -0.263 0.063
0.288 -0.256 0.063
0.286 -0.251 0.062
0.285 -0.246 0.061
0.285 -0.243 0.061
0.286 -0.239 0.061
0.285 -0.235 0.061
0.282 -0.228 0.060
0.276 -0.220 0.058
0.223 -0.172 0.047
0.211 -0.160 0.044
0.206 -0.154 0.043
0.204 -0.150 0.042
0.207 -0.149 0.043
0.209 -0.148 0.043
0.212 -0.147 0.043
0.215 -0.147 0.044
0.215 -0.145 0.044
0.216 -0.143 0.044
0.219 -0.143 0.045
0.220 -0.141 0.045
0.218 -0.137 0.044
0.212 -0.131 0.043
0.206 -0.125 0.041
0.205 -0.121 0.041
0.205 -0.119 0.041
0.204 -0.116 0.041
0.206 -0.116 0.041
0.211 -0.116 0.042
0.206 -0.111 0.041
0.206 -0.109 0.041
0.206 -0.106 0.040
0.206 -0.105 0.040
0.207 -0.103 0.041
0.209 -0.102 0.041
0.208 -0.099 0.041
0.206 -0.096 0.040
0.206 -0.094 0.040
0.211 -0.094 0.041
0.203 -0.088 0.039
0.207 -0.088 0.040
0.199 -0.083 0.038
0.214 -0.087 0.041
0.215 -0.085 0.041
0.214 -0.083 0.041
0.225 -0.085 0.043
0.228 -0.084 0.044
0.223 -0.079 0.043
0.224 -0.078 0.043
0.226 -0.076 0.043
0.238 -0.078 0.045
0.241 -0.077 0.046
0.244 -0.075 0.046
0.246 -0.074 0.047
0.252 -0.073 0.048
0.254 -0.071 0.048
0.362 -0.098 0.069
0.375 -0.098 0.071
0.380 -0.096 0.072
0.385 -0.093 0.073
0.386 -0.090 0.073
0.378 -0.084 0.071
0.371 -0.079 0.070
0.366 -0.075 0.069
0.355 -0.070 0.067
0.293 -0.049 0.055
0.287 -0.046 0.054
0.283 -0.042 0.053
0.284 -0.040 0.053
0.287 -0.038 0.054
0.287 -0.035 0.054
0.284 -0.032 0.053
0.286 -0.030 0.053
0.290 -0.028 0.054
0.286 -0.025 0.053
0.287 -0.022 0.054
0.292 -0.020 0.055
0.295 -0.017 0.055
0.294 -0.015 0.055
0.292 -0.012 0.054
0.289 -0.009 0.054
0.287 -0.007 0.053
0.297 -0.004 0.055
0.293 -0.001 0.055
0.293 0.001 0.055
0.297 0.004 0.055
0.300 0.007 0.056
0.299 0.009 0.056
0.296 0.012 0.055
0.292 0.015 0.055
0.298 0.018 0.056
0.297 0.020 0.055
0.301 0.023 0.056
0.303 0.026 0.057
0.300 0.028 0.056
0.299 0.031 0.056
0.298 0.034 0.056
0.296 0.036 0.055
0.296 0.039 0.055
0.297 0.042 0.056
0.301 0.045 0.056
0.296 0.047 0.056
0.295 0.050 0.055
0.304 0.054 0.057
0.300 0.056 0.056
0.301 0.059 0.057
0.307 0.063 0.058
0.301 0.065 0.057
0.295 0.066 0.056
0.295 0.069 0.056
0.289 0.070 0.055
0.286 0.072 0.054
0.291 0.076 0.055
0.300 0.081 0.057
0.302 0.085 0.057
0.302 0.088 0.057
0.286 0.086 0.054
0.291 0.090 0.056
0.305 0.097 0.058
0.304 0.100 0.058
0.289 0.098 0.055
0.282 0.098 0.054
0.261 0.094 0.050
0.262 0.096 0.050
0.300 0.117 0.058
0.310 0.124 0.060
0.344 0.141 0.067
0.345 0.145 0.067
0.334 0.143 0.065
0.335 0.147 0.065
0.340 0.153 0.066
0.345 0.159 0.067
0.359 0.169 0.070
0.352 0.169 0.069
0.350 0.172 0.069
0.345 0.174 0.068
0.342 0.176 0.068
0.337 0.176 0.067
0.333 0.178 0.066
0.331 0.181 0.066
0.327 0.182 0.065
0.321 0.183 0.064
0.313 0.181 0.063
0.309 0.182 0.062
0.304 0.183 0.062
0.300 0.184 0.061
0.294 0.184 0.060
0.291 0.185 0.059
0.286 0.186 0.059
0.282 0.186 0.058
0.276 0.186 0.057
0.271 0.186 0.056
0.266 0.185 0.055
0.263 0.187 0.055
0.261 0.189 0.055
0.260 0.192 0.055
0.259 0.194 0.055
0.260 0.198 0.055
0.260 0.202 0.055
0.260 0.205 0.055
0.260 0.208 0.056
0.258 0.211 0.056
0.257 0.214 0.056
0.256 0.217 0.056
0.258 0.222 0.056
0.257 0.225 0.056
0.256 0.228 0.056
0.256 0.231 0.057
0.256 0.236 0.057
0.256 0.239 0.057
0.255 0.242 0.057
0.255 0.247 0.058
0.255 0.250 0.058
0.253 0.253 0.058
0.255 0.259 0.059
0.260 0.268 0.060
0.255 0.268 0.059
0.252 0.269 0.059
0.260 0.282 0.061
0.260 0.288 0.062
0.260 0.292 0.062
0.262 0.299 0.063
0.283 0.334 0.069
0.282 0.338 0.069
0.273 0.333 0.068
0.282 0.349 0.070
0.287 0.361 0.072
0.280 0.357 0.071
0.268 0.348 0.068
0.242 0.319 0.062
0.104 -0.145 0.028
0.106 -0.145 0.028
0.106 -0.144 0.028
0.105 -0.141 0.028
0.105 -0.139 0.028
0.104 -0.136 0.027
0.105 -0.134 0.027
0.107 -0.135 0.028
0.113 -0.141 0.029
0.118 -0.145 0.030
0.131 -0.159 0.033
0.143 -0.169 0.036
0.289 -0.326 0.071
0.290 -0.322 0.071
0.291 -0.318 0.071
0.291 -0.313 0.070
0.291 -0.309 0.070
0.292 -0.305 0.070
0.292 -0.301 0.070
0.292 -0.296 0.069
0.290 -0.289 0.068
0.290 -0.285 0.068
0.291 -0.281 0.068
0.293 -0.279 0.068
0.292 -0.273 0.068
0.292 -0.269 0.067
0.290 -0.263 0.067
0.290 -0.259 0.066
0.288 -0.253 0.065
0.286 -0.247 0.065
0.285 -0.242 0.064
0.286 -0.239 0.064
0.285 -0.235 0.064
0.283 -0.230 0.063
0.275 -0.219 0.061
0.214 -0.165 0.047
0.211 -0.160 0.046
0.205 -0.153 0.045
0.206 -0.151 0.045
0.206 -0.149 0.045
0.209 -0.148 0.045
0.208 -0.145 0.045
0.212 -0.146 0.046
0.212 -0.143 0.045
0.213 -0.141 0.046
0.214 -0.139 0.046
0.221 -0.141 0.047
0.222 -0.139 0.047
0.217 -0.134 0.046
0.209 -0.127 0.044
0.208 -0.123 0.044
0.206 -0.120 0.043
0.206 -0.118 0.043
0.209 -0.117 0.043
0.209 -0.115 0.043
0.209 -0.113 0.043
0.205 -0.108 0.042
0.205 -0.106 0.042
0.206 -0.105 0.043
0.208 -0.104 0.043
0.207 -0.101 0.043
0.206 -0.098 0.042
0.208 -0.097 0.042
0.204 -0.093 0.042
0.207 -0.092 0.042
0.211 -0.092 0.043
0.200 -0.085 0.041
0.212 -0.088 0.043
0.198 -0.080 0.040
0.213 -0.084 0.043
0.211 -0.081 0.042
0.207 -0.078 0.042
0.224 -0.080 0.045
0.223 -0.077 0.045
0.228 -0.077 0.046
0.225 -0.074 0.045
0.241 -0.077 0.048
0.245 -0.075 0.049
0.247 -0.074 0.049
0.245 -0.071 0.049
0.247 -0.069 0.049
0.359 -0.097 0.071
0.367 -0.096 0.073
0.377 -0.095 0.075
0.377 -0.091 0.075
0.374 -0.087 0.074
0.363 -0.081 0.072
0.361 -0.077 0.071
0.363 -0.075 0.072
0.360 -0.071 0.071
0.344 -0.064 0.068
0.296 -0.050 0.058
0.283 -0.045 0.056
0.282 -0.042 0.055
0.284 -0.040 0.056
0.286 -0.038 0.056
0.285 -0.035 0.056
0.285 -0.032 0.056
0.287 -0.030 0.056
0.290 -0.028 0.057
0.290 -0.025 0.057
0.288 -0.022 0.056
0.291 -0.020 0.057
0.295 -0.017 0.058
0.296 -0.015 0.058
0.294 -0.012 0.058
0.292 -0.009 0.057
0.292 -0.007 0.057
0.291 -0.004 0.057
0.292 -0.001 0.057
0.290 0.001 0.057
0.295 0.004 0.058
0.304 0.007 0.059
0.303 0.010 0.059
0.298 0.012 0.058
0.294 0.015 0.058
0.295 0.017 0.058
0.295 0.020 0.058
0.299 0.023 0.059
0.298 0.026 0.058
0.299 0.028 0.059
0.291 0.030 0.057
0.294 0.033 0.058
0.301 0.037 0.059
0.302 0.040 0.059
0.304 0.043 0.060
0.301 0.045 0.059
0.295 0.047 0.058
0.288 0.049 0.057
0.292 0.052 0.058
0.308 0.058 0.061
0.310 0.061 0.061
0.303 0.062 0.060
0.304 0.065 0.060
0.296 0.066 0.059
0.285 0.067 0.057
0.275 0.067 0.055
0.280 0.071 0.056
0.289 0.076 0.058
0.298 0.081 0.059
0.309 0.087 0.062
0.320 0.093 0.064
0.306 0.092 0.061
0.295 0.092 0.059
0.306 0.098 0.061
0.297 0.098 0.060
0.291 0.099 0.059
0.292 0.102 0.059
0.285 0.102 0.058
0.270 0.100 0.055
0.261 0.099 0.053
0.297 0.119 0.060
0.338 0.142 0.069
0.331 0.142 0.068
0.329 0.145 0.067
0.328 0.147 0.067
0.330 0.152 0.068
0.330 0.156 0.068
0.337 0.162 0.070
0.338 0.166 0.070
0.334 0.168 0.069
0.335 0.172 0.070
0.331 0.174 0.069
0.328 0.176 0.069
0.328 0.179 0.069
0.325 0.181 0.068
0.319 0.182 0.067
0.315 0.183 0.066
0.306 0.181 0.065
0.301 0.182 0.064
0.296 0.182 0.063
0.294 0.184 0.063
0.291 0.186 0.062
0.285 0.185 0.061
0.281 0.186 0.061
0.277 0.187 0.060
0.270 0.185 0.059
0.266 0.186 0.058
0.263 0.187 0.058
0.261 0.189 0.057
0.259 0.191 0.057
0.260 0.195 0.057
0.259 0.198 0.058
0.260 0.202 0.058
0.260 0.205 0.058
0.259 0.208 0.058
0.259 0.211 0.058
0.258 0.214 0.058
0.258 0.219 0.059
0.258 0.222 0.059
0.257 0.225 0.059
0.256 0.228 0.059
0.256 0.232 0.060
0.255 0.235 0.060
0.255 0.239 0.060
0.254 0.242 0.060
0.255 0.247 0.061
0.254 0.250 0.061
0.252 0.252 0.061
0.249 0.254 0.060
0.255 0.264 0.062
0.257 0.271 0.063
0.262 0.280 0.065
0.265 0.288 0.066
0.264 0.292 0.066
0.261 0.293 0.065
0.258 0.295 0.065
0.264 0.307 0.067
0.276 0.326 0.071
0.275 0.330 0.071
0.202 0.259 0.054
0.199 0.258 0.053
0.194 0.256 0.052
0.117 -0.162 0.033
0.108 -0.148 0.030
0.112 -0.151 0.031
0.114 -0.153 0.031
0.116 -0.154 0.032
0.114 -0.149 0.031
0.115 -0.148 0.031
0.116 -0.147 0.031
0.115 -0.143 0.031
0.116 -0.143 0.031
0.120 -0.146 0.032
0.127 -0.153 0.034
0.133 -0.157 0.035
0.140 -0.163 0.037
0.291 -0.318 0.074
0.290 -0.313 0.074
0.290 -0.308 0.073
0.290 -0.303 0.073
0.292 -0.300 0.073
0.292 -0.296 0.073
0.291 -0.290 0.072
0.291 -0.286 0.072
0.293 -0.283 0.072
0.292 -0.278 0.071
0.291 -0.273 0.071
0.291 -0.269 0.070
0.292 -0.265 0.070
0.288 -0.258 0.069
0.289 -0.254 0.069
0.288 -0.249 0.068
0.285 -0.243 0.067
0.285 -0.239 0.067
0.285 -0.236 0.067
0.284 -0.231 0.066
0.272 -0.217 0.063
0.265 -0.208 0.061
0.209 -0.159 0.048
0.206 -0.154 0.047
0.206 -0.152 0.047
0.205 -0.148 0.047
0.206 -0.146 0.047
0.205 -0.143 0.046
0.207 -0.142 0.047
0.212 -0.143 0.047
0.213 -0.141 0.048
0.216 -0.140 0.048
0.218 -0.140 0.049
0.218 -0.137 0.048
0.220 -0.136 0.049
0.213 -0.129 0.047
0.212 -0.126 0.047
0.209 -0.122 0.046
0.206 -0.118 0.045
0.209 -0.117 0.046
0.212 -0.117 0.046
0.208 -0.112 0.045
0.209 -0.111 0.045
0.204 -0.106 0.044
0.207 -0.105 0.045
0.210 -0.104 0.045
0.209 -0.102 0.045
0.208 -0.099 0.045
0.206 -0.096 0.044
0.206 -0.094 0.044
0.206 -0.092 0.044
0.210 -0.091 0.045
0.210 -0.089 0.045
0.211 -0.088 0.045
0.212 -0.086 0.045
0.209 -0.083 0.044
0.214 -0.083 0.045
0.217 -0.082 0.046
0.217 -0.078 0.046
0.222 -0.077 0.047
0.220 -0.074 0.046
0.224 -0.074 0.047
0.231 -0.074 0.048
0.243 -0.075 0.051
0.246 -0.074 0.051
0.247 -0.072 0.051
0.248 -0.070 0.052
0.369 -0.096 0.077
0.370 -0.093 0.077
0.371 -0.090 0.077
0.368 -0.086 0.076
0.359 -0.080 0.074
0.353 -0.076 0.073
0.355 -0.073 0.073
0.358 -0.070 0.074
0.346 -0.065 0.071
0.295 -0.050 0.061
0.282 -0.045 0.058
0.281 -0.042 0.058
0.284 -0.040 0.058
0.285 -0.038 0.059
0.285 -0.035 0.059
0.288 -0.033 0.059
0.285 -0.030 0.059
0.286 -0.027 0.059
0.289 -0.025 0.059
0.289 -0.022 0.059
0.290 -0.020 0.059
0.294 -0.017 0.060
0.296 -0.015 0.061
0.295 -0.012 0.060
0.292 -0.009 0.060
0.291 -0.007 0.060
0.292 -0.004 0.060
0.293 -0.001 0.060
0.294 0.001 0.060
0.295 0.004 0.060
0.300 0.007 0.061
0.302 0.010 0.062
0.301 0.012 0.062
0.296 0.015 0.061
0.292 0.017 0.060
0.290 0.020 0.060
0.293 0.023 0.060
0.296 0.025 0.061
0.292 0.028 0.060
0.287 0.030 0.059
0.290 0.033 0.060
0.296 0.036 0.061
0.302 0.040 0.062
0.298 0.042 0.061
0.296 0.044 0.061
0.299 0.048 0.062
0.282 0.048 0.058
0.284 0.051 0.059
0.313 0.059 0.065
0.308 0.061 0.064
0.303 0.062 0.063
0.304 0.065 0.063
0.296 0.066 0.061
0.282 0.066 0.059
0.274 0.067 0.057
0.284 0.072 0.059
0.292 0.077 0.061
0.300 0.082 0.063
0.310 0.087 0.065
0.316 0.092 0.066
0.314 0.095 0.066
0.309 0.096 0.065
0.306 0.098 0.064
0.291 0.096 0.061
0.289 0.098 0.061
0.294 0.103 0.062
0.294 0.106 0.062
0.280 0.104 0.059
0.275 0.104 0.058
0.312 0.128 0.067
0.323 0.135 0.069
0.326 0.140 0.070
0.325 0.143 0.070
0.324 0.146 0.070
0.323 0.149 0.070
0.318 0.150 0.069
0.313 0.151 0.068
0.318 0.157 0.069
0.319 0.161 0.069
0.320 0.164 0.070
0.323 0.170 0.071
0.321 0.172 0.070
0.322 0.176 0.071
0.319 0.178 0.070
0.316 0.180 0.070
0.313 0.182 0.069
0.311 0.184 0.069
0.307 0.185 0.068
0.296 0.182 0.066
0.293 0.184 0.066
0.289 0.185 0.065
0.284 0.185 0.064
0.281 0.186 0.063
0.275 0.185 0.062
0.269 0.185 0.061
0.266 0.186 0.061
0.263 0.187 0.060
0.261 0.189 0.060
0.260 0.192 0.060
0.260 0.195 0.060
0.260 0.198 0.060
0.260 0.202 0.061
0.259 0.205 0.061
0.258 0.208 0.061
0.259 0.212 0.061
0.258 0.215 0.061
0.258 0.218 0.062
0.257 0.222 0.062
0.257 0.225 0.062
0.257 0.229 0.062
0.255 0.231 0.062
0.255 0.235 0.062
0.254 0.238 0.063
0.254 0.242 0.063
0.254 0.246 0.063
0.253 0.249 0.063
0.247 0.247 0.062
0.244 0.249 0.062
0.244 0.253 0.062
0.253 0.267 0.065
0.253 0.271 0.065
0.260 0.284 0.068
0.264 0.293 0.069
0.201 0.242 0.054
0.200 0.245 0.054
0.194 0.241 0.053
0.194 0.245 0.053
0.196 0.251 0.054
0.193 0.251 0.054
0.183 0.241 0.051
0.112 -0.155 0.033
0.107 -0.147 0.031
0.107 -0.145 0.031
0.113 -0.152 0.033
0.106 -0.140 0.030
0.104 -0.136 0.030
0.108 -0.139 0.031
0.113 -0.144 0.032
0.114 -0.143 0.032
0.111 -0.137 0.031
0.121 -0.147 0.033
0.124 -0.149 0.034
0.122 -0.144 0.033
0.133 -0.155 0.036
0.136 -0.156 0.037
0.135 -0.152 0.036
0.289 -0.307 0.076
0.288 -0.302 0.076
0.290 -0.299 0.076
0.292 -0.296 0.076
0.290 -0.289 0.075
0.290 -0.285 0.075
0.289 -0.280 0.074
0.291 -0.278 0.074
0.289 -0.271 0.073
0.290 -0.268 0.073
0.292 -0.266 0.073
0.291 -0.260 0.073
0.288 -0.254 0.072
0.286 -0.248 0.071
0.286 -0.244 0.071
0.287 -0.241 0.070
0.287 -0.237 0.070
0.285 -0.232 0.070
0.274 -0.219 0.066
0.217 -0.168 0.052
0.213 -0.162 0.051
0.208 -0.156 0.050
0.200 -0.147 0.048
0.200 -0.145 0.048
0.202 -0.144 0.048
0.204 -0.143 0.048
0.206 -0.142 0.048
0.203 -0.137 0.048
0.209 -0.139 0.049
0.213 -0.139 0.050
0.214 -0.137 0.050
0.213 -0.134 0.049
0.213 -0.131 0.049
0.212 -0.129 0.049
0.212 -0.126 0.049
0.205 -0.120 0.047
0.204 -0.117 0.047
0.208 -0.117 0.047
0.211 -0.117 0.048
0.209 -0.113 0.048
0.202 -0.107 0.046
0.201 -0.105 0.046
0.206 -0.105 0.047
0.209 -0.104 0.047
0.210 -0.102 0.047
0.209 -0.100 0.047
0.205 -0.096 0.046
0.204 -0.093 0.045
0.202 -0.090 0.045
0.204 -0.089 0.045
0.206 -0.088 0.046
0.201 -0.084 0.044
0.210 -0.085 0.046
0.203 -0.081 0.045
0.213 -0.082 0.047
0.204 -0.077 0.045
0.209 -0.077 0.046
0.213 -0.076 0.047
0.220 -0.076 0.048
0.224 -0.076 0.049
0.227 -0.074 0.050
0.230 -0.073 0.050
0.237 -0.073 0.052
0.248 -0.074 0.054
0.251 -0.073 0.055
0.266 -0.075 0.058
0.362 -0.095 0.079
0.360 -0.091 0.078
0.360 -0.087 0.078
0.361 -0.084 0.078
0.354 -0.079 0.076
0.347 -0.075 0.075
0.345 -0.071 0.074
0.348 -0.068 0.075
0.342 -0.064 0.074
0.298 -0.050 0.064
0.282 -0.045 0.061
0.280 -0.042 0.060
0.284 -0.040 0.061
0.285 -0.038 0.061
0.285 -0.035 0.061
0.286 -0.033 0.061
0.283 -0.030 0.061
0.283 -0.027 0.061
0.287 -0.025 0.061
0.283 -0.022 0.061
0.286 -0.020 0.061
0.294 -0.017 0.063
0.295 -0.015 0.063
0.292 -0.012 0.063
0.289 -0.009 0.062
0.287 -0.007 0.062
0.289 -0.004 0.062
0.292 -0.001 0.063
0.296 0.001 0.063
0.297 0.004 0.064
0.294 0.007 0.063
0.292 0.009 0.063
0.303 0.012 0.065
0.298 0.015 0.064
0.290 0.017 0.062
0.286 0.019 0.061
0.289 0.022 0.062
0.290 0.025 0.062
0.289 0.028 0.062
0.288 0.030 0.062
0.288 0.033 0.062
0.297 0.036 0.064
0.299 0.039 0.064
0.296 0.042 0.064
0.286 0.043 0.062
0.278 0.044 0.060
0.284 0.048 0.061
0.289 0.052 0.063
0.301 0.056 0.065
0.303 0.060 0.066
0.297 0.061 0.064
0.284 0.061 0.062
0.287 0.064 0.062
0.288 0.067 0.062
0.277 0.068 0.060
0.285 0.072 0.062
0.293 0.077 0.064
0.302 0.082 0.066
0.303 0.085 0.066
0.310 0.090 0.068
0.300 0.090 0.066
0.309 0.096 0.068
0.300 0.096 0.066
0.297 0.098 0.065
0.290 0.099 0.064
0.293 0.103 0.065
0.295 0.106 0.065
0.288 0.107 0.064
0.286 0.108 0.063
0.287 0.112 0.064
0.319 0.137 0.071
0.321 0.142 0.072
0.323 0.146 0.072
0.322 0.149 0.073
0.315 0.149 0.071
0.306 0.148 0.069
0.305 0.151 0.069
0.309 0.156 0.070
0.310 0.160 0.071
0.313 0.164 0.071
0.316 0.169 0.072
0.313 0.171 0.072
0.312 0.174 0.072
0.311 0.177 0.072
0.308 0.179 0.071
0.300 0.178 0.069
0.296 0.179 0.069
0.295 0.182 0.069
0.292 0.183 0.068
0.288 0.184 0.067
0.284 0.185 0.067
0.279 0.185 0.066
0.273 0.185 0.065
0.269 0.185 0.064
0.265 0.186 0.063
0.262 0.187 0.063
0.260 0.189 0.063
0.261 0.193 0.063
0.261 0.196 0.063
0.260 0.199 0.063
0.259 0.202 0.063
0.259 0.205 0.063
0.259 0.208 0.064
0.259 0.212 0.064
0.258 0.215 0.064
0.256 0.217 0.064
0.256 0.221 0.064
0.256 0.225 0.065
0.255 0.228 0.065
0.254 0.231 0.065
0.252 0.232 0.064
0.254 0.238 0.065
0.257 0.245 0.066
0.253 0.245 0.066
0.245 0.242 0.064
0.242 0.243 0.064
0.239 0.244 0.063
0.233 0.242 0.062
0.204 0.230 0.056
0.206 0.236 0.057
0.202 0.235 0.056
0.195 0.231 0.055
0.193 0.232 0.054
0.195 0.239 0.055
0.193 0.239 0.055
0.191 0.242 0.055
0.193 0.247 0.056
0.201 0.261 0.059
0.225 0.298 0.066
0.099 -0.138 0.030
0.099 -0.137 0.030
0.100 -0.136 0.030
0.100 -0.135 0.030
0.100 -0.132 0.030
0.100 -0.131 0.030
0.101 -0.130 0.030
0.101 -0.128 0.030
0.101 -0.127 0.030
0.101 -0.125 0.029
0.101 -0.123 0.029
0.101 -0.122 0.029
0.102 -0.121 0.029
0.127 -0.146 0.036
0.126 -0.143 0.036
0.126 -0.140 0.035
0.125 -0.138 0.035
0.279 -0.288 0.076
0.284 -0.288 0.077
0.284 -0.284 0.076
0.285 -0.281 0.077
0.286 -0.277 0.076
0.283 -0.270 0.075
0.287 -0.270 0.076
0.289 -0.267 0.076
0.290 -0.264 0.076
0.290 -0.260 0.076
0.288 -0.254 0.075
0.288 -0.250 0.074
0.287 -0.245 0.074
0.287 -0.241 0.074
0.286 -0.237 0.073
0.286 -0.232 0.073
0.281 -0.225 0.071
0.220 -0.170 0.055
0.210 -0.160 0.053
0.200 -0.150 0.050
0.198 -0.146 0.049
0.199 -0.144 0.049
0.201 -0.143 0.050
0.204 -0.143 0.050
0.208 -0.143 0.051
0.204 -0.138 0.050
0.205 -0.136 0.050
0.206 -0.135 0.050
0.210 -0.134 0.051
0.210 -0.132 0.051
0.209 -0.129 0.050
0.207 -0.125 0.050
0.204 -0.122 0.049
0.203 -0.119 0.049
0.204 -0.117 0.049
0.205 -0.115 0.049
0.208 -0.115 0.049
0.211 -0.114 0.050
0.211 -0.112 0.050
0.178 -0.090 0.042
0.173 -0.086 0.041
0.174 -0.085 0.041
0.172 -0.082 0.040
0.173 -0.081 0.040
0.175 -0.080 0.041
0.176 -0.078 0.041
0.176 -0.077 0.041
0.177 -0.076 0.041
0.178 -0.074 0.041
0.180 -0.073 0.042
0.183 -0.073 0.042
0.187 -0.073 0.043
0.211 -0.080 0.048
0.211 -0.078 0.048
0.218 -0.078 0.050
0.217 -0.076 0.050
0.224 -0.076 0.051
0.226 -0.074 0.052
0.229 -0.073 0.052
0.238 -0.074 0.054
0.244 -0.073 0.055
0.253 -0.073 0.057
0.259 -0.073 0.059
0.336 -0.088 0.076
0.343 -0.086 0.078
0.340 -0.083 0.077
0.348 -0.081 0.079
0.342 -0.077 0.077
0.338 -0.073 0.076
0.338 -0.069 0.076
0.333 -0.065 0.075
0.329 -0.062 0.074
0.317 -0.056 0.071
0.298 -0.050 0.067
0.289 -0.046 0.065
0.284 -0.043 0.064
0.282 -0.040 0.063
0.284 -0.037 0.064
0.285 -0.035 0.064
0.283 -0.032 0.063
0.282 -0.029 0.063
0.282 -0.027 0.063
0.280 -0.024 0.063
0.279 -0.022 0.062
0.281 -0.019 0.063
0.288 -0.017 0.064
0.290 -0.015 0.065
0.287 -0.012 0.064
0.286 -0.009 0.064
0.286 -0.007 0.064
0.286 -0.004 0.064
0.286 -0.001 0.064
0.292 0.001 0.065
0.295 0.004 0.066
0.292 0.007 0.065
0.289 0.009 0.065
0.287 0.012 0.064
0.299 0.015 0.067
0.286 0.017 0.064
0.288 0.020 0.065
0.291 0.022 0.065
0.294 0.025 0.066
0.295 0.028 0.066
0.289 0.030 0.065
0.287 0.033 0.064
0.297 0.037 0.067
0.301 0.040 0.067
0.295 0.042 0.066
0.282 0.042 0.063
0.281 0.045 0.063
0.286 0.048 0.064
0.301 0.054 0.068
0.299 0.056 0.067
0.293 0.058 0.066
0.277 0.057 0.063
0.274 0.059 0.062
0.282 0.066 0.064
0.271 0.066 0.061
0.271 0.069 0.061
0.290 0.076 0.066
0.297 0.081 0.068
0.300 0.085 0.068
0.296 0.086 0.068
0.305 0.092 0.070
0.293 0.091 0.067
0.293 0.094 0.067
0.295 0.097 0.068
0.299 0.102 0.069
0.296 0.104 0.068
0.295 0.106 0.068
0.294 0.109 0.068
0.296 0.113 0.068
0.300 0.117 0.070
0.299 0.120 0.069
0.314 0.138 0.073
0.316 0.143 0.074
