VERSION .7
FIELDS x y z
SIZE 4 4 4
TYPE F F F
COUNT 1 1 1
WIDTH     2538
HEIGHT 1
VIEWPOINT 0 0 0 1 0 0 0
POINTS     2538
DATA ascii
0.213 -0.109 -0.007
0.211 -0.106 -0.007
0.212 -0.105 -0.007
0.208 -0.100 -0.006
0.208 -0.098 -0.007
0.221 -0.102 -0.007
0.225 -0.102 -0.007
0.224 -0.099 -0.007
0.227 -0.098 -0.007
0.227 -0.096 -0.007
0.228 -0.094 -0.007
0.221 -0.089 -0.007
0.217 -0.085 -0.007
0.222 -0.085 -0.007
0.233 -0.085 -0.007
0.241 -0.085 -0.007
0.244 -0.084 -0.008
0.238 -0.080 -0.007
0.239 -0.078 -0.007
0.247 -0.078 -0.008
0.257 -0.079 -0.008
0.270 -0.080 -0.008
0.275 -0.079 -0.008
0.385 -0.107 -0.012
0.392 -0.105 -0.012
0.402 -0.104 -0.012
0.423 -0.106 -0.013
0.426 -0.102 -0.013
0.428 -0.099 -0.013
0.429 -0.095 -0.013
0.415 -0.088 -0.013
0.397 -0.081 -0.012
0.389 -0.076 -0.012
0.378 -0.070 -0.012
0.292 -0.051 -0.009
0.288 -0.048 -0.009
0.287 -0.045 -0.009
0.290 -0.043 -0.009
0.288 -0.040 -0.009
0.289 -0.038 -0.009
0.292 -0.035 -0.009
0.281 -0.032 -0.009
0.284 -0.029 -0.009
0.296 -0.028 -0.009
0.320 -0.027 -0.010
0.327 -0.025 -0.010
0.317 -0.021 -0.010
0.308 -0.018 -0.009
0.311 -0.015 -0.009
0.305 -0.012 -0.009
0.309 -0.010 -0.009
0.312 -0.007 -0.009
0.301 -0.004 -0.009
0.303 -0.001 -0.009
0.304 0.001 -0.009
0.306 0.004 -0.009
0.308 0.007 -0.009
0.310 0.010 -0.009
0.310 0.012 -0.009
0.315 0.015 -0.010
0.315 0.018 -0.010
0.315 0.021 -0.010
0.316 0.024 -0.010
0.316 0.027 -0.010
0.318 0.030 -0.010
0.319 0.033 -0.010
0.319 0.036 -0.010
0.319 0.039 -0.010
0.320 0.042 -0.010
0.320 0.045 -0.010
0.319 0.047 -0.010
0.320 0.050 -0.010
0.320 0.053 -0.010
0.319 0.056 -0.010
0.318 0.059 -0.010
0.318 0.062 -0.010
0.318 0.065 -0.010
0.317 0.068 -0.010
0.316 0.070 -0.010
0.316 0.073 -0.010
0.315 0.076 -0.010
0.314 0.079 -0.010
0.314 0.081 -0.010
0.324 0.087 -0.010
0.316 0.088 -0.010
0.318 0.092 -0.010
0.325 0.097 -0.010
0.316 0.097 -0.010
0.308 0.097 -0.009
0.304 0.099 -0.009
0.321 0.108 -0.010
0.331 0.118 -0.010
0.334 0.122 -0.010
0.335 0.126 -0.010
0.343 0.132 -0.011
0.350 0.138 -0.011
0.342 0.139 -0.011
0.340 0.141 -0.011
0.345 0.147 -0.011
0.362 0.157 -0.011
0.366 0.163 -0.011
0.346 0.172 -0.011
0.349 0.177 -0.011
0.324 0.168 -0.010
0.316 0.178 -0.010
0.327 0.188 -0.010
0.333 0.195 -0.011
0.327 0.195 -0.010
0.325 0.198 -0.010
0.324 0.200 -0.010
0.320 0.202 -0.010
0.317 0.204 -0.010
0.315 0.206 -0.010
0.314 0.209 -0.010
0.311 0.211 -0.010
0.309 0.214 -0.010
0.309 0.217 -0.010
0.310 0.222 -0.010
1.304 1.088 -0.044
1.318 1.137 -0.044
1.342 1.197 -0.045
1.325 1.221 -0.045
1.357 1.315 -0.047
1.342 1.343 -0.047
1.349 1.373 -0.047
0.501 0.563 -0.018
0.502 0.574 -0.018
0.504 0.585 -0.018
0.510 0.602 -0.018
0.506 0.607 -0.018
0.452 0.587 -0.017
0.182 -0.250 -0.004
0.172 -0.233 -0.004
0.170 -0.227 -0.004
0.170 -0.225 -0.004
0.171 -0.223 -0.004
0.178 -0.229 -0.004
0.182 -0.231 -0.004
0.194 -0.242 -0.005
0.201 -0.247 -0.005
0.197 -0.240 -0.005
0.194 -0.232 -0.005
0.194 -0.228 -0.005
0.195 -0.226 -0.005
0.197 -0.225 -0.005
0.198 -0.223 -0.005
0.201 -0.223 -0.005
0.203 -0.222 -0.005
0.205 -0.221 -0.005
0.208 -0.221 -0.005
0.211 -0.221 -0.005
0.213 -0.220 -0.005
0.214 -0.217 -0.005
0.216 -0.215 -0.005
0.220 -0.216 -0.005
0.221 -0.214 -0.005
0.224 -0.213 -0.005
0.226 -0.212 -0.005
0.228 -0.211 -0.005
0.231 -0.210 -0.005
0.235 -0.210 -0.005
0.237 -0.209 -0.005
0.239 -0.208 -0.005
0.242 -0.207 -0.006
0.245 -0.206 -0.006
0.247 -0.205 -0.006
0.247 -0.201 -0.006
0.247 -0.198 -0.006
0.235 -0.186 -0.005
0.226 -0.175 -0.005
0.218 -0.166 -0.005
0.209 -0.157 -0.005
0.205 -0.151 -0.005
0.211 -0.153 -0.005
0.216 -0.155 -0.005
0.217 -0.152 -0.005
0.207 -0.143 -0.005
0.205 -0.139 -0.005
0.207 -0.138 -0.005
0.212 -0.139 -0.005
0.219 -0.141 -0.005
0.212 -0.134 -0.005
0.211 -0.131 -0.005
0.215 -0.131 -0.005
0.220 -0.132 -0.005
0.217 -0.128 -0.005
0.215 -0.124 -0.005
0.217 -0.123 -0.005
0.218 -0.121 -0.005
0.207 -0.113 -0.005
0.203 -0.108 -0.004
0.204 -0.107 -0.004
0.212 -0.109 -0.005
0.211 -0.106 -0.005
0.213 -0.105 -0.005
0.209 -0.101 -0.005
0.215 -0.102 -0.005
0.221 -0.102 -0.005
0.220 -0.100 -0.005
0.224 -0.099 -0.005
0.227 -0.098 -0.005
0.228 -0.096 -0.005
0.225 -0.093 -0.005
0.219 -0.088 -0.005
0.215 -0.084 -0.005
0.215 -0.082 -0.005
0.205 -0.076 -0.004
0.233 -0.085 -0.005
0.244 -0.086 -0.005
0.247 -0.085 -0.005
0.256 -0.086 -0.006
0.271 -0.088 -0.006
0.271 -0.086 -0.006
0.274 -0.084 -0.006
0.281 -0.083 -0.006
0.298 -0.085 -0.006
0.385 -0.107 -0.008
0.398 -0.107 -0.009
0.406 -0.105 -0.009
0.420 -0.105 -0.009
0.427 -0.103 -0.009
0.433 -0.100 -0.009
0.423 -0.094 -0.009
0.404 -0.086 -0.009
0.396 -0.081 -0.008
0.392 -0.076 -0.008
0.295 -0.052 -0.006
0.287 -0.048 -0.006
0.286 -0.045 -0.006
0.293 -0.044 -0.006
0.289 -0.040 -0.006
0.288 -0.038 -0.006
0.289 -0.035 -0.006
0.284 -0.032 -0.006
0.283 -0.029 -0.006
0.291 -0.028 -0.006
0.306 -0.026 -0.007
0.320 -0.025 -0.007
0.314 -0.021 -0.007
0.312 -0.018 -0.007
0.311 -0.015 -0.007
0.306 -0.012 -0.007
0.306 -0.010 -0.007
0.312 -0.007 -0.007
0.315 -0.004 -0.007
0.301 -0.001 -0.006
0.303 0.001 -0.006
0.305 0.004 -0.007
0.307 0.007 -0.007
0.308 0.010 -0.007
0.309 0.012 -0.007
0.309 0.015 -0.007
0.312 0.018 -0.007
0.314 0.021 -0.007
0.315 0.024 -0.007
0.316 0.027 -0.007
0.317 0.030 -0.007
0.320 0.033 -0.007
0.318 0.036 -0.007
0.318 0.039 -0.007
0.319 0.042 -0.007
0.319 0.045 -0.007
0.318 0.047 -0.007
0.319 0.050 -0.007
0.319 0.053 -0.007
0.318 0.056 -0.007
0.317 0.059 -0.007
0.316 0.062 -0.007
0.316 0.064 -0.007
0.316 0.067 -0.007
0.315 0.070 -0.007
0.314 0.073 -0.007
0.314 0.076 -0.007
0.313 0.078 -0.007
0.322 0.084 -0.007
0.318 0.086 -0.007
0.318 0.089 -0.007
0.322 0.093 -0.007
0.327 0.097 -0.007
0.326 0.100 -0.007
0.307 0.097 -0.007
0.306 0.100 -0.007
0.318 0.107 -0.007
0.329 0.114 -0.007
0.344 0.122 -0.007
0.331 0.121 -0.007
0.336 0.126 -0.007
0.339 0.131 -0.007
0.335 0.132 -0.007
0.326 0.132 -0.007
0.334 0.138 -0.007
0.350 0.149 -0.008
0.361 0.161 -0.008
0.337 0.154 -0.007
0.329 0.157 -0.007
0.319 0.155 -0.007
0.328 0.170 -0.007
0.311 0.168 -0.007
0.329 0.185 -0.007
0.323 0.185 -0.007
0.331 0.194 -0.007
0.328 0.195 -0.007
0.325 0.197 -0.007
0.323 0.200 -0.007
0.321 0.203 -0.007
0.317 0.204 -0.007
0.316 0.207 -0.007
0.314 0.209 -0.007
0.311 0.211 -0.007
0.310 0.214 -0.007
0.309 0.217 -0.007
0.303 0.217 -0.007
1.310 1.056 -0.030
1.310 1.074 -0.030
1.308 1.091 -0.030
1.329 1.127 -0.031
1.316 1.135 -0.031
1.320 1.157 -0.031
1.312 1.170 -0.031
1.319 1.257 -0.031
1.335 1.293 -0.032
1.344 1.324 -0.032
1.336 1.338 -0.032
1.346 1.370 -0.032
1.356 1.404 -0.032
0.499 0.534 -0.012
0.496 0.539 -0.012
0.504 0.585 -0.012
0.510 0.602 -0.012
0.505 0.605 -0.012
0.498 0.608 -0.012
0.437 0.541 -0.011
0.433 0.545 -0.011
0.174 -0.239 -0.002
0.173 -0.235 -0.002
0.171 -0.229 -0.002
0.172 -0.228 -0.002
0.175 -0.228 -0.002
0.180 -0.231 -0.002
0.191 -0.243 -0.002
0.195 -0.244 -0.002
0.195 -0.241 -0.002
0.191 -0.232 -0.002
0.192 -0.230 -0.002
0.194 -0.228 -0.002
0.196 -0.227 -0.002
0.197 -0.226 -0.002
0.199 -0.224 -0.003
0.201 -0.223 -0.003
0.204 -0.223 -0.003
0.205 -0.221 -0.003
0.209 -0.221 -0.003
0.212 -0.221 -0.003
0.212 -0.218 -0.003
0.214 -0.217 -0.003
0.217 -0.216 -0.003
0.219 -0.215 -0.003
0.222 -0.215 -0.003
0.224 -0.214 -0.003
0.226 -0.212 -0.003
0.228 -0.210 -0.003
0.231 -0.210 -0.003
0.234 -0.210 -0.003
0.237 -0.209 -0.003
0.240 -0.208 -0.003
0.243 -0.207 -0.003
0.246 -0.206 -0.003
0.248 -0.205 -0.003
0.250 -0.203 -0.003
0.247 -0.198 -0.003
0.243 -0.192 -0.003
0.231 -0.179 -0.003
0.225 -0.172 -0.003
0.216 -0.162 -0.003
0.215 -0.159 -0.003
0.216 -0.157 -0.003
0.221 -0.158 -0.003
0.220 -0.155 -0.003
0.211 -0.146 -0.003
0.210 -0.143 -0.003
0.204 -0.136 -0.003
0.222 -0.146 -0.003
0.224 -0.144 -0.003
0.216 -0.137 -0.003
0.214 -0.133 -0.003
0.219 -0.134 -0.003
0.223 -0.134 -0.003
0.220 -0.129 -0.003
0.217 -0.125 -0.003
0.219 -0.124 -0.003
0.217 -0.121 -0.003
0.214 -0.117 -0.003
0.203 -0.108 -0.003
0.203 -0.106 -0.003
0.208 -0.107 -0.003
0.215 -0.108 -0.003
0.201 -0.099 -0.003
0.206 -0.099 -0.003
0.207 -0.098 -0.003
0.210 -0.097 -0.003
0.219 -0.099 -0.003
0.224 -0.099 -0.003
0.225 -0.097 -0.003
0.227 -0.096 -0.003
0.224 -0.092 -0.003
0.221 -0.089 -0.003
0.214 -0.084 -0.003
0.213 -0.082 -0.003
0.212 -0.079 -0.003
0.234 -0.085 -0.003
0.237 -0.084 -0.003
0.244 -0.084 -0.003
0.246 -0.082 -0.003
0.257 -0.083 -0.003
0.269 -0.085 -0.003
0.274 -0.084 -0.003
0.282 -0.084 -0.004
0.295 -0.085 -0.004
0.402 -0.108 -0.005
0.409 -0.106 -0.005
0.417 -0.104 -0.005
0.424 -0.102 -0.005
0.423 -0.098 -0.005
0.416 -0.092 -0.005
0.404 -0.086 -0.005
0.395 -0.080 -0.005
0.394 -0.077 -0.005
0.390 -0.072 -0.005
0.299 -0.053 -0.004
0.293 -0.049 -0.004
0.284 -0.045 -0.004
0.286 -0.043 -0.004
0.289 -0.040 -0.004
0.290 -0.038 -0.004
0.291 -0.035 -0.004
0.285 -0.032 -0.004
0.285 -0.029 -0.004
0.291 -0.028 -0.004
0.297 -0.025 -0.004
0.304 -0.023 -0.004
0.316 -0.021 -0.004
0.315 -0.018 -0.004
0.307 -0.015 -0.004
0.303 -0.012 -0.004
0.306 -0.010 -0.004
0.309 -0.007 -0.004
0.313 -0.004 -0.004
0.313 -0.001 -0.004
0.301 0.001 -0.004
0.302 0.004 -0.004
0.306 0.007 -0.004
0.306 0.010 -0.004
0.308 0.012 -0.004
0.310 0.015 -0.004
0.310 0.018 -0.004
0.313 0.021 -0.004
0.314 0.024 -0.004
0.315 0.027 -0.004
0.316 0.030 -0.004
0.317 0.033 -0.004
0.318 0.036 -0.004
0.316 0.038 -0.004
0.316 0.041 -0.004
0.318 0.044 -0.004
0.317 0.047 -0.004
0.318 0.050 -0.004
0.315 0.053 -0.004
0.316 0.056 -0.004
0.316 0.059 -0.004
0.316 0.061 -0.004
0.315 0.064 -0.004
0.315 0.067 -0.004
0.314 0.070 -0.004
0.315 0.073 -0.004
0.313 0.075 -0.004
0.314 0.079 -0.004
0.318 0.083 -0.004
0.317 0.085 -0.004
0.319 0.089 -0.004
0.323 0.093 -0.004
0.336 0.100 -0.004
0.326 0.100 -0.004
0.322 0.102 -0.004
0.315 0.103 -0.004
0.317 0.106 -0.004
0.326 0.113 -0.004
0.332 0.118 -0.004
0.337 0.123 -0.004
0.338 0.127 -0.004
0.327 0.126 -0.004
0.317 0.125 -0.004
0.320 0.129 -0.004
0.347 0.144 -0.004
0.361 0.154 -0.005
0.368 0.160 -0.005
0.361 0.161 -0.005
0.334 0.156 -0.004
0.333 0.166 -0.004
0.339 0.172 -0.004
0.333 0.173 -0.004
0.325 0.172 -0.004
0.325 0.176 -0.004
0.340 0.191 -0.004
0.338 0.194 -0.004
0.331 0.193 -0.004
0.328 0.196 -0.004
0.325 0.198 -0.004
0.323 0.200 -0.004
0.321 0.202 -0.004
0.319 0.205 -0.004
0.316 0.207 -0.004
0.315 0.210 -0.004
0.308 0.209 -0.004
0.311 0.215 -0.004
0.310 0.218 -0.004
1.330 1.002 -0.017
1.303 0.998 -0.017
1.294 1.009 -0.017
1.304 1.034 -0.017
1.311 1.057 -0.017
1.314 1.077 -0.017
1.322 1.102 -0.017
1.322 1.121 -0.017
1.315 1.134 -0.017
1.298 1.138 -0.017
1.317 1.174 -0.017
1.326 1.263 -0.017
1.334 1.292 -0.017
1.359 1.384 -0.017
0.444 0.490 -0.006
0.430 0.484 -0.006
0.500 0.580 -0.006
0.502 0.593 -0.006
0.505 0.605 -0.006
0.183 -0.251 -0.000
0.167 -0.227 -0.000
0.172 -0.230 -0.000
0.177 -0.234 -0.000
0.182 -0.237 -0.000
0.189 -0.243 -0.000
0.192 -0.244 -0.000
0.195 -0.243 -0.000
0.187 -0.231 -0.000
0.189 -0.230 -0.000
0.191 -0.229 -0.000
0.193 -0.228 -0.000
0.196 -0.228 -0.000
0.198 -0.226 -0.000
0.199 -0.225 -0.000
0.202 -0.224 -0.000
0.203 -0.222 -0.000
0.205 -0.221 -0.000
0.207 -0.219 -0.000
0.210 -0.219 -0.000
0.212 -0.219 -0.000
0.214 -0.217 -0.000
0.217 -0.216 -0.000
0.219 -0.216 -0.000
0.222 -0.215 -0.000
0.226 -0.215 -0.000
0.227 -0.213 -0.000
0.229 -0.211 -0.001
0.232 -0.211 -0.001
0.235 -0.210 -0.001
0.237 -0.209 -0.001
0.240 -0.209 -0.001
0.244 -0.208 -0.001
0.246 -0.207 -0.001
0.249 -0.206 -0.001
0.250 -0.203 -0.001
0.247 -0.198 -0.001
0.233 -0.184 -0.001
0.223 -0.173 -0.001
0.222 -0.169 -0.001
0.221 -0.166 -0.001
0.212 -0.157 -0.001
0.216 -0.157 -0.001
0.217 -0.155 -0.001
0.215 -0.151 -0.001
0.213 -0.147 -0.001
0.205 -0.139 -0.001
0.202 -0.135 -0.001
0.219 -0.144 -0.001
0.224 -0.145 -0.001
0.218 -0.138 -0.001
0.215 -0.134 -0.001
0.216 -0.132 -0.001
0.221 -0.132 -0.001
0.223 -0.131 -0.001
0.223 -0.129 -0.001
0.221 -0.125 -0.001
0.220 -0.122 -0.001
0.215 -0.117 -0.001
0.213 -0.114 -0.001
0.212 -0.111 -0.001
0.212 -0.109 -0.001
0.213 -0.107 -0.001
0.213 -0.105 -0.001
0.204 -0.099 -0.001
0.212 -0.100 -0.001
0.215 -0.099 -0.001
0.219 -0.099 -0.001
0.222 -0.098 -0.001
0.224 -0.097 -0.001
0.224 -0.095 -0.001
0.227 -0.094 -0.001
0.221 -0.089 -0.001
0.229 -0.090 -0.001
0.225 -0.086 -0.001
0.227 -0.085 -0.001
0.233 -0.085 -0.001
0.236 -0.084 -0.001
0.235 -0.081 -0.001
0.242 -0.081 -0.001
0.246 -0.080 -0.001
0.253 -0.080 -0.001
0.260 -0.080 -0.001
0.272 -0.081 -0.001
0.276 -0.079 -0.001
0.399 -0.107 -0.001
0.407 -0.105 -0.001
0.415 -0.104 -0.001
0.420 -0.101 -0.001
0.424 -0.098 -0.001
0.430 -0.095 -0.001
0.407 -0.087 -0.001
0.392 -0.080 -0.001
0.388 -0.075 -0.001
0.374 -0.069 -0.001
0.301 -0.053 -0.001
0.287 -0.048 -0.001
0.288 -0.045 -0.001
0.287 -0.043 -0.001
0.286 -0.040 -0.001
0.291 -0.038 -0.001
0.297 -0.036 -0.001
0.298 -0.034 -0.001
0.285 -0.030 -0.001
0.288 -0.027 -0.001
0.295 -0.025 -0.001
0.306 -0.023 -0.001
0.324 -0.022 -0.001
0.328 -0.019 -0.001
0.306 -0.015 -0.001
0.309 -0.013 -0.001
0.310 -0.010 -0.001
0.306 -0.007 -0.001
0.310 -0.004 -0.001
0.313 -0.001 -0.001
0.312 0.001 -0.001
0.300 0.004 -0.001
0.302 0.007 -0.001
0.304 0.009 -0.001
0.306 0.012 -0.001
0.307 0.015 -0.001
0.311 0.018 -0.001
0.312 0.021 -0.001
0.313 0.024 -0.001
0.313 0.027 -0.001
0.315 0.030 -0.001
0.316 0.033 -0.001
0.314 0.035 -0.001
0.314 0.038 -0.001
0.315 0.041 -0.001
0.315 0.044 -0.001
0.317 0.047 -0.001
0.315 0.050 -0.001
0.315 0.053 -0.001
0.314 0.055 -0.001
0.315 0.058 -0.001
0.315 0.061 -0.001
0.314 0.064 -0.001
0.313 0.067 -0.001
0.316 0.070 -0.001
0.312 0.072 -0.001
0.313 0.075 -0.001
0.326 0.082 -0.001
0.321 0.083 -0.001
0.318 0.086 -0.001
0.322 0.090 -0.001
0.321 0.092 -0.001
0.320 0.095 -0.001
0.320 0.098 -0.001
0.319 0.101 -0.001
0.323 0.105 -0.001
0.327 0.110 -0.001
0.325 0.112 -0.001
0.332 0.118 -0.001
0.332 0.121 -0.001
0.336 0.126 -0.001
0.322 0.124 -0.001
0.317 0.125 -0.001
0.329 0.133 -0.001
0.372 0.162 -0.001
0.346 0.154 -0.001
0.326 0.152 -0.001
0.339 0.169 -0.001
0.330 0.175 -0.001
0.329 0.178 -0.001
0.340 0.191 -0.001
0.336 0.193 -0.001
0.330 0.193 -0.001
0.328 0.195 -0.001
0.326 0.198 -0.001
0.323 0.200 -0.001
0.321 0.202 -0.001
0.319 0.205 -0.001
0.317 0.207 -0.001
0.314 0.209 -0.001
0.313 0.212 -0.001
0.311 0.215 -0.001
0.310 0.217 -0.001
0.286 0.204 -0.001
1.337 1.007 -0.004
1.301 0.997 -0.003
1.295 1.009 -0.003
1.307 1.036 -0.003
1.310 1.056 -0.003
1.313 1.076 -0.003
1.320 1.101 -0.003
1.315 1.115 -0.003
1.301 1.122 -0.003
1.295 1.135 -0.003
1.328 1.244 -0.003
1.325 1.262 -0.003
1.326 1.284 -0.003
1.334 1.314 -0.003
0.502 0.583 -0.001
0.500 0.591 -0.001
0.356 0.441 -0.000
0.352 0.443 -0.000
0.354 0.453 -0.000
0.351 0.457 -0.000
0.166 -0.228 0.002
0.170 -0.231 0.002
0.174 -0.233 0.002
0.182 -0.240 0.002
0.187 -0.244 0.002
0.190 -0.245 0.002
0.192 -0.244 0.002
0.185 -0.231 0.002
0.187 -0.230 0.002
0.189 -0.229 0.002
0.191 -0.228 0.002
0.193 -0.227 0.002
0.195 -0.227 0.002
0.197 -0.226 0.002
0.199 -0.225 0.002
0.201 -0.223 0.002
0.203 -0.222 0.002
0.204 -0.220 0.002
0.207 -0.219 0.002
0.210 -0.219 0.002
0.211 -0.218 0.002
0.214 -0.217 0.002
0.216 -0.216 0.002
0.220 -0.216 0.002
0.223 -0.216 0.002
0.225 -0.214 0.002
0.227 -0.213 0.002
0.229 -0.212 0.002
0.232 -0.211 0.002
0.236 -0.211 0.002
0.239 -0.210 0.002
0.242 -0.210 0.002
0.243 -0.208 0.002
0.247 -0.208 0.002
0.249 -0.206 0.002
0.251 -0.204 0.002
0.247 -0.198 0.002
0.230 -0.181 0.002
0.219 -0.170 0.002
0.216 -0.165 0.002
0.218 -0.164 0.002
0.218 -0.161 0.002
0.212 -0.154 0.002
0.213 -0.152 0.002
0.215 -0.151 0.002
0.210 -0.145 0.001
0.204 -0.139 0.001
0.205 -0.137 0.001
0.202 -0.132 0.001
0.210 -0.135 0.001
0.212 -0.134 0.001
0.211 -0.131 0.001
0.212 -0.129 0.001
0.218 -0.131 0.001
0.221 -0.130 0.001
0.223 -0.129 0.001
0.223 -0.127 0.001
0.223 -0.124 0.001
0.218 -0.119 0.001
0.210 -0.112 0.001
0.204 -0.107 0.001
0.209 -0.108 0.001
0.211 -0.106 0.001
0.211 -0.104 0.001
0.207 -0.100 0.001
0.214 -0.101 0.001
0.217 -0.100 0.001
0.218 -0.099 0.001
0.221 -0.098 0.001
0.224 -0.097 0.001
0.226 -0.096 0.001
0.226 -0.093 0.001
0.230 -0.092 0.001
0.225 -0.088 0.001
0.217 -0.083 0.001
0.202 -0.075 0.001
0.231 -0.084 0.001
0.238 -0.084 0.001
0.243 -0.083 0.001
0.247 -0.083 0.001
0.247 -0.080 0.001
0.251 -0.079 0.001
0.259 -0.079 0.002
0.266 -0.079 0.002
0.274 -0.079 0.002
0.395 -0.106 0.002
0.404 -0.104 0.002
0.414 -0.103 0.002
0.421 -0.101 0.002
0.432 -0.100 0.002
0.427 -0.095 0.002
0.404 -0.086 0.002
0.390 -0.079 0.002
0.384 -0.075 0.002
0.298 -0.053 0.002
0.289 -0.048 0.002
0.287 -0.045 0.002
0.285 -0.042 0.002
0.287 -0.040 0.002
0.293 -0.038 0.002
0.300 -0.037 0.002
0.303 -0.034 0.002
0.287 -0.030 0.002
0.286 -0.027 0.002
0.292 -0.025 0.002
0.302 -0.023 0.002
0.326 -0.022 0.002
0.329 -0.019 0.002
0.322 -0.016 0.002
0.305 -0.012 0.002
0.312 -0.010 0.002
0.310 -0.007 0.002
0.303 -0.004 0.002
0.309 -0.001 0.002
0.312 0.001 0.002
0.310 0.004 0.002
0.301 0.007 0.002
0.302 0.009 0.002
0.305 0.012 0.002
0.306 0.015 0.002
0.307 0.018 0.002
0.311 0.021 0.002
0.312 0.024 0.002
0.312 0.027 0.002
0.312 0.029 0.002
0.313 0.032 0.002
0.312 0.035 0.002
0.313 0.038 0.002
0.313 0.041 0.002
0.315 0.044 0.002
0.315 0.047 0.002
0.314 0.050 0.002
0.314 0.052 0.002
0.314 0.055 0.002
0.314 0.058 0.002
0.313 0.061 0.002
0.312 0.064 0.002
0.313 0.067 0.002
0.312 0.069 0.002
0.314 0.073 0.002
0.331 0.080 0.002
0.328 0.082 0.002
0.327 0.085 0.002
0.328 0.088 0.002
0.327 0.091 0.002
0.325 0.094 0.002
0.322 0.096 0.002
0.315 0.097 0.002
0.311 0.098 0.002
0.327 0.107 0.002
0.340 0.114 0.002
0.341 0.118 0.002
0.334 0.119 0.002
0.332 0.121 0.002
0.333 0.125 0.002
0.326 0.126 0.002
0.323 0.127 0.002
0.338 0.137 0.002
0.361 0.150 0.002
0.373 0.159 0.002
0.346 0.154 0.002
0.322 0.147 0.002
0.307 0.143 0.002
0.343 0.174 0.002
0.350 0.181 0.002
0.347 0.184 0.002
0.327 0.181 0.002
0.335 0.189 0.002
0.334 0.192 0.002
0.328 0.192 0.002
0.328 0.195 0.002
0.325 0.197 0.002
0.323 0.200 0.002
0.321 0.202 0.002
0.319 0.205 0.002
0.316 0.207 0.002
0.314 0.209 0.002
0.312 0.212 0.002
0.310 0.214 0.002
0.309 0.217 0.002
0.298 0.213 0.002
1.355 1.021 0.010
1.324 1.015 0.010
1.304 1.017 0.010
1.306 1.036 0.010
1.315 1.061 0.010
1.314 1.077 0.010
1.312 1.094 0.010
1.315 1.115 0.010
1.294 1.116 0.010
1.297 1.138 0.010
1.322 1.179 0.011
1.334 1.251 0.011
0.361 0.433 0.004
0.360 0.439 0.004
0.358 0.444 0.004
0.352 0.443 0.004
0.351 0.448 0.004
0.357 0.464 0.004
0.180 -0.248 0.004
0.174 -0.236 0.004
0.180 -0.241 0.004
0.185 -0.245 0.004
0.188 -0.245 0.004
0.183 -0.236 0.004
0.183 -0.233 0.004
0.185 -0.231 0.004
0.187 -0.230 0.004
0.189 -0.229 0.004
0.191 -0.228 0.004
0.193 -0.227 0.004
0.195 -0.226 0.004
0.197 -0.225 0.004
0.199 -0.225 0.004
0.201 -0.223 0.004
0.203 -0.222 0.004
0.205 -0.221 0.004
0.207 -0.220 0.004
0.210 -0.219 0.004
0.212 -0.218 0.004
0.213 -0.216 0.004
0.216 -0.216 0.004
0.220 -0.216 0.004
0.222 -0.215 0.004
0.224 -0.214 0.004
0.227 -0.213 0.004
0.230 -0.212 0.004
0.232 -0.211 0.004
0.235 -0.211 0.004
0.238 -0.210 0.004
0.242 -0.210 0.004
0.245 -0.209 0.004
0.247 -0.208 0.004
0.249 -0.206 0.004
0.250 -0.204 0.004
0.242 -0.194 0.004
0.233 -0.184 0.004
0.222 -0.172 0.004
0.218 -0.166 0.004
0.214 -0.161 0.004
0.214 -0.158 0.004
0.218 -0.158 0.004
0.210 -0.150 0.004
0.210 -0.148 0.004
0.219 -0.151 0.004
0.209 -0.142 0.004
0.207 -0.138 0.003
0.208 -0.136 0.003
0.206 -0.133 0.003
0.210 -0.133 0.003
0.212 -0.132 0.003
0.216 -0.132 0.004
0.219 -0.131 0.004
0.218 -0.128 0.004
0.218 -0.126 0.004
0.222 -0.126 0.004
0.225 -0.125 0.004
0.221 -0.121 0.004
0.213 -0.114 0.003
0.205 -0.107 0.003
0.200 -0.103 0.003
0.209 -0.105 0.003
0.202 -0.100 0.003
0.202 -0.097 0.003
0.201 -0.095 0.003
0.201 -0.093 0.003
0.218 -0.099 0.003
0.223 -0.099 0.003
0.225 -0.097 0.003
0.226 -0.095 0.003
0.222 -0.092 0.003
0.232 -0.093 0.004
0.216 -0.085 0.003
0.216 -0.083 0.003
0.215 -0.080 0.003
0.231 -0.084 0.004
0.238 -0.084 0.004
0.242 -0.083 0.004
0.248 -0.083 0.004
0.248 -0.080 0.004
0.251 -0.079 0.004
0.259 -0.079 0.004
0.269 -0.080 0.004
0.274 -0.079 0.004
0.379 -0.105 0.006
0.390 -0.105 0.006
0.402 -0.104 0.006
0.411 -0.103 0.006
0.421 -0.101 0.006
0.427 -0.099 0.006
0.419 -0.093 0.006
0.398 -0.085 0.006
0.389 -0.079 0.006
0.386 -0.075 0.006
0.299 -0.053 0.004
0.290 -0.048 0.004
0.287 -0.045 0.004
0.285 -0.042 0.004
0.286 -0.040 0.004
0.290 -0.038 0.004
0.296 -0.036 0.004
0.300 -0.034 0.004
0.294 -0.030 0.004
0.292 -0.028 0.004
0.288 -0.025 0.004
0.292 -0.022 0.004
0.311 -0.021 0.005
0.327 -0.019 0.005
0.326 -0.016 0.005
0.318 -0.013 0.005
0.311 -0.010 0.005
0.312 -0.007 0.005
0.309 -0.004 0.004
0.301 -0.001 0.004
0.307 0.001 0.004
0.314 0.004 0.005
0.313 0.007 0.005
0.302 0.009 0.004
0.304 0.012 0.004
0.304 0.015 0.004
0.306 0.018 0.004
0.308 0.021 0.004
0.310 0.024 0.005
0.310 0.026 0.005
0.310 0.029 0.005
0.310 0.032 0.005
0.310 0.035 0.005
0.311 0.038 0.005
0.311 0.041 0.005
0.313 0.044 0.005
0.314 0.047 0.005
0.313 0.049 0.005
0.313 0.052 0.005
0.313 0.055 0.005
0.313 0.058 0.005
0.312 0.061 0.005
0.311 0.063 0.005
0.310 0.066 0.005
0.312 0.069 0.005
0.328 0.076 0.005
0.326 0.079 0.005
0.325 0.081 0.005
0.328 0.085 0.005
0.331 0.089 0.005
0.331 0.092 0.005
0.329 0.095 0.005
0.327 0.097 0.005
0.319 0.098 0.005
0.312 0.099 0.005
0.325 0.106 0.005
0.338 0.113 0.005
0.341 0.118 0.005
0.338 0.120 0.005
0.335 0.122 0.005
0.336 0.126 0.005
0.329 0.127 0.005
0.325 0.128 0.005
0.331 0.134 0.005
0.359 0.149 0.006
0.368 0.156 0.006
0.360 0.157 0.006
0.347 0.155 0.005
0.329 0.150 0.005
0.321 0.150 0.005
0.332 0.162 0.005
0.321 0.160 0.005
0.331 0.168 0.005
0.329 0.178 0.005
0.316 0.174 0.005
0.323 0.181 0.005
0.328 0.188 0.005
0.329 0.192 0.005
0.327 0.195 0.005
0.324 0.197 0.005
0.322 0.199 0.005
0.320 0.202 0.005
0.318 0.204 0.005
0.316 0.206 0.005
0.314 0.209 0.005
0.311 0.211 0.005
0.310 0.214 0.005
0.308 0.216 0.005
0.299 0.214 0.005
0.288 0.209 0.005
1.344 1.030 0.024
1.317 1.044 0.023
1.315 1.060 0.024
1.309 1.074 0.024
1.304 1.088 0.024
1.294 1.097 0.024
1.338 1.254 0.026
1.345 1.281 0.026
1.344 1.302 0.026
0.356 0.407 0.008
0.355 0.412 0.008
0.357 0.429 0.008
0.360 0.439 0.008
0.364 0.452 0.008
0.360 0.453 0.008
0.354 0.453 0.008
0.153 -0.211 0.006
0.178 -0.242 0.006
0.184 -0.247 0.007
0.183 -0.242 0.006
0.181 -0.236 0.006
0.182 -0.234 0.006
0.184 -0.233 0.006
0.186 -0.232 0.006
0.188 -0.231 0.006
0.189 -0.230 0.006
0.191 -0.229 0.006
0.193 -0.227 0.006
0.195 -0.226 0.006
0.197 -0.225 0.006
0.199 -0.224 0.006
0.201 -0.223 0.006
0.203 -0.222 0.006
0.206 -0.222 0.006
0.208 -0.221 0.006
0.210 -0.219 0.006
0.212 -0.218 0.006
0.214 -0.218 0.007
0.216 -0.216 0.007
0.218 -0.215 0.007
0.222 -0.215 0.007
0.224 -0.214 0.007
0.227 -0.213 0.007
0.229 -0.212 0.007
0.232 -0.211 0.007
0.234 -0.210 0.007
0.236 -0.208 0.007
0.239 -0.208 0.007
0.244 -0.209 0.007
0.247 -0.207 0.007
0.248 -0.205 0.007
0.249 -0.203 0.007
0.246 -0.197 0.007
0.235 -0.185 0.006
0.228 -0.177 0.006
0.223 -0.170 0.006
0.211 -0.159 0.006
0.210 -0.155 0.006
0.210 -0.152 0.006
0.205 -0.146 0.005
0.207 -0.146 0.006
0.213 -0.147 0.006
0.221 -0.150 0.006
0.210 -0.140 0.006
0.210 -0.137 0.006
0.209 -0.134 0.005
0.208 -0.132 0.005
0.215 -0.134 0.006
0.219 -0.133 0.006
0.218 -0.131 0.006
0.216 -0.127 0.006
0.217 -0.125 0.006
0.220 -0.125 0.006
0.224 -0.124 0.006
0.222 -0.121 0.006
0.218 -0.117 0.006
0.213 -0.112 0.005
0.213 -0.109 0.005
0.218 -0.110 0.005
0.222 -0.109 0.006
0.213 -0.103 0.005
0.209 -0.099 0.005
0.214 -0.099 0.005
0.217 -0.098 0.005
0.222 -0.098 0.005
0.226 -0.098 0.006
0.224 -0.095 0.006
0.222 -0.091 0.005
0.217 -0.087 0.005
0.223 -0.087 0.005
0.214 -0.082 0.005
0.219 -0.081 0.005
0.231 -0.084 0.006
0.235 -0.083 0.006
0.239 -0.082 0.006
0.242 -0.081 0.006
0.244 -0.079 0.006
0.251 -0.079 0.006
0.258 -0.079 0.006
0.269 -0.080 0.006
0.283 -0.081 0.007
0.377 -0.105 0.009
0.391 -0.105 0.009
0.399 -0.103 0.010
0.411 -0.103 0.010
0.418 -0.101 0.010
0.424 -0.098 0.010
0.416 -0.092 0.010
0.390 -0.083 0.009
0.388 -0.079 0.009
0.385 -0.075 0.009
0.304 -0.054 0.007
0.292 -0.049 0.007
0.290 -0.046 0.007
0.287 -0.043 0.007
0.286 -0.040 0.007
0.288 -0.038 0.007
0.290 -0.035 0.007
0.295 -0.033 0.007
0.298 -0.031 0.007
0.292 -0.028 0.007
0.290 -0.025 0.007
0.291 -0.022 0.007
0.292 -0.020 0.007
0.317 -0.019 0.007
0.323 -0.016 0.008
0.330 -0.013 0.008
0.320 -0.010 0.008
0.314 -0.007 0.007
0.309 -0.004 0.007
0.307 -0.001 0.007
0.306 0.001 0.007
0.306 0.004 0.007
0.308 0.007 0.007
0.307 0.010 0.007
0.306 0.012 0.007
0.304 0.015 0.007
0.304 0.018 0.007
0.306 0.021 0.007
0.308 0.023 0.007
0.309 0.026 0.007
0.309 0.029 0.007
0.309 0.032 0.007
0.309 0.035 0.007
0.309 0.038 0.007
0.311 0.041 0.007
0.312 0.043 0.007
0.312 0.046 0.007
0.312 0.049 0.007
0.311 0.052 0.007
0.312 0.055 0.007
0.312 0.058 0.007
0.311 0.060 0.007
0.311 0.063 0.007
0.318 0.068 0.008
0.324 0.072 0.008
0.325 0.075 0.008
0.326 0.079 0.008
0.322 0.081 0.008
0.325 0.084 0.008
0.328 0.088 0.008
0.327 0.091 0.008
0.325 0.094 0.008
0.326 0.097 0.008
0.322 0.099 0.008
0.325 0.103 0.008
0.324 0.106 0.008
0.330 0.111 0.008
0.333 0.115 0.008
0.333 0.118 0.008
0.333 0.122 0.008
0.332 0.125 0.008
0.330 0.127 0.008
0.319 0.126 0.008
0.375 0.160 0.009
0.372 0.162 0.009
0.360 0.161 0.009
0.346 0.158 0.009
0.335 0.160 0.008
0.340 0.166 0.009
0.337 0.171 0.009
0.345 0.179 0.009
0.347 0.184 0.009
0.307 0.169 0.008
0.321 0.180 0.008
0.322 0.185 0.008
0.330 0.193 0.009
0.327 0.195 0.009
0.324 0.197 0.008
0.322 0.199 0.008
0.320 0.202 0.008
0.318 0.204 0.008
0.316 0.207 0.008
0.313 0.208 0.008
0.312 0.211 0.008
0.309 0.214 0.008
0.308 0.217 0.008
0.306 0.219 0.008
0.354 0.405 0.012
0.356 0.413 0.012
0.363 0.472 0.013
0.172 -0.236 0.008
0.178 -0.243 0.008
0.179 -0.240 0.008
0.178 -0.236 0.008
0.180 -0.235 0.008
0.182 -0.234 0.008
0.184 -0.233 0.008
0.186 -0.232 0.008
0.188 -0.232 0.008
0.189 -0.230 0.009
0.191 -0.229 0.009
0.193 -0.227 0.009
0.195 -0.227 0.009
0.197 -0.226 0.009
0.199 -0.225 0.009
0.201 -0.223 0.009
0.203 -0.222 0.009
0.205 -0.222 0.009
0.207 -0.220 0.009
0.209 -0.219 0.009
0.211 -0.218 0.009
0.214 -0.217 0.009
0.216 -0.216 0.009
0.218 -0.215 0.009
0.222 -0.215 0.009
0.225 -0.214 0.009
0.227 -0.213 0.009
0.230 -0.213 0.009
0.231 -0.210 0.009
0.234 -0.210 0.009
0.237 -0.209 0.009
0.240 -0.208 0.009
0.243 -0.208 0.009
0.246 -0.207 0.009
0.248 -0.205 0.009
0.249 -0.203 0.009
0.248 -0.199 0.009
0.245 -0.193 0.009
0.228 -0.177 0.009
0.225 -0.172 0.008
0.221 -0.166 0.008
0.211 -0.156 0.008
0.207 -0.150 0.008
0.208 -0.148 0.008
0.208 -0.146 0.008
0.211 -0.146 0.008
0.213 -0.144 0.008
0.211 -0.141 0.008
0.209 -0.137 0.008
0.208 -0.134 0.007
0.206 -0.130 0.007
0.205 -0.127 0.007
0.214 -0.131 0.008
0.216 -0.130 0.008
0.214 -0.126 0.008
0.216 -0.124 0.008
0.220 -0.125 0.008
0.216 -0.120 0.008
0.218 -0.119 0.008
0.219 -0.117 0.008
0.203 -0.106 0.007
0.204 -0.105 0.007
0.204 -0.103 0.007
0.220 -0.108 0.008
0.209 -0.101 0.007
0.207 -0.098 0.007
0.207 -0.096 0.007
0.207 -0.094 0.007
0.222 -0.098 0.008
0.226 -0.098 0.008
0.226 -0.095 0.008
0.223 -0.092 0.008
0.219 -0.088 0.007
0.219 -0.086 0.007
0.213 -0.082 0.007
0.211 -0.079 0.007
0.223 -0.081 0.007
0.235 -0.083 0.008
0.240 -0.083 0.008
0.245 -0.082 0.008
0.248 -0.080 0.008
0.249 -0.079 0.008
0.255 -0.078 0.008
0.261 -0.077 0.009
0.374 -0.104 0.012
0.391 -0.105 0.013
0.403 -0.104 0.013
0.409 -0.102 0.013
0.421 -0.101 0.014
0.425 -0.098 0.014
0.415 -0.092 0.014
0.389 -0.083 0.013
0.382 -0.078 0.013
0.380 -0.074 0.012
0.291 -0.049 0.010
0.291 -0.046 0.010
0.290 -0.043 0.009
0.288 -0.040 0.009
0.290 -0.038 0.009
0.290 -0.035 0.009
0.288 -0.032 0.009
0.299 -0.031 0.010
0.296 -0.028 0.010
0.293 -0.025 0.010
0.289 -0.022 0.009
0.288 -0.020 0.009
0.296 -0.017 0.010
0.317 -0.016 0.010
0.321 -0.013 0.010
0.332 -0.011 0.011
0.315 -0.007 0.010
0.308 -0.004 0.010
0.305 -0.001 0.010
0.301 0.001 0.010
0.300 0.004 0.010
0.305 0.007 0.010
0.306 0.010 0.010
0.309 0.012 0.010
0.313 0.015 0.010
0.305 0.018 0.010
0.304 0.020 0.010
0.304 0.023 0.010
0.306 0.026 0.010
0.308 0.029 0.010
0.308 0.032 0.010
0.308 0.035 0.010
0.308 0.037 0.010
0.309 0.040 0.010
0.311 0.043 0.010
0.311 0.046 0.010
0.310 0.049 0.010
0.310 0.052 0.010
0.309 0.054 0.010
0.308 0.057 0.010
0.315 0.061 0.010
0.324 0.066 0.011
0.325 0.069 0.011
0.323 0.072 0.011
0.322 0.075 0.011
0.321 0.077 0.011
0.323 0.081 0.011
0.319 0.083 0.011
0.318 0.085 0.011
0.315 0.088 0.010
0.311 0.090 0.010
0.312 0.093 0.010
0.327 0.100 0.011
0.327 0.104 0.011
0.326 0.106 0.011
0.327 0.110 0.011
0.328 0.113 0.011
0.329 0.117 0.011
0.337 0.123 0.011
0.335 0.126 0.011
0.321 0.124 0.011
0.324 0.128 0.011
0.339 0.137 0.012
0.370 0.154 0.013
0.381 0.162 0.013
0.385 0.168 0.013
0.379 0.169 0.013
0.358 0.167 0.012
0.349 0.167 0.012
0.356 0.173 0.012
0.361 0.180 0.013
0.352 0.179 0.012
0.350 0.181 0.012
0.343 0.182 0.012
0.331 0.179 0.012
0.326 0.180 0.011
0.327 0.188 0.012
0.330 0.193 0.012
0.326 0.194 0.012
0.323 0.197 0.012
0.321 0.199 0.012
0.320 0.202 0.012
0.318 0.205 0.012
0.315 0.206 0.011
0.314 0.209 0.011
0.311 0.211 0.011
0.309 0.214 0.011
0.308 0.217 0.011
0.310 0.222 0.012
0.356 0.259 0.013
0.354 0.262 0.013
0.353 0.266 0.013
0.390 0.348 0.016
0.422 0.452 0.018
0.367 0.400 0.016
0.500 0.591 0.023
0.502 0.602 0.023
0.308 0.401 0.015
0.175 -0.241 0.010
0.178 -0.243 0.011
0.178 -0.239 0.011
0.178 -0.235 0.010
0.180 -0.235 0.010
0.182 -0.234 0.011
0.184 -0.233 0.011
0.185 -0.232 0.011
0.187 -0.231 0.011
0.189 -0.230 0.011
0.191 -0.228 0.011
0.193 -0.228 0.011
0.195 -0.227 0.011
0.198 -0.226 0.011
0.199 -0.225 0.011
0.201 -0.223 0.011
0.203 -0.222 0.011
0.205 -0.221 0.011
0.207 -0.220 0.011
0.209 -0.218 0.011
0.211 -0.217 0.011
0.213 -0.216 0.011
0.215 -0.215 0.011
0.218 -0.215 0.011
0.222 -0.215 0.011
0.224 -0.214 0.011
0.227 -0.213 0.011
0.230 -0.212 0.012
0.232 -0.211 0.012
0.234 -0.210 0.012
0.237 -0.209 0.012
0.240 -0.209 0.012
0.243 -0.207 0.012
0.245 -0.206 0.012
0.248 -0.205 0.012
0.250 -0.204 0.012
0.253 -0.203 0.012
0.237 -0.187 0.011
0.229 -0.178 0.011
0.224 -0.171 0.011
0.222 -0.167 0.010
0.217 -0.160 0.010
0.212 -0.154 0.010
0.211 -0.151 0.010
0.214 -0.150 0.010
0.213 -0.147 0.010
0.206 -0.140 0.009
0.207 -0.138 0.009
0.208 -0.136 0.010
0.207 -0.133 0.009
0.205 -0.130 0.009
0.208 -0.130 0.009
0.212 -0.129 0.010
0.214 -0.128 0.010
0.216 -0.127 0.010
0.220 -0.127 0.010
0.214 -0.121 0.010
0.215 -0.120 0.010
0.215 -0.117 0.010
0.216 -0.116 0.010
0.216 -0.113 0.010
0.202 -0.104 0.009
0.205 -0.103 0.009
0.210 -0.103 0.009
0.214 -0.103 0.009
0.205 -0.097 0.009
0.207 -0.095 0.009
0.208 -0.094 0.009
0.215 -0.095 0.009
0.225 -0.097 0.010
0.226 -0.096 0.010
0.225 -0.093 0.010
0.228 -0.092 0.010
0.216 -0.085 0.009
0.214 -0.082 0.009
0.213 -0.079 0.009
0.220 -0.080 0.009
0.228 -0.081 0.010
0.241 -0.083 0.010
0.247 -0.083 0.011
0.252 -0.082 0.011
0.257 -0.081 0.011
0.257 -0.079 0.011
0.257 -0.076 0.011
0.258 -0.074 0.011
0.401 -0.108 0.017
0.406 -0.105 0.017
0.412 -0.103 0.017
0.422 -0.102 0.018
0.425 -0.098 0.018
0.413 -0.092 0.017
0.392 -0.083 0.016
0.380 -0.077 0.016
0.379 -0.074 0.016
0.291 -0.049 0.012
0.291 -0.046 0.012
0.290 -0.043 0.012
0.289 -0.040 0.012
0.291 -0.038 0.012
0.291 -0.035 0.012
0.287 -0.032 0.012
0.288 -0.030 0.012
0.299 -0.028 0.012
0.292 -0.025 0.012
0.290 -0.022 0.012
0.288 -0.019 0.012
0.291 -0.017 0.012
0.298 -0.015 0.012
0.314 -0.013 0.013
0.325 -0.010 0.013
0.330 -0.007 0.014
0.311 -0.004 0.013
0.296 -0.001 0.012
0.294 0.001 0.012
0.302 0.004 0.013
0.305 0.007 0.013
0.307 0.010 0.013
0.309 0.012 0.013
0.315 0.015 0.013
0.322 0.019 0.013
0.326 0.022 0.014
0.311 0.024 0.013
0.302 0.026 0.013
0.305 0.029 0.013
0.305 0.032 0.013
0.306 0.034 0.013
0.306 0.037 0.013
0.308 0.040 0.013
0.310 0.043 0.013
0.309 0.046 0.013
0.309 0.049 0.013
0.309 0.052 0.013
0.315 0.055 0.013
0.323 0.060 0.014
0.321 0.063 0.013
0.318 0.065 0.013
0.318 0.068 0.013
0.316 0.070 0.013
0.315 0.073 0.013
0.321 0.077 0.014
0.322 0.081 0.014
0.322 0.084 0.014
0.317 0.085 0.013
0.315 0.088 0.013
0.308 0.089 0.013
0.314 0.093 0.013
0.319 0.098 0.014
0.329 0.104 0.014
0.325 0.106 0.014
0.326 0.110 0.014
0.322 0.111 0.014
0.329 0.117 0.014
0.345 0.126 0.015
0.353 0.132 0.015
0.326 0.126 0.014
0.331 0.131 0.014
0.403 0.171 0.018
0.398 0.173 0.017
0.392 0.175 0.017
0.385 0.175 0.017
0.369 0.172 0.016
0.373 0.178 0.016
0.372 0.181 0.016
0.375 0.187 0.017
0.367 0.187 0.016
0.356 0.185 0.016
0.347 0.184 0.015
0.341 0.184 0.015
0.340 0.188 0.015
0.334 0.188 0.015
0.330 0.189 0.015
0.330 0.193 0.015
0.326 0.194 0.015
0.323 0.197 0.015
0.320 0.199 0.015
0.319 0.201 0.015
0.318 0.204 0.015
0.316 0.207 0.015
0.313 0.208 0.015
0.310 0.211 0.014
0.309 0.213 0.014
0.308 0.217 0.014
0.317 0.226 0.015
0.348 0.253 0.016
0.346 0.256 0.016
0.325 0.250 0.016
0.432 0.348 0.021
0.435 0.357 0.021
0.436 0.364 0.021
0.429 0.364 0.021
0.442 0.415 0.023
0.443 0.423 0.023
0.448 0.434 0.023
0.452 0.445 0.024
0.452 0.453 0.024
0.452 0.461 0.024
0.449 0.465 0.024
0.368 0.401 0.020
0.406 0.457 0.023
0.405 0.463 0.023
0.503 0.594 0.029
0.496 0.596 0.028
0.350 0.449 0.021
0.344 0.447 0.020
0.183 -0.252 0.013
0.179 -0.243 0.013
0.177 -0.238 0.013
0.178 -0.236 0.013
0.180 -0.234 0.013
0.181 -0.234 0.013
0.184 -0.233 0.013
0.186 -0.233 0.013
0.187 -0.231 0.013
0.189 -0.230 0.013
0.191 -0.229 0.013
0.193 -0.228 0.013
0.196 -0.228 0.013
0.198 -0.227 0.013
0.199 -0.225 0.013
0.200 -0.223 0.013
0.203 -0.222 0.013
0.205 -0.221 0.013
0.207 -0.220 0.013
0.209 -0.219 0.013
0.212 -0.218 0.013
0.213 -0.216 0.013
0.216 -0.216 0.013
0.219 -0.216 0.014
0.222 -0.215 0.014
0.224 -0.214 0.014
0.226 -0.213 0.014
0.229 -0.212 0.014
0.232 -0.211 0.014
0.234 -0.210 0.014
0.237 -0.209 0.014
0.240 -0.209 0.014
0.242 -0.207 0.014
0.244 -0.206 0.014
0.247 -0.204 0.014
0.251 -0.204 0.015
0.254 -0.204 0.015
0.234 -0.184 0.014
0.226 -0.175 0.013
0.223 -0.171 0.013
0.220 -0.166 0.013
0.219 -0.162 0.012
0.215 -0.157 0.012
0.212 -0.151 0.012
0.213 -0.150 0.012
0.220 -0.152 0.012
0.211 -0.143 0.012
0.206 -0.138 0.012
0.207 -0.136 0.012
0.207 -0.133 0.011
0.207 -0.131 0.011
0.209 -0.130 0.011
0.211 -0.129 0.012
0.212 -0.127 0.012
0.218 -0.128 0.012
0.223 -0.129 0.012
0.222 -0.126 0.012
0.208 -0.116 0.011
0.215 -0.118 0.012
0.218 -0.117 0.012
0.217 -0.114 0.012
0.216 -0.111 0.012
0.220 -0.111 0.012
0.216 -0.106 0.011
0.212 -0.102 0.011
0.213 -0.101 0.011
0.216 -0.100 0.011
0.212 -0.096 0.011
0.213 -0.094 0.011
0.217 -0.094 0.011
0.221 -0.093 0.012
0.226 -0.093 0.012
0.226 -0.091 0.012
0.217 -0.085 0.011
0.212 -0.081 0.011
0.216 -0.080 0.011
0.219 -0.080 0.011
0.227 -0.080 0.012
0.231 -0.080 0.012
0.240 -0.080 0.012
0.245 -0.080 0.013
0.260 -0.082 0.013
0.264 -0.081 0.014
0.260 -0.077 0.013
0.257 -0.074 0.013
0.399 -0.107 0.020
0.406 -0.105 0.021
0.413 -0.103 0.021
0.420 -0.101 0.021
0.425 -0.098 0.022
0.389 -0.083 0.020
0.380 -0.077 0.019
0.370 -0.072 0.019
0.363 -0.067 0.018
0.290 -0.048 0.015
0.290 -0.046 0.015
0.290 -0.043 0.015
0.289 -0.040 0.015
0.289 -0.038 0.015
0.290 -0.035 0.015
0.290 -0.033 0.015
0.290 -0.030 0.015
0.291 -0.028 0.015
0.295 -0.025 0.015
0.291 -0.022 0.015
0.297 -0.020 0.015
0.292 -0.017 0.015
0.298 -0.015 0.015
0.311 -0.013 0.016
0.316 -0.010 0.016
0.337 -0.008 0.017
0.326 -0.004 0.016
0.296 -0.001 0.015
0.300 0.001 0.015
0.305 0.004 0.015
0.308 0.007 0.016
0.310 0.010 0.016
0.313 0.013 0.016
0.313 0.015 0.016
0.322 0.019 0.016
0.328 0.022 0.017
0.327 0.025 0.017
0.324 0.028 0.016
0.330 0.031 0.017
0.325 0.034 0.016
0.316 0.036 0.016
0.318 0.039 0.016
0.317 0.041 0.016
0.318 0.044 0.016
0.318 0.047 0.016
0.318 0.050 0.016
0.316 0.053 0.016
0.320 0.056 0.016
0.324 0.060 0.017
0.323 0.063 0.016
0.317 0.065 0.016
0.315 0.067 0.016
0.314 0.070 0.016
0.317 0.073 0.016
0.327 0.079 0.017
0.329 0.083 0.017
0.322 0.084 0.017
0.313 0.084 0.016
0.317 0.088 0.016
0.318 0.092 0.016
0.324 0.096 0.017
0.324 0.100 0.017
0.328 0.104 0.017
0.329 0.107 0.017
0.323 0.108 0.017
0.320 0.111 0.017
0.324 0.115 0.017
0.337 0.123 0.018
0.338 0.127 0.018
0.344 0.133 0.018
0.348 0.137 0.018
0.420 0.174 0.022
0.415 0.177 0.022
0.408 0.178 0.022
0.399 0.178 0.021
0.394 0.180 0.021
0.387 0.181 0.021
0.379 0.181 0.020
0.376 0.183 0.020
0.371 0.185 0.020
0.365 0.186 0.020
0.357 0.185 0.019
0.341 0.181 0.018
0.349 0.189 0.019
0.333 0.184 0.018
0.326 0.183 0.018
0.329 0.192 0.018
0.326 0.195 0.018
0.322 0.196 0.018
0.319 0.198 0.018
0.318 0.201 0.018
0.318 0.204 0.018
0.314 0.206 0.018
0.311 0.208 0.018
0.310 0.210 0.017
0.308 0.213 0.017
0.306 0.215 0.017
0.318 0.227 0.018
0.312 0.239 0.018
0.433 0.350 0.026
0.438 0.359 0.026
0.439 0.367 0.026
0.436 0.371 0.026
0.439 0.412 0.027
0.448 0.428 0.028
0.450 0.436 0.028
0.452 0.445 0.029
0.454 0.455 0.029
0.451 0.459 0.029
0.447 0.464 0.029
0.345 0.443 0.025
0.338 0.440 0.024
0.180 -0.248 0.015
0.179 -0.243 0.015
0.178 -0.239 0.015
0.179 -0.237 0.015
0.180 -0.235 0.015
0.182 -0.234 0.015
0.184 -0.234 0.015
0.187 -0.234 0.015
0.189 -0.233 0.015
0.190 -0.231 0.015
0.191 -0.229 0.015
0.193 -0.228 0.015
0.195 -0.227 0.015
0.197 -0.226 0.015
0.199 -0.225 0.015
0.200 -0.223 0.015
0.202 -0.222 0.015
0.205 -0.222 0.015
0.208 -0.221 0.016
0.210 -0.220 0.016
0.212 -0.219 0.016
0.214 -0.217 0.016
0.216 -0.216 0.016
0.219 -0.216 0.016
0.221 -0.215 0.016
0.223 -0.213 0.016
0.225 -0.212 0.016
0.228 -0.211 0.016
0.231 -0.211 0.016
0.235 -0.211 0.017
0.237 -0.210 0.017
0.239 -0.208 0.017
0.242 -0.207 0.017
0.244 -0.205 0.017
0.246 -0.204 0.017
0.249 -0.203 0.017
0.252 -0.203 0.017
0.225 -0.175 0.015
0.221 -0.169 0.015
0.221 -0.166 0.015
0.219 -0.162 0.015
0.212 -0.154 0.014
0.208 -0.149 0.014
0.220 -0.154 0.015
0.213 -0.147 0.014
0.213 -0.145 0.014
0.210 -0.140 0.014
0.207 -0.136 0.014
0.208 -0.134 0.014
0.210 -0.133 0.014
0.201 -0.125 0.013
0.209 -0.127 0.013
0.210 -0.126 0.014
0.214 -0.126 0.014
0.219 -0.127 0.014
0.221 -0.126 0.014
0.216 -0.120 0.014
0.215 -0.117 0.014
0.218 -0.117 0.014
0.218 -0.114 0.014
0.217 -0.111 0.014
0.201 -0.101 0.013
0.204 -0.101 0.013
0.202 -0.098 0.013
0.210 -0.099 0.013
0.204 -0.094 0.013
0.205 -0.093 0.013
0.210 -0.093 0.013
0.214 -0.092 0.013
0.217 -0.092 0.013
0.222 -0.092 0.014
0.219 -0.088 0.014
0.213 -0.084 0.013
0.211 -0.081 0.013
0.215 -0.080 0.013
0.220 -0.080 0.013
0.226 -0.080 0.014
0.231 -0.079 0.014
0.234 -0.078 0.014
0.236 -0.077 0.014
0.245 -0.077 0.015
0.265 -0.081 0.016
0.266 -0.079 0.016
0.266 -0.077 0.016
0.397 -0.107 0.024
0.402 -0.104 0.024
0.411 -0.103 0.025
0.421 -0.101 0.025
0.421 -0.097 0.025
0.381 -0.081 0.023
0.374 -0.076 0.022
0.368 -0.072 0.022
0.351 -0.065 0.021
0.282 -0.047 0.017
0.284 -0.045 0.017
0.288 -0.043 0.017
0.289 -0.040 0.017
0.288 -0.038 0.017
0.290 -0.035 0.017
0.290 -0.033 0.017
0.292 -0.030 0.017
0.294 -0.028 0.017
0.294 -0.025 0.017
0.295 -0.023 0.018
0.295 -0.020 0.018
0.298 -0.017 0.018
0.300 -0.015 0.018
0.306 -0.012 0.018
0.307 -0.010 0.018
0.294 -0.007 0.017
0.311 -0.004 0.019
0.307 -0.001 0.018
0.312 0.001 0.019
0.307 0.004 0.018
0.309 0.007 0.018
0.307 0.010 0.018
0.314 0.013 0.019
0.318 0.016 0.019
0.309 0.018 0.018
0.325 0.022 0.019
0.326 0.025 0.019
0.319 0.027 0.019
0.314 0.030 0.019
0.324 0.033 0.019
0.321 0.036 0.019
0.316 0.038 0.019
0.316 0.041 0.019
0.315 0.044 0.019
0.320 0.048 0.019
0.319 0.050 0.019
0.315 0.053 0.019
0.315 0.055 0.019
0.318 0.059 0.019
0.320 0.062 0.019
0.323 0.066 0.019
0.317 0.068 0.019
0.305 0.068 0.018
0.309 0.072 0.019
0.326 0.079 0.020
0.331 0.083 0.020
0.322 0.084 0.020
0.316 0.085 0.019
0.323 0.090 0.020
0.329 0.095 0.020
0.331 0.099 0.020
0.327 0.101 0.020
0.332 0.105 0.020
0.330 0.108 0.020
0.324 0.109 0.020
0.316 0.109 0.019
0.323 0.115 0.020
0.328 0.120 0.020
0.322 0.121 0.020
0.329 0.127 0.020
0.413 0.168 0.026
0.422 0.175 0.026
0.420 0.179 0.026
0.411 0.179 0.026
0.403 0.180 0.025
0.395 0.180 0.025
0.387 0.181 0.024
0.380 0.181 0.024
0.374 0.182 0.024
0.369 0.184 0.023
0.359 0.183 0.023
0.350 0.182 0.022
0.346 0.183 0.022
0.338 0.183 0.022
0.334 0.185 0.021
0.328 0.185 0.021
0.325 0.187 0.021
0.326 0.191 0.021
0.323 0.193 0.021
0.319 0.194 0.021
0.318 0.197 0.021
0.317 0.200 0.021
0.319 0.205 0.021
0.311 0.203 0.020
0.310 0.207 0.021
0.309 0.209 0.020
0.306 0.212 0.020
0.303 0.213 0.020
0.301 0.215 0.020
0.298 0.217 0.020
0.297 0.220 0.020
0.296 0.224 0.020
0.297 0.228 0.020
0.294 0.229 0.020
0.292 0.232 0.020
0.276 0.246 0.020
0.277 0.252 0.020
0.448 0.435 0.033
0.447 0.441 0.033
0.445 0.447 0.033
0.387 0.401 0.029
0.329 0.395 0.027
0.335 0.409 0.027
0.336 0.431 0.028
0.304 0.396 0.025
0.177 -0.244 0.017
0.178 -0.242 0.017
0.177 -0.238 0.017
0.179 -0.237 0.017
0.181 -0.237 0.017
0.182 -0.234 0.017
0.184 -0.233 0.017
0.186 -0.233 0.017
0.188 -0.232 0.017
0.189 -0.230 0.017
0.192 -0.230 0.017
0.193 -0.228 0.017
0.194 -0.226 0.017
0.196 -0.225 0.017
0.199 -0.225 0.017
0.201 -0.224 0.018
0.203 -0.222 0.018
0.205 -0.221 0.018
0.208 -0.221 0.018
0.209 -0.219 0.018
0.212 -0.218 0.018
0.214 -0.218 0.018
0.217 -0.217 0.018
0.219 -0.216 0.018
0.221 -0.214 0.018
0.223 -0.213 0.018
0.225 -0.212 0.019
0.228 -0.211 0.019
0.232 -0.211 0.019
0.234 -0.210 0.019
0.237 -0.209 0.019
0.240 -0.208 0.019
0.241 -0.207 0.019
0.244 -0.206 0.019
0.246 -0.204 0.019
0.251 -0.204 0.020
0.251 -0.202 0.020
0.241 -0.190 0.019
0.225 -0.175 0.018
0.219 -0.167 0.017
0.218 -0.164 0.017
0.215 -0.159 0.017
0.212 -0.154 0.016
0.209 -0.149 0.016
0.210 -0.147 0.016
0.214 -0.148 0.016
0.211 -0.143 0.016
0.209 -0.139 0.016
0.209 -0.137 0.016
0.210 -0.136 0.016
0.210 -0.133 0.016
0.213 -0.132 0.016
0.207 -0.126 0.015
0.212 -0.127 0.016
0.212 -0.125 0.016
0.215 -0.124 0.016
0.214 -0.122 0.016
0.216 -0.120 0.016
0.216 -0.118 0.016
0.217 -0.116 0.016
0.219 -0.115 0.016
0.211 -0.108 0.015
0.203 -0.102 0.015
0.202 -0.099 0.015
0.208 -0.101 0.015
0.203 -0.096 0.015
0.210 -0.097 0.015
0.204 -0.092 0.015
0.209 -0.092 0.015
0.215 -0.093 0.015
0.218 -0.092 0.015
0.219 -0.090 0.016
0.219 -0.088 0.015
0.213 -0.084 0.015
0.216 -0.083 0.015
0.213 -0.080 0.015
0.229 -0.083 0.016
0.226 -0.080 0.016
0.227 -0.078 0.016
0.243 -0.081 0.017
0.249 -0.081 0.017
0.247 -0.078 0.017
0.254 -0.078 0.018
0.267 -0.079 0.019
0.275 -0.079 0.019
0.400 -0.107 0.028
0.402 -0.104 0.028
0.410 -0.102 0.028
0.418 -0.101 0.029
0.420 -0.097 0.029
0.369 -0.079 0.026
0.373 -0.076 0.026
0.371 -0.072 0.026
0.283 -0.047 0.019
0.282 -0.045 0.019
0.283 -0.042 0.019
0.286 -0.040 0.020
0.287 -0.038 0.020
0.288 -0.035 0.020
0.289 -0.033 0.020
0.290 -0.030 0.020
0.294 -0.028 0.020
0.292 -0.025 0.020
0.288 -0.022 0.020
0.291 -0.020 0.020
0.295 -0.017 0.020
0.300 -0.015 0.021
0.301 -0.012 0.021
0.300 -0.010 0.021
0.294 -0.007 0.020
0.289 -0.004 0.020
0.312 -0.001 0.021
0.312 0.001 0.021
0.314 0.004 0.021
0.316 0.007 0.022
0.313 0.010 0.021
0.318 0.013 0.022
0.320 0.016 0.022
0.324 0.019 0.022
0.322 0.022 0.022
0.319 0.024 0.022
0.313 0.027 0.021
0.311 0.029 0.021
0.315 0.033 0.022
0.318 0.036 0.022
0.318 0.039 0.022
0.312 0.041 0.021
0.310 0.043 0.021
0.308 0.046 0.021
0.325 0.051 0.022
0.317 0.053 0.022
0.310 0.055 0.021
0.315 0.059 0.022
0.323 0.063 0.022
0.326 0.066 0.023
0.321 0.068 0.022
0.297 0.066 0.021
0.304 0.070 0.021
0.325 0.078 0.023
0.324 0.081 0.023
0.316 0.082 0.022
0.315 0.085 0.022
0.326 0.091 0.023
0.330 0.095 0.023
0.331 0.099 0.023
0.332 0.102 0.023
0.331 0.105 0.023
0.327 0.107 0.023
0.318 0.107 0.022
0.320 0.111 0.023
0.328 0.117 0.023
0.333 0.122 0.024
0.338 0.127 0.024
0.339 0.131 0.024
0.351 0.139 0.025
0.410 0.166 0.029
0.423 0.176 0.030
0.421 0.179 0.030
0.411 0.179 0.029
0.402 0.179 0.029
0.395 0.180 0.028
0.388 0.181 0.028
0.380 0.181 0.027
0.374 0.182 0.027
0.365 0.182 0.027
0.357 0.182 0.026
0.349 0.181 0.025
0.345 0.183 0.025
0.339 0.183 0.025
0.332 0.183 0.024
0.327 0.184 0.024
0.323 0.186 0.024
0.313 0.183 0.023
0.310 0.185 0.023
0.313 0.190 0.023
0.307 0.190 0.023
0.306 0.193 0.023
0.306 0.197 0.023
0.305 0.200 0.023
0.305 0.204 0.023
0.303 0.206 0.023
0.300 0.208 0.023
0.302 0.212 0.023
0.300 0.215 0.023
0.298 0.217 0.023
0.297 0.220 0.023
0.296 0.224 0.023
0.295 0.226 0.023
0.292 0.228 0.023
0.288 0.228 0.023
0.270 0.225 0.022
0.267 0.227 0.022
0.269 0.233 0.022
0.270 0.237 0.022
0.268 0.239 0.022
0.272 0.247 0.022
0.429 0.452 0.037
0.425 0.456 0.037
0.413 0.450 0.037
0.333 0.381 0.030
0.326 0.386 0.030
0.323 0.395 0.030
0.323 0.401 0.030
0.315 0.397 0.030
0.305 0.391 0.029
0.303 0.395 0.029
0.168 -0.231 0.018
0.178 -0.242 0.019
0.178 -0.239 0.019
0.179 -0.237 0.019
0.180 -0.236 0.019
0.181 -0.234 0.019
0.183 -0.233 0.019
0.185 -0.232 0.019
0.187 -0.230 0.019
0.188 -0.229 0.019
0.190 -0.228 0.019
0.192 -0.227 0.019
0.194 -0.226 0.020
0.196 -0.225 0.020
0.199 -0.225 0.020
0.201 -0.224 0.020
0.203 -0.223 0.020
0.205 -0.221 0.020
0.207 -0.220 0.020
0.209 -0.219 0.020
0.212 -0.218 0.020
0.215 -0.218 0.020
0.217 -0.218 0.021
0.219 -0.216 0.021
0.221 -0.214 0.021
0.223 -0.213 0.021
0.225 -0.212 0.021
0.228 -0.211 0.021
0.231 -0.211 0.021
0.234 -0.210 0.021
0.237 -0.209 0.022
0.239 -0.208 0.022
0.242 -0.207 0.022
0.244 -0.206 0.022
0.248 -0.206 0.022
0.251 -0.205 0.022
0.250 -0.201 0.022
0.239 -0.189 0.021
0.219 -0.170 0.019
0.215 -0.164 0.019
0.206 -0.155 0.018
0.206 -0.153 0.018
0.212 -0.154 0.018
0.211 -0.151 0.018
0.214 -0.150 0.018
0.212 -0.147 0.018
0.209 -0.142 0.018
0.207 -0.138 0.018
0.208 -0.137 0.018
0.211 -0.136 0.018
0.214 -0.135 0.018
0.212 -0.132 0.018
0.216 -0.132 0.018
0.210 -0.126 0.018
0.212 -0.125 0.018
0.209 -0.121 0.017
0.213 -0.121 0.018
0.214 -0.119 0.018
0.215 -0.118 0.018
0.217 -0.116 0.018
0.211 -0.111 0.017
0.206 -0.106 0.017
0.208 -0.105 0.017
0.209 -0.103 0.017
0.210 -0.102 0.017
0.209 -0.099 0.017
0.214 -0.099 0.017
0.211 -0.095 0.017
0.215 -0.095 0.017
0.215 -0.093 0.017
0.218 -0.092 0.018
0.221 -0.091 0.018
0.216 -0.087 0.017
0.211 -0.083 0.017
0.214 -0.082 0.017
0.216 -0.080 0.017
0.224 -0.082 0.018
0.236 -0.084 0.019
0.233 -0.080 0.019
0.238 -0.080 0.019
0.249 -0.081 0.020
0.250 -0.079 0.020
0.248 -0.076 0.020
0.252 -0.075 0.020
0.409 -0.110 0.032
0.412 -0.107 0.032
0.412 -0.103 0.032
0.418 -0.101 0.033
0.425 -0.098 0.033
0.385 -0.078 0.030
0.377 -0.073 0.029
0.289 -0.048 0.022
0.285 -0.045 0.022
0.285 -0.042 0.022
0.285 -0.040 0.022
0.287 -0.038 0.022
0.288 -0.035 0.022
0.287 -0.032 0.022
0.290 -0.030 0.023
0.290 -0.027 0.022
0.293 -0.025 0.023
0.291 -0.022 0.023
0.286 -0.019 0.022
0.293 -0.017 0.023
0.300 -0.015 0.023
0.300 -0.012 0.023
0.299 -0.009 0.023
0.294 -0.007 0.023
0.288 -0.004 0.022
0.314 -0.001 0.024
0.299 0.001 0.023
0.307 0.004 0.024
0.320 0.007 0.025
0.316 0.010 0.024
0.317 0.013 0.025
0.317 0.016 0.025
0.322 0.019 0.025
0.320 0.022 0.025
0.316 0.024 0.024
0.311 0.027 0.024
0.311 0.029 0.024
0.316 0.033 0.025
0.318 0.036 0.025
0.315 0.038 0.024
0.308 0.040 0.024
0.303 0.042 0.024
0.309 0.046 0.024
0.315 0.050 0.025
0.318 0.053 0.025
0.317 0.056 0.025
0.318 0.059 0.025
0.320 0.062 0.025
0.319 0.065 0.025
0.312 0.067 0.024
0.306 0.068 0.024
0.312 0.072 0.024
0.319 0.077 0.025
0.310 0.078 0.024
0.309 0.080 0.024
0.316 0.085 0.025
0.326 0.091 0.026
0.328 0.095 0.026
0.332 0.099 0.026
0.331 0.102 0.026
0.314 0.100 0.025
0.306 0.100 0.024
0.304 0.102 0.024
0.313 0.108 0.025
0.329 0.117 0.026
0.343 0.126 0.027
0.336 0.126 0.027
0.339 0.131 0.027
0.425 0.177 0.034
0.423 0.180 0.034
0.409 0.178 0.033
0.401 0.179 0.033
0.393 0.180 0.032
0.388 0.181 0.032
0.380 0.181 0.031
0.371 0.181 0.030
0.365 0.182 0.030
0.359 0.183 0.030
0.353 0.183 0.029
0.343 0.182 0.028
0.336 0.182 0.028
0.331 0.183 0.028
0.325 0.183 0.027
0.322 0.185 0.027
0.318 0.186 0.027
0.310 0.185 0.026
0.307 0.187 0.026
0.305 0.189 0.026
0.299 0.189 0.025
0.293 0.189 0.025
0.286 0.187 0.024
0.283 0.189 0.024
0.281 0.191 0.024
0.279 0.193 0.024
0.278 0.196 0.024
0.276 0.198 0.024
0.273 0.199 0.024
0.268 0.199 0.024
0.264 0.199 0.023
0.268 0.206 0.024
0.265 0.207 0.024
0.263 0.209 0.024
0.261 0.211 0.023
0.259 0.213 0.023
0.258 0.216 0.023
0.258 0.220 0.024
0.259 0.224 0.024
0.259 0.228 0.024
0.262 0.234 0.024
0.264 0.240 0.025
0.264 0.244 0.025
0.262 0.246 0.025
0.260 0.248 0.025
0.259 0.252 0.025
0.269 0.266 0.026
0.433 0.450 0.042
0.438 0.462 0.043
0.382 0.424 0.038
0.369 0.416 0.037
0.324 0.384 0.033
0.316 0.393 0.033
0.304 0.384 0.032
0.302 0.388 0.032
0.301 0.392 0.032
0.180 -0.248 0.022
0.177 -0.241 0.021
0.179 -0.241 0.021
0.179 -0.238 0.021
0.180 -0.236 0.021
0.181 -0.234 0.021
0.183 -0.233 0.021
0.185 -0.232 0.021
0.187 -0.231 0.021
0.188 -0.229 0.021
0.190 -0.229 0.022
0.192 -0.228 0.022
0.194 -0.227 0.022
0.197 -0.226 0.022
