VERSION .7
FIELDS x y z
SIZE 4 4 4
TYPE F F F
COUNT 1 1 1
WIDTH     2585
HEIGHT 1
VIEWPOINT 0 0 0 1 0 0 0
POINTS     2585
DATA ascii
0.205 -0.095 0.042
0.201 -0.092 0.041
0.209 -0.093 0.043
0.210 -0.091 0.043
0.199 -0.085 0.040
0.214 -0.089 0.043
0.215 -0.085 0.043
0.210 -0.081 0.042
0.210 -0.079 0.042
0.225 -0.080 0.045
0.221 -0.077 0.044
0.223 -0.075 0.045
0.225 -0.074 0.045
0.231 -0.073 0.046
0.239 -0.074 0.048
0.242 -0.072 0.048
0.247 -0.071 0.049
0.261 -0.073 0.052
0.359 -0.097 0.071
0.370 -0.097 0.073
0.372 -0.094 0.074
0.369 -0.089 0.073
0.365 -0.085 0.072
0.363 -0.081 0.072
0.364 -0.078 0.072
0.360 -0.074 0.071
0.338 -0.066 0.067
0.324 -0.061 0.064
0.287 -0.048 0.056
0.284 -0.045 0.056
0.283 -0.042 0.056
0.276 -0.039 0.054
0.278 -0.037 0.054
0.279 -0.034 0.055
0.279 -0.032 0.055
0.280 -0.029 0.055
0.284 -0.027 0.056
0.285 -0.025 0.056
0.285 -0.022 0.056
0.283 -0.019 0.055
0.283 -0.017 0.055
0.284 -0.014 0.056
0.288 -0.012 0.056
0.291 -0.009 0.057
0.292 -0.007 0.057
0.289 -0.004 0.057
0.282 -0.001 0.055
0.279 0.001 0.055
0.280 0.004 0.055
0.282 0.006 0.055
0.281 0.009 0.055
0.286 0.012 0.056
0.295 0.015 0.058
0.297 0.017 0.058
0.294 0.020 0.058
0.294 0.023 0.058
0.296 0.025 0.058
0.297 0.028 0.058
0.285 0.030 0.056
0.285 0.032 0.056
0.295 0.036 0.058
0.299 0.039 0.059
0.306 0.043 0.060
0.306 0.046 0.060
0.301 0.048 0.059
0.297 0.050 0.059
0.298 0.053 0.059
0.301 0.056 0.060
0.303 0.059 0.060
0.297 0.061 0.059
0.303 0.065 0.060
0.290 0.065 0.057
0.278 0.065 0.055
0.275 0.067 0.055
0.288 0.073 0.057
0.287 0.075 0.057
0.290 0.079 0.058
0.295 0.083 0.059
0.302 0.088 0.060
0.294 0.088 0.059
0.294 0.091 0.059
0.291 0.093 0.058
0.282 0.093 0.057
0.271 0.092 0.054
0.266 0.093 0.054
0.258 0.093 0.052
0.252 0.093 0.051
0.253 0.096 0.051
0.266 0.104 0.054
0.322 0.132 0.066
0.325 0.136 0.066
0.330 0.142 0.067
0.327 0.144 0.067
0.323 0.145 0.066
0.328 0.151 0.067
0.331 0.156 0.068
0.327 0.158 0.068
0.336 0.166 0.070
0.339 0.170 0.070
0.338 0.174 0.070
0.331 0.174 0.069
0.330 0.177 0.069
0.325 0.178 0.068
0.322 0.180 0.068
0.318 0.181 0.067
0.316 0.183 0.067
0.308 0.182 0.065
0.300 0.181 0.064
0.297 0.183 0.063
0.293 0.183 0.063
0.289 0.184 0.062
0.285 0.185 0.061
0.280 0.185 0.060
0.275 0.185 0.059
0.269 0.185 0.058
0.265 0.186 0.058
0.264 0.188 0.058
0.262 0.190 0.058
0.261 0.192 0.057
0.261 0.196 0.058
0.260 0.199 0.058
0.261 0.202 0.058
0.260 0.206 0.058
0.259 0.208 0.058
0.257 0.210 0.058
0.258 0.214 0.059
0.258 0.218 0.059
0.257 0.221 0.059
0.258 0.225 0.059
0.257 0.229 0.060
0.257 0.233 0.060
0.256 0.236 0.060
0.256 0.239 0.060
0.255 0.243 0.060
0.255 0.246 0.060
0.253 0.249 0.061
0.252 0.252 0.061
0.253 0.258 0.061
0.250 0.258 0.061
0.251 0.264 0.061
0.255 0.272 0.063
0.259 0.282 0.064
0.259 0.286 0.065
0.255 0.287 0.064
0.250 0.286 0.063
0.260 0.302 0.066
0.200 0.252 0.053
0.193 0.247 0.051
0.191 0.248 0.051
0.191 0.252 0.051
0.115 -0.160 0.032
0.114 -0.156 0.032
0.110 -0.150 0.030
0.114 -0.152 0.031
0.115 -0.152 0.031
0.113 -0.148 0.031
0.113 -0.145 0.031
0.114 -0.145 0.031
0.117 -0.146 0.031
0.118 -0.146 0.032
0.117 -0.143 0.031
0.129 -0.154 0.034
0.288 -0.315 0.073
0.289 -0.312 0.073
0.290 -0.308 0.073
0.290 -0.304 0.073
0.291 -0.299 0.073
0.291 -0.294 0.072
0.291 -0.290 0.072
0.292 -0.287 0.072
0.292 -0.282 0.071
0.290 -0.276 0.071
0.289 -0.271 0.070
0.287 -0.265 0.069
0.288 -0.261 0.069
0.288 -0.258 0.069
0.289 -0.254 0.069
0.287 -0.249 0.068
0.285 -0.243 0.067
0.285 -0.239 0.067
0.285 -0.235 0.067
0.283 -0.230 0.066
0.274 -0.219 0.064
0.267 -0.210 0.062
0.203 -0.154 0.047
0.198 -0.148 0.045
0.200 -0.147 0.046
0.202 -0.146 0.046
0.206 -0.146 0.047
0.208 -0.145 0.047
0.208 -0.143 0.047
0.208 -0.140 0.047
0.206 -0.136 0.046
0.211 -0.138 0.047
0.217 -0.139 0.048
0.219 -0.138 0.049
0.220 -0.136 0.049
0.212 -0.128 0.047
0.209 -0.124 0.046
0.209 -0.122 0.046
0.208 -0.119 0.046
0.210 -0.118 0.046
0.210 -0.116 0.046
0.204 -0.110 0.044
0.206 -0.109 0.045
0.207 -0.107 0.045
0.209 -0.106 0.045
0.211 -0.105 0.045
0.212 -0.104 0.046
0.211 -0.101 0.045
0.209 -0.097 0.045
0.208 -0.095 0.044
0.207 -0.092 0.044
0.208 -0.091 0.044
0.210 -0.090 0.045
0.212 -0.088 0.045
0.216 -0.088 0.046
0.205 -0.081 0.043
0.213 -0.082 0.045
0.211 -0.079 0.045
0.215 -0.077 0.045
0.222 -0.077 0.047
0.227 -0.077 0.048
0.230 -0.075 0.048
0.235 -0.075 0.049
0.239 -0.074 0.050
0.239 -0.072 0.050
0.244 -0.071 0.051
0.260 -0.073 0.054
0.367 -0.096 0.076
0.366 -0.092 0.076
0.362 -0.088 0.075
0.357 -0.083 0.074
0.355 -0.079 0.073
0.358 -0.077 0.074
0.353 -0.072 0.073
0.335 -0.066 0.069
0.320 -0.060 0.066
0.307 -0.054 0.063
0.289 -0.049 0.060
0.281 -0.045 0.058
0.279 -0.042 0.057
0.278 -0.039 0.057
0.276 -0.036 0.057
0.279 -0.034 0.057
0.280 -0.032 0.058
0.281 -0.029 0.058
0.284 -0.027 0.058
0.289 -0.025 0.059
0.284 -0.022 0.058
0.283 -0.019 0.058
0.281 -0.017 0.058
0.283 -0.014 0.058
0.290 -0.012 0.059
0.290 -0.009 0.060
0.290 -0.007 0.059
0.288 -0.004 0.059
0.282 -0.001 0.058
0.276 0.001 0.057
0.277 0.004 0.057
0.281 0.006 0.058
0.283 0.009 0.058
0.289 0.012 0.059
0.293 0.015 0.060
0.292 0.017 0.060
0.288 0.020 0.059
0.291 0.022 0.060
0.298 0.026 0.061
0.296 0.028 0.061
0.292 0.030 0.060
0.280 0.032 0.058
0.283 0.035 0.058
0.298 0.039 0.061
0.300 0.042 0.062
0.301 0.045 0.062
0.298 0.048 0.061
0.291 0.049 0.060
0.291 0.052 0.060
0.293 0.055 0.061
0.298 0.059 0.062
0.297 0.061 0.062
0.288 0.062 0.060
0.286 0.064 0.059
0.283 0.066 0.059
0.281 0.069 0.059
0.285 0.072 0.059
0.290 0.076 0.060
0.297 0.081 0.062
0.302 0.085 0.063
0.288 0.084 0.060
0.291 0.088 0.061
0.290 0.090 0.061
0.289 0.092 0.061
0.284 0.094 0.060
0.274 0.093 0.058
0.268 0.094 0.057
0.263 0.095 0.056
0.259 0.096 0.055
0.259 0.098 0.055
0.251 0.098 0.053
0.305 0.125 0.065
0.320 0.134 0.068
0.322 0.138 0.069
0.322 0.142 0.069
0.318 0.143 0.068
0.316 0.146 0.068
0.317 0.150 0.068
0.315 0.152 0.068
0.317 0.156 0.069
0.328 0.165 0.071
0.327 0.168 0.071
0.326 0.171 0.071
0.322 0.173 0.070
0.321 0.176 0.071
0.317 0.177 0.070
0.315 0.179 0.069
0.312 0.181 0.069
0.310 0.184 0.069
0.302 0.182 0.067
0.295 0.182 0.066
0.292 0.183 0.065
0.287 0.183 0.064
0.283 0.184 0.064
0.279 0.185 0.063
0.274 0.185 0.062
0.269 0.185 0.061
0.265 0.186 0.061
0.263 0.187 0.060
0.262 0.190 0.060
0.262 0.193 0.060
0.262 0.196 0.061
0.260 0.199 0.061
0.260 0.202 0.061
0.260 0.205 0.061
0.259 0.208 0.061
0.258 0.212 0.061
0.258 0.215 0.061
0.258 0.218 0.062
0.257 0.221 0.062
0.257 0.225 0.062
0.256 0.228 0.062
0.256 0.232 0.062
0.256 0.236 0.063
0.256 0.240 0.063
0.256 0.244 0.063
0.255 0.247 0.063
0.248 0.244 0.062
0.246 0.246 0.062
0.254 0.259 0.064
0.245 0.254 0.063
0.245 0.258 0.063
0.255 0.273 0.066
0.260 0.283 0.067
0.252 0.279 0.066
0.202 0.239 0.054
0.200 0.240 0.054
0.200 0.244 0.054
0.193 0.239 0.053
0.191 0.241 0.053
0.191 0.244 0.053
0.187 0.244 0.052
0.178 0.235 0.050
0.116 -0.161 0.034
0.109 -0.150 0.032
0.109 -0.148 0.031
0.111 -0.149 0.032
0.114 -0.151 0.033
0.107 -0.140 0.031
0.114 -0.147 0.032
0.116 -0.147 0.033
0.117 -0.146 0.033
0.118 -0.145 0.033
0.121 -0.147 0.033
0.124 -0.149 0.034
0.134 -0.154 0.036
0.289 -0.307 0.076
0.290 -0.303 0.076
0.290 -0.299 0.076
0.289 -0.294 0.075
0.289 -0.288 0.075
0.290 -0.285 0.074
0.291 -0.282 0.074
0.287 -0.274 0.073
0.287 -0.270 0.073
0.288 -0.266 0.073
0.288 -0.262 0.072
0.290 -0.260 0.073
0.290 -0.256 0.072
0.289 -0.250 0.072
0.286 -0.244 0.071
0.286 -0.240 0.070
0.286 -0.237 0.070
0.285 -0.231 0.069
0.269 -0.215 0.065
0.265 -0.209 0.064
0.214 -0.166 0.052
0.204 -0.155 0.049
0.201 -0.151 0.048
0.199 -0.146 0.047
0.201 -0.146 0.048
0.207 -0.147 0.049
0.208 -0.145 0.049
0.209 -0.144 0.049
0.202 -0.137 0.047
0.203 -0.135 0.047
0.207 -0.135 0.048
0.213 -0.136 0.050
0.215 -0.135 0.050
0.213 -0.132 0.049
0.202 -0.123 0.047
0.204 -0.121 0.047
0.204 -0.119 0.047
0.206 -0.118 0.047
0.210 -0.118 0.048
0.209 -0.115 0.048
0.206 -0.111 0.047
0.203 -0.108 0.046
0.208 -0.108 0.047
0.208 -0.106 0.047
0.206 -0.103 0.046
0.213 -0.104 0.048
0.210 -0.100 0.047
0.209 -0.098 0.047
0.202 -0.092 0.045
0.201 -0.090 0.045
0.206 -0.090 0.046
0.207 -0.088 0.046
0.200 -0.083 0.044
0.213 -0.087 0.047
0.198 -0.078 0.044
0.213 -0.082 0.047
0.204 -0.077 0.045
0.207 -0.076 0.045
0.211 -0.075 0.046
0.224 -0.078 0.049
0.225 -0.076 0.049
0.230 -0.076 0.050
0.233 -0.074 0.051
0.236 -0.073 0.052
0.237 -0.071 0.052
0.243 -0.070 0.053
0.337 -0.091 0.073
0.349 -0.091 0.076
0.355 -0.089 0.077
0.349 -0.085 0.076
0.346 -0.081 0.075
0.347 -0.078 0.075
0.348 -0.075 0.075
0.346 -0.071 0.075
0.337 -0.066 0.073
0.329 -0.062 0.071
0.316 -0.056 0.068
0.290 -0.049 0.062
0.280 -0.045 0.060
0.279 -0.042 0.060
0.278 -0.039 0.060
0.277 -0.037 0.060
0.281 -0.035 0.060
0.284 -0.032 0.061
0.285 -0.030 0.061
0.286 -0.027 0.061
0.282 -0.024 0.061
0.289 -0.022 0.062
0.285 -0.019 0.061
0.279 -0.016 0.060
0.286 -0.014 0.061
0.287 -0.012 0.061
0.288 -0.009 0.062
0.290 -0.007 0.062
0.291 -0.004 0.062
0.290 -0.001 0.062
0.288 0.001 0.062
0.283 0.004 0.061
0.285 0.006 0.061
0.288 0.009 0.062
0.291 0.012 0.062
0.291 0.014 0.062
0.287 0.017 0.062
0.285 0.019 0.061
0.289 0.022 0.062
0.294 0.025 0.063
0.300 0.029 0.064
0.295 0.031 0.063
0.285 0.032 0.061
0.276 0.034 0.059
0.282 0.037 0.061
0.290 0.041 0.062
0.284 0.043 0.061
0.281 0.045 0.061
0.288 0.049 0.062
0.298 0.053 0.064
0.300 0.056 0.065
0.294 0.058 0.064
0.286 0.059 0.062
0.277 0.060 0.060
0.277 0.062 0.060
0.280 0.066 0.061
0.277 0.067 0.060
0.278 0.070 0.061
0.292 0.077 0.064
0.301 0.082 0.066
0.293 0.083 0.064
0.282 0.082 0.062
0.280 0.084 0.061
0.292 0.091 0.064
0.298 0.096 0.066
0.295 0.097 0.065
0.293 0.100 0.064
0.289 0.101 0.064
0.279 0.100 0.062
0.280 0.104 0.062
0.289 0.110 0.064
0.289 0.113 0.064
0.260 0.104 0.058
0.308 0.129 0.069
0.317 0.136 0.071
0.313 0.138 0.070
0.315 0.142 0.071
0.317 0.146 0.071
0.310 0.146 0.070
0.309 0.149 0.070
0.308 0.152 0.070
0.304 0.153 0.069
0.312 0.161 0.071
0.316 0.166 0.072
0.315 0.169 0.072
0.314 0.172 0.072
0.312 0.174 0.072
0.308 0.175 0.071
0.305 0.177 0.071
0.302 0.179 0.070
0.298 0.180 0.069
0.295 0.182 0.069
0.290 0.182 0.068
0.285 0.182 0.067
0.281 0.183 0.066
0.278 0.184 0.066
0.273 0.185 0.065
0.270 0.186 0.064
0.265 0.186 0.063
0.262 0.187 0.063
0.262 0.190 0.063
0.262 0.194 0.063
0.262 0.197 0.063
0.261 0.199 0.063
0.259 0.202 0.063
0.259 0.205 0.063
0.258 0.208 0.064
0.258 0.211 0.064
0.257 0.214 0.064
0.257 0.218 0.064
0.256 0.221 0.064
0.255 0.223 0.064
0.254 0.227 0.064
0.254 0.230 0.065
0.256 0.236 0.065
0.256 0.240 0.066
0.254 0.243 0.066
0.248 0.241 0.064
0.241 0.238 0.063
0.237 0.238 0.062
0.234 0.239 0.062
0.233 0.245 0.062
0.212 0.239 0.058
0.202 0.232 0.056
0.195 0.227 0.054
0.197 0.234 0.055
0.198 0.238 0.056
0.194 0.237 0.055
0.190 0.236 0.054
0.188 0.237 0.054
0.189 0.242 0.055
0.188 0.246 0.055
0.226 0.299 0.066
0.098 -0.136 0.030
0.098 -0.135 0.030
0.099 -0.134 0.030
0.099 -0.133 0.030
0.099 -0.132 0.030
0.100 -0.131 0.030
0.101 -0.130 0.030
0.101 -0.128 0.030
0.100 -0.126 0.029
0.100 -0.124 0.029
0.101 -0.123 0.029
0.101 -0.122 0.029
0.102 -0.120 0.029
0.110 -0.128 0.031
0.126 -0.144 0.036
0.120 -0.134 0.034
0.122 -0.134 0.034
0.126 -0.137 0.035
0.278 -0.292 0.076
0.281 -0.290 0.076
0.284 -0.288 0.077
0.283 -0.283 0.076
0.281 -0.277 0.075
0.284 -0.275 0.076
0.285 -0.272 0.076
0.285 -0.268 0.075
0.287 -0.266 0.076
0.289 -0.263 0.076
0.289 -0.259 0.075
0.288 -0.254 0.075
0.287 -0.249 0.074
0.286 -0.245 0.074
0.286 -0.241 0.073
0.286 -0.237 0.073
0.282 -0.230 0.072
0.271 -0.217 0.069
0.215 -0.166 0.054
0.208 -0.159 0.052
0.201 -0.151 0.050
0.201 -0.148 0.050
0.200 -0.145 0.050
0.203 -0.145 0.050
0.205 -0.143 0.050
0.203 -0.140 0.050
0.198 -0.134 0.049
0.199 -0.132 0.049
0.204 -0.133 0.050
0.207 -0.133 0.050
0.209 -0.132 0.051
0.206 -0.127 0.050
0.203 -0.123 0.049
0.201 -0.120 0.048
0.202 -0.118 0.048
0.204 -0.117 0.049
0.205 -0.115 0.049
0.210 -0.116 0.050
0.215 -0.116 0.051
0.210 -0.111 0.050
0.185 -0.096 0.044
0.182 -0.092 0.043
0.174 -0.087 0.041
0.173 -0.085 0.041
0.172 -0.082 0.040
0.172 -0.081 0.040
0.174 -0.080 0.041
0.175 -0.078 0.041
0.176 -0.077 0.041
0.177 -0.076 0.041
0.179 -0.075 0.041
0.180 -0.073 0.042
0.183 -0.072 0.042
0.195 -0.075 0.045
0.203 -0.076 0.047
0.209 -0.077 0.048
0.212 -0.076 0.049
0.213 -0.074 0.049
0.225 -0.076 0.051
0.223 -0.073 0.051
0.227 -0.072 0.052
0.235 -0.073 0.053
0.244 -0.073 0.055
0.245 -0.071 0.056
0.259 -0.073 0.059
0.345 -0.090 0.078
0.343 -0.087 0.078
0.340 -0.083 0.077
0.336 -0.078 0.076
0.335 -0.075 0.076
0.338 -0.073 0.076
0.338 -0.070 0.076
0.334 -0.066 0.075
0.328 -0.061 0.074
0.310 -0.055 0.070
0.296 -0.050 0.066
0.279 -0.045 0.063
0.278 -0.042 0.062
0.277 -0.039 0.062
0.279 -0.037 0.062
0.282 -0.035 0.063
0.285 -0.032 0.064
0.286 -0.030 0.064
0.283 -0.027 0.063
0.285 -0.025 0.064
0.285 -0.022 0.064
0.282 -0.019 0.063
0.282 -0.017 0.063
0.284 -0.014 0.064
0.287 -0.012 0.064
0.286 -0.009 0.064
0.289 -0.007 0.064
0.292 -0.004 0.065
0.294 -0.001 0.066
0.293 0.001 0.065
0.290 0.004 0.065
0.288 0.007 0.064
0.287 0.009 0.064
0.291 0.012 0.065
0.289 0.014 0.065
0.288 0.017 0.064
0.282 0.019 0.063
0.286 0.022 0.064
0.292 0.025 0.065
0.293 0.028 0.066
0.294 0.031 0.066
0.282 0.032 0.063
0.273 0.034 0.061
0.281 0.037 0.063
0.288 0.041 0.065
0.282 0.042 0.063
0.276 0.044 0.062
0.287 0.049 0.065
0.299 0.053 0.067
0.296 0.056 0.067
0.289 0.057 0.065
0.275 0.057 0.062
0.277 0.060 0.063
0.278 0.063 0.063
0.264 0.062 0.060
0.262 0.066 0.060
0.294 0.077 0.067
0.290 0.079 0.066
0.268 0.075 0.061
0.277 0.081 0.063
0.282 0.085 0.064
0.292 0.091 0.067
0.301 0.097 0.069
0.306 0.101 0.070
0.303 0.103 0.070
0.299 0.105 0.069
0.295 0.106 0.068
0.294 0.109 0.068
0.304 0.115 0.070
0.304 0.119 0.070
0.298 0.119 0.069
0.305 0.131 0.071
0.305 0.135 0.071
0.307 0.139 0.072
0.311 0.144 0.073
0.311 0.147 0.073
0.307 0.148 0.072
0.301 0.149 0.071
0.300 0.151 0.071
0.302 0.156 0.072
0.310 0.163 0.074
0.312 0.168 0.074
0.309 0.169 0.074
0.306 0.171 0.073
0.303 0.173 0.073
0.300 0.174 0.072
0.296 0.176 0.072
0.294 0.178 0.071
0.291 0.180 0.071
0.288 0.181 0.070
0.284 0.182 0.070
0.279 0.182 0.068
0.276 0.183 0.068
0.273 0.185 0.068
0.269 0.185 0.067
0.265 0.186 0.066
0.262 0.187 0.066
0.260 0.189 0.065
0.261 0.193 0.066
0.261 0.196 0.066
0.260 0.199 0.066
0.259 0.202 0.066
0.258 0.205 0.066
0.258 0.208 0.066
0.257 0.211 0.066
0.255 0.213 0.066
0.253 0.215 0.066
0.253 0.218 0.066
0.252 0.222 0.066
0.253 0.226 0.067
0.255 0.232 0.068
0.253 0.234 0.068
0.251 0.235 0.067
0.246 0.235 0.066
0.240 0.234 0.065
0.231 0.229 0.063
0.224 0.226 0.062
0.222 0.227 0.061
0.216 0.225 0.060
0.205 0.217 0.057
0.203 0.218 0.057
0.204 0.223 0.058
0.200 0.222 0.057
0.201 0.227 0.058
0.200 0.230 0.058
0.192 0.225 0.056
0.193 0.229 0.057
0.198 0.239 0.058
0.227 0.283 0.068
0.229 0.290 0.069
0.238 0.305 0.072
0.256 0.338 0.078
0.098 -0.135 0.031
0.099 -0.134 0.031
0.100 -0.134 0.031
0.100 -0.132 0.031
0.100 -0.131 0.031
0.101 -0.130 0.031
0.100 -0.128 0.031
0.101 -0.126 0.031
0.103 -0.127 0.031
0.102 -0.124 0.031
0.102 -0.122 0.030
0.102 -0.120 0.030
0.101 -0.118 0.030
0.102 -0.118 0.030
0.102 -0.116 0.030
0.116 -0.130 0.034
0.116 -0.127 0.034
0.119 -0.129 0.034
0.270 -0.279 0.077
0.272 -0.277 0.077
0.274 -0.274 0.077
0.273 -0.270 0.076
0.277 -0.269 0.077
0.280 -0.267 0.077
0.280 -0.264 0.077
0.283 -0.262 0.078
0.287 -0.261 0.078
0.284 -0.255 0.077
0.284 -0.251 0.077
0.284 -0.247 0.077
0.284 -0.243 0.076
0.284 -0.239 0.076
0.284 -0.236 0.076
0.282 -0.230 0.075
0.277 -0.222 0.073
0.209 -0.160 0.055
0.202 -0.152 0.053
0.199 -0.147 0.052
0.199 -0.144 0.051
0.200 -0.143 0.052
0.204 -0.143 0.052
0.202 -0.139 0.052
0.198 -0.134 0.050
0.197 -0.131 0.050
0.201 -0.131 0.051
0.201 -0.129 0.051
0.203 -0.128 0.051
0.205 -0.127 0.052
0.205 -0.124 0.051
0.209 -0.125 0.052
0.209 -0.122 0.052
0.204 -0.117 0.051
0.201 -0.113 0.050
0.202 -0.112 0.050
0.170 -0.092 0.042
0.169 -0.090 0.042
0.169 -0.088 0.042
0.170 -0.087 0.042
0.172 -0.082 0.042
0.173 -0.081 0.042
0.174 -0.080 0.042
0.175 -0.078 0.042
0.176 -0.077 0.042
0.177 -0.076 0.043
0.178 -0.074 0.043
0.180 -0.073 0.043
0.181 -0.072 0.043
0.182 -0.071 0.044
0.182 -0.069 0.044
0.186 -0.068 0.044
0.188 -0.067 0.045
0.213 -0.074 0.051
0.214 -0.072 0.051
0.222 -0.073 0.053
0.223 -0.071 0.053
0.237 -0.073 0.056
0.242 -0.073 0.057
0.244 -0.071 0.058
0.251 -0.071 0.059
0.329 -0.086 0.077
0.337 -0.085 0.079
0.335 -0.081 0.079
0.321 -0.075 0.076
0.320 -0.072 0.075
0.327 -0.070 0.077
0.328 -0.068 0.077
0.323 -0.063 0.076
0.320 -0.060 0.075
0.297 -0.053 0.069
0.291 -0.049 0.068
0.279 -0.045 0.065
0.275 -0.041 0.064
0.276 -0.039 0.064
0.279 -0.037 0.065
0.282 -0.035 0.066
0.282 -0.032 0.066
0.280 -0.029 0.065
0.286 -0.027 0.067
0.284 -0.025 0.066
0.282 -0.022 0.066
0.280 -0.019 0.065
0.282 -0.017 0.066
0.285 -0.014 0.066
0.285 -0.012 0.066
0.282 -0.009 0.066
0.283 -0.006 0.066
0.288 -0.004 0.067
0.295 -0.001 0.069
0.292 0.001 0.068
0.285 0.004 0.066
0.285 0.006 0.066
0.288 0.009 0.067
0.291 0.012 0.068
0.288 0.014 0.067
0.281 0.017 0.065
0.282 0.019 0.066
0.286 0.022 0.067
0.286 0.025 0.067
0.289 0.028 0.067
0.283 0.030 0.066
0.279 0.032 0.065
0.281 0.035 0.066
0.282 0.037 0.066
0.287 0.041 0.067
0.283 0.043 0.066
0.282 0.045 0.066
0.289 0.049 0.068
0.289 0.052 0.068
0.290 0.054 0.068
0.287 0.057 0.068
0.284 0.059 0.067
0.283 0.061 0.067
0.284 0.064 0.067
0.284 0.067 0.067
0.285 0.070 0.067
0.288 0.073 0.068
0.281 0.074 0.067
0.282 0.077 0.067
0.262 0.074 0.062
0.266 0.078 0.063
0.294 0.089 0.070
0.292 0.091 0.070
0.303 0.097 0.072
0.302 0.100 0.072
0.301 0.103 0.072
0.299 0.105 0.072
0.299 0.108 0.072
0.303 0.112 0.073
0.301 0.115 0.073
0.300 0.117 0.072
0.299 0.120 0.072
0.302 0.124 0.073
0.293 0.124 0.071
0.276 0.122 0.067
0.306 0.141 0.075
0.309 0.146 0.076
0.306 0.148 0.075
0.296 0.146 0.073
0.293 0.148 0.072
0.297 0.153 0.074
0.306 0.161 0.076
0.309 0.166 0.077
0.305 0.167 0.076
0.298 0.167 0.075
0.298 0.170 0.075
0.296 0.172 0.074
0.291 0.173 0.073
0.289 0.175 0.073
0.288 0.178 0.073
0.284 0.179 0.072
0.280 0.179 0.071
0.277 0.181 0.071
0.275 0.183 0.071
0.272 0.185 0.070
0.268 0.185 0.069
0.262 0.184 0.068
0.261 0.187 0.068
0.260 0.189 0.068
0.260 0.192 0.068
0.259 0.195 0.068
0.259 0.199 0.069
0.259 0.202 0.069
0.258 0.205 0.069
0.257 0.208 0.069
0.257 0.211 0.069
0.255 0.213 0.069
0.253 0.215 0.069
0.253 0.219 0.069
0.253 0.222 0.069
0.253 0.227 0.070
0.247 0.224 0.068
0.245 0.226 0.068
0.238 0.224 0.067
0.232 0.222 0.065
0.223 0.217 0.063
0.216 0.214 0.062
0.212 0.213 0.061
0.208 0.212 0.060
0.204 0.212 0.059
0.199 0.211 0.058
0.199 0.214 0.058
0.198 0.217 0.058
0.200 0.223 0.059
0.203 0.230 0.061
0.203 0.234 0.061
0.206 0.241 0.062
0.226 0.281 0.070
0.228 0.289 0.071
0.227 0.293 0.072
0.214 0.284 0.068
0.100 -0.137 0.033
0.100 -0.136 0.033
0.101 -0.136 0.033
0.101 -0.134 0.033
0.102 -0.134 0.033
0.102 -0.132 0.033
0.102 -0.130 0.032
0.102 -0.128 0.032
0.103 -0.127 0.032
0.103 -0.126 0.032
0.102 -0.123 0.032
0.101 -0.120 0.031
0.102 -0.120 0.032
0.102 -0.117 0.031
0.102 -0.116 0.031
0.103 -0.115 0.031
0.113 -0.124 0.034
0.114 -0.123 0.034
0.110 -0.118 0.033
0.268 -0.273 0.079
0.271 -0.272 0.079
0.273 -0.269 0.079
0.274 -0.266 0.079
0.275 -0.263 0.079
0.279 -0.263 0.080
0.281 -0.261 0.080
0.281 -0.257 0.080
0.281 -0.253 0.080
0.281 -0.249 0.079
0.281 -0.244 0.079
0.282 -0.241 0.079
0.281 -0.237 0.078
0.280 -0.232 0.078
0.276 -0.226 0.076
0.266 -0.214 0.073
0.219 -0.170 0.060
0.208 -0.159 0.056
0.200 -0.150 0.054
0.197 -0.146 0.053
0.197 -0.143 0.053
0.205 -0.146 0.055
0.206 -0.145 0.055
0.203 -0.140 0.054
0.198 -0.134 0.053
0.198 -0.132 0.052
0.200 -0.131 0.053
0.200 -0.129 0.053
0.198 -0.125 0.052
0.201 -0.125 0.053
0.211 -0.128 0.055
0.214 -0.128 0.056
0.210 -0.123 0.054
0.168 -0.095 0.043
0.169 -0.093 0.043
0.169 -0.091 0.043
0.169 -0.090 0.043
0.169 -0.088 0.043
0.170 -0.087 0.043
0.171 -0.086 0.044
0.173 -0.084 0.044
0.175 -0.084 0.044
0.181 -0.085 0.046
0.186 -0.085 0.047
0.192 -0.084 0.048
0.191 -0.082 0.048
0.186 -0.078 0.047
0.184 -0.075 0.046
0.180 -0.072 0.045
0.181 -0.070 0.045
0.183 -0.069 0.045
0.183 -0.067 0.046
0.183 -0.066 0.046
0.187 -0.065 0.046
0.188 -0.064 0.047
0.197 -0.065 0.049
0.231 -0.074 0.057
0.225 -0.070 0.056
0.234 -0.070 0.058
0.241 -0.070 0.059
0.250 -0.070 0.061
0.319 -0.084 0.078
0.328 -0.083 0.080
0.321 -0.078 0.079
0.315 -0.074 0.077
0.313 -0.070 0.076
0.314 -0.068 0.077
0.313 -0.064 0.076
0.308 -0.061 0.075
0.312 -0.058 0.076
0.303 -0.054 0.074
0.286 -0.048 0.070
0.279 -0.045 0.068
0.272 -0.041 0.066
0.275 -0.039 0.067
0.284 -0.038 0.069
0.284 -0.035 0.069
0.281 -0.032 0.068
0.283 -0.030 0.069
0.285 -0.027 0.069
0.286 -0.025 0.069
0.285 -0.022 0.069
0.280 -0.019 0.068
0.282 -0.017 0.068
0.285 -0.014 0.069
0.286 -0.012 0.069
0.282 -0.009 0.068
0.282 -0.006 0.068
0.285 -0.004 0.069
0.290 -0.001 0.070
0.290 0.001 0.070
0.279 0.004 0.068
0.275 0.006 0.067
0.298 0.009 0.072
0.288 0.012 0.070
0.275 0.014 0.067
0.270 0.016 0.066
0.279 0.019 0.068
0.286 0.022 0.069
0.290 0.025 0.070
0.283 0.027 0.069
0.278 0.029 0.067
0.272 0.031 0.066
0.275 0.034 0.067
0.283 0.037 0.069
0.280 0.040 0.068
0.285 0.043 0.069
0.286 0.046 0.070
0.284 0.048 0.069
0.284 0.051 0.069
0.286 0.054 0.070
0.287 0.057 0.070
0.288 0.059 0.070
0.287 0.062 0.070
0.287 0.065 0.070
0.288 0.068 0.071
0.286 0.070 0.070
0.285 0.072 0.070
0.290 0.076 0.071
0.277 0.076 0.068
0.263 0.074 0.065
0.270 0.079 0.067
0.297 0.090 0.074
0.304 0.095 0.075
0.298 0.096 0.074
0.299 0.099 0.074
0.293 0.100 0.073
0.293 0.103 0.073
0.299 0.108 0.075
0.300 0.111 0.075
0.296 0.113 0.074
0.292 0.114 0.073
0.291 0.117 0.073
0.295 0.122 0.074
0.294 0.124 0.074
0.282 0.122 0.071
0.273 0.121 0.069
0.270 0.122 0.068
0.276 0.128 0.070
0.304 0.144 0.078
0.300 0.146 0.077
0.290 0.144 0.074
0.285 0.144 0.073
0.284 0.147 0.073
0.284 0.150 0.073
0.302 0.162 0.078
0.292 0.160 0.076
0.291 0.163 0.076
0.293 0.168 0.076
0.289 0.169 0.076
0.285 0.169 0.075
0.284 0.172 0.075
0.283 0.175 0.075
0.279 0.176 0.074
0.276 0.177 0.073
0.275 0.180 0.073
0.274 0.182 0.073
0.271 0.184 0.073
0.267 0.184 0.072
0.263 0.185 0.071
0.261 0.187 0.071
0.259 0.189 0.070
0.259 0.192 0.071
0.259 0.195 0.071
0.259 0.199 0.071
0.258 0.202 0.071
0.257 0.205 0.071
0.257 0.208 0.072
0.256 0.211 0.072
0.255 0.214 0.072
0.255 0.217 0.072
0.253 0.220 0.072
0.251 0.221 0.072
0.244 0.219 0.070
0.238 0.217 0.069
0.234 0.217 0.068
0.228 0.215 0.066
0.224 0.214 0.065
0.220 0.214 0.065
0.213 0.211 0.063
0.208 0.210 0.062
0.206 0.212 0.062
0.203 0.212 0.061
0.200 0.212 0.061
0.198 0.214 0.061
0.203 0.223 0.062
0.208 0.232 0.064
0.207 0.234 0.064
0.206 0.238 0.065
0.207 0.242 0.065
0.208 0.248 0.066
0.203 0.246 0.065
0.207 0.258 0.067
0.206 0.266 0.068
0.208 0.272 0.069
0.191 0.254 0.063
0.100 -0.138 0.034
0.101 -0.137 0.034
0.101 -0.136 0.034
0.102 -0.135 0.034
0.102 -0.134 0.034
0.102 -0.132 0.034
0.102 -0.130 0.034
0.102 -0.129 0.034
0.103 -0.128 0.034
0.102 -0.125 0.033
0.103 -0.124 0.033
0.103 -0.123 0.033
0.104 -0.122 0.033
0.103 -0.119 0.033
0.102 -0.116 0.032
0.102 -0.114 0.032
0.103 -0.114 0.032
0.109 -0.118 0.034
0.105 -0.113 0.033
0.109 -0.115 0.034
0.270 -0.271 0.082
0.271 -0.269 0.082
0.273 -0.266 0.082
0.277 -0.266 0.083
0.280 -0.264 0.083
0.280 -0.260 0.083
0.279 -0.255 0.082
0.277 -0.249 0.081
0.277 -0.246 0.081
0.278 -0.243 0.081
0.277 -0.237 0.080
0.279 -0.235 0.081
0.275 -0.228 0.079
0.264 -0.216 0.076
0.256 -0.206 0.073
0.213 -0.166 0.060
0.205 -0.156 0.058
0.200 -0.151 0.056
0.196 -0.145 0.055
0.199 -0.145 0.055
0.205 -0.146 0.057
0.207 -0.146 0.057
0.203 -0.140 0.056
0.201 -0.136 0.055
0.200 -0.134 0.055
0.202 -0.132 0.055
0.201 -0.129 0.055
0.200 -0.126 0.054
0.199 -0.124 0.054
0.170 -0.100 0.046
0.169 -0.097 0.045
0.168 -0.095 0.045
0.169 -0.093 0.045
0.169 -0.092 0.045
0.169 -0.090 0.045
0.171 -0.089 0.046
0.204 -0.102 0.054
0.205 -0.100 0.054
0.213 -0.102 0.056
0.214 -0.100 0.056
0.213 -0.098 0.056
0.214 -0.096 0.056
0.194 -0.085 0.051
0.206 -0.088 0.054
0.210 -0.088 0.055
0.214 -0.087 0.056
0.212 -0.084 0.055
0.207 -0.080 0.054
0.194 -0.073 0.050
0.188 -0.069 0.049
0.187 -0.067 0.048
0.183 -0.064 0.047
0.187 -0.063 0.048
0.188 -0.062 0.048
0.190 -0.061 0.049
0.192 -0.060 0.049
0.240 -0.070 0.061
0.250 -0.070 0.064
0.313 -0.082 0.080
0.314 -0.079 0.080
0.315 -0.077 0.080
0.307 -0.072 0.078
0.306 -0.069 0.078
0.306 -0.066 0.077
0.302 -0.062 0.077
0.298 -0.059 0.075
0.294 -0.055 0.074
0.295 -0.053 0.075
0.287 -0.049 0.073
0.276 -0.044 0.070
0.272 -0.041 0.069
0.273 -0.039 0.069
0.280 -0.037 0.071
0.281 -0.035 0.071
0.281 -0.032 0.071
0.281 -0.029 0.071
0.285 -0.027 0.072
0.286 -0.025 0.072
0.285 -0.022 0.072
0.279 -0.019 0.070
0.278 -0.016 0.070
0.282 -0.014 0.071
0.285 -0.012 0.072
0.284 -0.009 0.071
0.284 -0.006 0.071
0.282 -0.004 0.071
0.280 -0.001 0.070
0.281 0.001 0.071
0.283 0.004 0.071
0.281 0.006 0.071
0.282 0.009 0.071
0.271 0.011 0.068
0.271 0.014 0.068
0.275 0.016 0.069
0.274 0.019 0.069
0.292 0.023 0.073
0.294 0.025 0.074
0.285 0.027 0.072
0.273 0.029 0.069
0.261 0.030 0.066
0.274 0.034 0.069
0.279 0.037 0.070
0.288 0.041 0.073
0.290 0.044 0.073
0.287 0.046 0.073
0.282 0.048 0.072
0.285 0.051 0.072
0.287 0.054 0.073
0.290 0.057 0.074
0.289 0.060 0.074
0.288 0.062 0.073
0.287 0.065 0.073
0.286 0.067 0.073
0.283 0.069 0.072
0.283 0.072 0.072
0.285 0.075 0.073
0.284 0.078 0.073
0.253 0.072 0.065
0.256 0.075 0.066
0.298 0.093 0.077
0.294 0.095 0.076
0.288 0.096 0.074
0.286 0.098 0.074
0.285 0.100 0.074
0.287 0.104 0.074
0.287 0.106 0.074
0.287 0.110 0.075
0.283 0.111 0.074
0.287 0.115 0.075
0.288 0.119 0.075
0.287 0.121 0.075
0.282 0.122 0.074
0.280 0.124 0.074
0.275 0.125 0.073
0.268 0.124 0.071
0.257 0.122 0.068
0.256 0.124 0.068
0.276 0.137 0.073
0.282 0.143 0.075
0.277 0.143 0.074
0.276 0.146 0.074
0.289 0.156 0.078
0.288 0.159 0.078
0.285 0.160 0.077
0.285 0.163 0.077
0.283 0.165 0.077
0.279 0.166 0.076
0.277 0.168 0.076
0.276 0.171 0.076
0.274 0.173 0.075
0.272 0.175 0.075
0.271 0.178 0.075
0.270 0.180 0.075
0.269 0.183 0.075
0.263 0.182 0.074
0.261 0.184 0.073
0.261 0.187 0.073
0.260 0.190 0.073
0.259 0.192 0.073
0.258 0.195 0.073
0.257 0.198 0.073
0.256 0.200 0.073
0.255 0.203 0.073
0.255 0.206 0.074
0.254 0.209 0.074
0.253 0.212 0.074
0.253 0.216 0.074
0.248 0.215 0.073
0.244 0.216 0.072
0.240 0.215 0.071
0.236 0.216 0.071
0.229 0.213 0.069
0.226 0.213 0.068
0.225 0.216 0.068
0.225 0.219 0.069
0.220 0.219 0.068
0.219 0.221 0.068
0.219 0.225 0.068
0.217 0.226 0.068
0.206 0.218 0.065
0.201 0.217 0.064
0.204 0.224 0.065
0.212 0.237 0.068
0.209 0.237 0.067
0.205 0.237 0.067
0.203 0.239 0.067
0.200 0.239 0.066
0.199 0.241 0.066
0.198 0.244 0.066
0.199 0.249 0.067
0.194 0.246 0.065
0.200 0.258 0.068
0.202 0.264 0.069
0.223 0.296 0.077
0.100 -0.138 0.035
0.100 -0.137 0.035
0.101 -0.136 0.035
0.101 -0.135 0.035
0.101 -0.133 0.035
0.102 -0.132 0.035
0.102 -0.130 0.035
0.102 -0.129 0.035
0.103 -0.128 0.035
0.103 -0.126 0.035
0.103 -0.124 0.035
0.104 -0.123 0.035
0.104 -0.121 0.034
0.103 -0.120 0.034
0.102 -0.116 0.033
0.102 -0.115 0.033
0.104 -0.115 0.034
0.106 -0.115 0.034
0.109 -0.117 0.035
0.107 -0.113 0.034
0.109 -0.114 0.035
0.268 -0.266 0.084
0.270 -0.263 0.084
0.272 -0.261 0.085
0.277 -0.262 0.086
0.278 -0.258 0.085
0.276 -0.253 0.085
0.272 -0.246 0.083
0.273 -0.242 0.083
0.270 -0.236 0.082
0.275 -0.237 0.083
0.274 -0.231 0.082
0.275 -0.228 0.082
0.268 -0.219 0.080
0.262 -0.210 0.077
0.251 -0.199 0.074
0.216 -0.169 0.064
0.207 -0.159 0.061
0.203 -0.153 0.059
0.200 -0.148 0.058
0.202 -0.147 0.058
0.207 -0.148 0.060
0.207 -0.146 0.060
0.205 -0.142 0.059
0.204 -0.139 0.058
0.205 -0.137 0.058
0.207 -0.136 0.059
0.207 -0.134 0.059
0.206 -0.130 0.058
0.204 -0.127 0.058
0.183 -0.111 0.051
0.169 -0.101 0.047
0.170 -0.100 0.047
0.169 -0.097 0.047
0.168 -0.095 0.047
0.169 -0.094 0.047
0.184 -0.100 0.051
0.199 -0.106 0.055
0.205 -0.107 0.056
0.210 -0.107 0.058
0.207 -0.104 0.057
0.210 -0.103 0.057
0.208 -0.100 0.057
0.213 -0.100 0.058
0.212 -0.097 0.058
0.210 -0.094 0.057
0.210 -0.092 0.057
0.206 -0.088 0.056
0.210 -0.088 0.057
0.211 -0.086 0.057
0.207 -0.082 0.056
0.203 -0.079 0.055
0.208 -0.079 0.056
0.212 -0.078 0.057
0.215 -0.077 0.058
0.194 -0.068 0.052
0.187 -0.064 0.050
0.188 -0.062 0.050
0.190 -0.061 0.050
0.191 -0.059 0.051
0.192 -0.058 0.051
0.194 -0.056 0.051
0.199 -0.056 0.053
0.301 -0.079 0.079
0.302 -0.077 0.080
0.302 -0.074 0.080
0.300 -0.070 0.079
0.296 -0.067 0.078
0.295 -0.064 0.078
0.294 -0.061 0.077
0.290 -0.057 0.076
0.288 -0.054 0.075
0.288 -0.051 0.076
0.286 -0.048 0.075
0.279 -0.045 0.073
0.273 -0.041 0.071
0.274 -0.039 0.072
0.277 -0.037 0.072
0.278 -0.034 0.073
0.280 -0.032 0.073
0.281 -0.029 0.073
0.283 -0.027 0.074
0.285 -0.025 0.074
0.280 -0.022 0.073
0.275 -0.019 0.072
0.278 -0.016 0.073
0.280 -0.014 0.073
0.285 -0.012 0.074
0.287 -0.009 0.075
0.287 -0.007 0.075
0.280 -0.004 0.073
0.274 -0.001 0.072
0.276 0.001 0.072
0.285 0.004 0.074
0.287 0.007 0.075
0.278 0.009 0.072
0.274 0.011 0.072
0.278 0.014 0.073
0.278 0.016 0.073
0.279 0.019 0.073
0.283 0.022 0.074
0.293 0.025 0.077
0.283 0.027 0.074
0.260 0.027 0.068
0.268 0.031 0.070
0.275 0.034 0.072
0.283 0.038 0.074
0.290 0.041 0.076
0.293 0.044 0.077
0.284 0.046 0.075
0.282 0.048 0.074
0.282 0.051 0.074
0.287 0.054 0.076
0.291 0.058 0.077
0.291 0.060 0.077
0.290 0.063 0.077
0.289 0.065 0.076
0.282 0.066 0.075
0.274 0.067 0.073
0.261 0.066 0.069
0.249 0.068 0.066
0.239 0.068 0.064
0.244 0.072 0.065
0.266 0.080 0.071
0.274 0.085 0.073
0.283 0.091 0.076
0.283 0.094 0.076
0.282 0.096 0.076
0.280 0.099 0.075
0.281 0.102 0.075
0.281 0.104 0.076
0.280 0.107 0.076
0.279 0.109 0.075
0.275 0.111 0.074
0.276 0.114 0.075
0.278 0.117 0.076
0.280 0.121 0.076
0.278 0.123 0.076
0.279 0.127 0.076
0.266 0.124 0.073
0.255 0.121 0.070
0.253 0.123 0.070
0.264 0.131 0.073
0.271 0.137 0.075
0.270 0.140 0.075
0.270 0.143 0.075
0.283 0.153 0.079
0.283 0.156 0.079
0.280 0.157 0.078
0.280 0.161 0.079
0.279 0.163 0.079
0.275 0.164 0.078
0.272 0.165 0.077
0.270 0.167 0.077
0.267 0.169 0.076
0.267 0.172 0.076
0.264 0.173 0.076
0.264 0.176 0.076
0.261 0.178 0.075
0.258 0.179 0.075
0.257 0.181 0.075
0.260 0.187 0.076
0.259 0.189 0.076
0.257 0.191 0.076
0.255 0.193 0.075
0.253 0.195 0.075
0.253 0.198 0.075
0.252 0.201 0.075
0.252 0.204 0.076
0.251 0.208 0.076
0.250 0.210 0.076
0.248 0.212 0.075
0.245 0.213 0.075
0.242 0.214 0.074
0.239 0.215 0.074
0.232 0.213 0.072
0.227 0.211 0.071
0.225 0.213 0.071
0.225 0.217 0.071
0.225 0.220 0.071
0.217 0.216 0.069
0.217 0.219 0.070
0.219 0.225 0.071
0.218 0.228 0.071
0.211 0.224 0.069
0.203 0.219 0.067
0.201 0.222 0.067
0.206 0.230 0.069
0.202 0.230 0.068
0.199 0.230 0.067
0.198 0.233 0.067
0.200 0.239 0.068
0.198 0.240 0.068
0.199 0.245 0.069
0.195 0.245 0.068
0.195 0.248 0.068
0.192 0.248 0.068
0.197 0.259 0.070
0.203 0.270 0.072
0.100 -0.137 0.036
0.101 -0.136 0.037
0.101 -0.135 0.036
0.101 -0.133 0.036
0.102 -0.132 0.036
0.103 -0.131 0.036
0.103 -0.130 0.036
0.103 -0.128 0.036
0.104 -0.127 0.036
0.104 -0.125 0.036
0.103 -0.123 0.036
0.103 -0.121 0.036
0.103 -0.119 0.035
0.103 -0.118 0.035
0.104 -0.117 0.035
0.105 -0.116 0.035
0.109 -0.119 0.037
0.109 -0.117 0.036
0.108 -0.114 0.036
0.108 -0.112 0.036
0.115 -0.118 0.038
0.263 -0.257 0.085
0.265 -0.254 0.085
0.270 -0.255 0.086
0.270 -0.252 0.086
0.270 -0.248 0.086
0.269 -0.243 0.085
0.267 -0.238 0.084
0.269 -0.235 0.084
0.270 -0.232 0.084
0.272 -0.231 0.085
0.271 -0.226 0.084
0.266 -0.218 0.082
0.262 -0.211 0.080
0.255 -0.202 0.078
0.212 -0.162 0.064
0.204 -0.154 0.062
0.200 -0.148 0.060
0.206 -0.150 0.062
0.208 -0.149 0.062
0.208 -0.146 0.062
0.203 -0.141 0.060
0.205 -0.140 0.061
0.208 -0.139 0.061
0.209 -0.137 0.061
0.211 -0.136 0.062
0.209 -0.133 0.061
0.169 -0.103 0.049
0.169 -0.101 0.049
0.170 -0.100 0.049
0.171 -0.099 0.049
0.200 -0.111 0.057
0.201 -0.109 0.058
0.200 -0.106 0.057
0.202 -0.106 0.058
0.207 -0.106 0.059
0.210 -0.105 0.060
0.206 -0.101 0.059
0.206 -0.099 0.058
0.206 -0.097 0.058
0.207 -0.095 0.058
0.209 -0.094 0.059
0.208 -0.091 0.058
0.199 -0.085 0.056
0.210 -0.088 0.059
0.207 -0.084 0.058
0.205 -0.082 0.057
0.207 -0.081 0.058
0.209 -0.079 0.058
0.213 -0.079 0.059
0.214 -0.077 0.059
0.221 -0.077 0.061
0.223 -0.076 0.062
0.213 -0.070 0.059
0.193 -0.062 0.053
0.192 -0.060 0.053
0.192 -0.058 0.053
0.192 -0.056 0.053
0.193 -0.054 0.053
0.195 -0.053 0.053
0.197 -0.052 0.054
0.203 -0.052 0.056
0.284 -0.061 0.077
0.287 -0.059 0.078
0.287 -0.057 0.078
0.285 -0.054 0.078
0.285 -0.051 0.077
0.284 -0.048 0.077
0.278 -0.045 0.076
0.274 -0.041 0.074
0.274 -0.039 0.074
0.275 -0.037 0.075
0.278 -0.034 0.075
0.281 -0.032 0.076
0.281 -0.030 0.076
0.283 -0.027 0.076
0.281 -0.024 0.076
0.272 -0.021 0.074
0.277 -0.019 0.075
0.282 -0.017 0.076
0.281 -0.014 0.076
0.281 -0.012 0.076
0.283 -0.009 0.076
0.284 -0.006 0.077
0.281 -0.004 0.076
0.277 -0.001 0.075
0.278 0.001 0.075
0.284 0.004 0.077
0.283 0.006 0.077
0.280 0.009 0.076
0.276 0.011 0.075
0.274 0.014 0.074
0.271 0.016 0.073
0.270 0.018 0.073
0.278 0.022 0.075
0.281 0.024 0.076
0.271 0.026 0.073
0.266 0.028 0.072
0.274 0.031 0.074
0.282 0.035 0.077
0.286 0.038 0.078
0.289 0.041 0.079
0.286 0.043 0.078
0.283 0.045 0.077
0.279 0.047 0.076
0.282 0.051 0.077
0.286 0.054 0.078
0.291 0.058 0.079
0.292 0.061 0.080
0.288 0.063 0.079
0.281 0.063 0.077
0.269 0.063 0.074
0.256 0.063 0.070
0.249 0.064 0.068
0.240 0.063 0.066
0.233 0.064 0.064
0.235 0.067 0.065
0.273 0.083 0.075
0.287 0.090 0.079
0.286 0.092 0.079
0.280 0.093 0.078
0.277 0.095 0.077
0.275 0.097 0.077
0.277 0.100 0.077
0.277 0.103 0.077
0.277 0.106 0.078
0.274 0.107 0.077
0.271 0.109 0.076
0.268 0.111 0.075
0.267 0.113 0.075
0.269 0.116 0.076
0.272 0.121 0.077
0.267 0.121 0.076
0.261 0.121 0.074
0.257 0.122 0.073
0.260 0.126 0.074
0.265 0.132 0.076
0.265 0.135 0.076
0.262 0.136 0.075
0.259 0.137 0.075
0.261 0.141 0.075
0.268 0.148 0.078
0.273 0.154 0.079
0.277 0.159 0.081
0.275 0.161 0.080
0.268 0.160 0.078
0.266 0.162 0.078
0.261 0.162 0.077
0.255 0.162 0.075
0.253 0.163 0.075
0.256 0.168 0.076
0.258 0.173 0.077
0.257 0.175 0.077
0.256 0.177 0.077
0.257 0.181 0.077
0.254 0.182 0.077
0.252 0.184 0.076
0.254 0.189 0.077
0.252 0.191 0.077
0.251 0.194 0.077
0.250 0.197 0.077
0.250 0.200 0.078
0.250 0.203 0.078
0.249 0.206 0.078
0.248 0.208 0.078
0.246 0.211 0.078
0.244 0.213 0.078
0.242 0.214 0.077
0.234 0.211 0.075
0.226 0.207 0.073
0.219 0.204 0.071
0.215 0.204 0.070
0.214 0.206 0.070
0.202 0.198 0.067
0.203 0.203 0.067
0.205 0.208 0.068
0.209 0.215 0.070
0.213 0.224 0.072
0.210 0.224 0.071
0.202 0.219 0.069
0.200 0.220 0.069
0.197 0.221 0.068
0.197 0.225 0.069
0.197 0.228 0.069
0.198 0.233 0.070
0.199 0.239 0.071
0.199 0.242 0.071
0.199 0.247 0.072
0.195 0.245 0.071
0.189 0.241 0.069
0.188 0.243 0.069
0.189 0.249 0.070
0.189 0.252 0.070
0.100 -0.137 0.038
0.100 -0.136 0.038
0.101 -0.135 0.038
0.102 -0.134 0.038
0.102 -0.132 0.038
0.102 -0.131 0.038
0.103 -0.130 0.038
0.104 -0.129 0.038
0.104 -0.128 0.038
0.104 -0.126 0.037
0.103 -0.123 0.037
0.104 -0.122 0.037
0.104 -0.121 0.037
0.103 -0.118 0.036
0.104 -0.117 0.036
0.106 -0.117 0.037
0.109 -0.119 0.038
0.109 -0.117 0.037
0.106 -0.112 0.036
0.110 -0.115 0.038
0.110 -0.113 0.038
0.257 -0.252 0.086
0.259 -0.250 0.086
0.262 -0.248 0.087
0.265 -0.247 0.087
0.266 -0.245 0.087
0.266 -0.241 0.087
0.265 -0.236 0.086
0.265 -0.232 0.086
0.267 -0.230 0.086
0.270 -0.229 0.087
0.269 -0.224 0.086
0.260 -0.213 0.083
0.257 -0.208 0.082
0.250 -0.199 0.079
0.207 -0.159 0.065
0.199 -0.151 0.062
0.199 -0.148 0.062
0.202 -0.147 0.063
0.208 -0.150 0.064
0.204 -0.144 0.063
0.199 -0.138 0.061
0.202 -0.138 0.062
0.207 -0.139 0.063
0.208 -0.137 0.063
0.208 -0.134 0.063
0.184 -0.116 0.056
0.172 -0.107 0.052
0.170 -0.104 0.051
0.170 -0.102 0.051
0.178 -0.105 0.053
0.206 -0.119 0.062
0.205 -0.116 0.061
0.205 -0.114 0.061
0.201 -0.110 0.060
0.202 -0.108 0.060
0.201 -0.105 0.059
0.204 -0.104 0.060
0.204 -0.102 0.060
0.200 -0.099 0.059
0.205 -0.099 0.060
0.206 -0.097 0.060
0.207 -0.095 0.060
0.207 -0.093 0.060
0.207 -0.091 0.060
0.208 -0.089 0.060
0.199 -0.083 0.058
0.209 -0.086 0.061
0.208 -0.083 0.060
0.210 -0.082 0.060
0.210 -0.080 0.061
0.210 -0.078 0.060
0.216 -0.078 0.062
0.217 -0.076 0.062
0.221 -0.075 0.063
0.221 -0.073 0.063
0.222 -0.071 0.063
0.235 -0.073 0.067
0.199 -0.060 0.057
0.194 -0.057 0.055
0.193 -0.055 0.055
0.195 -0.053 0.055
0.195 -0.051 0.055
0.196 -0.050 0.055
0.196 -0.048 0.055
0.197 -0.046 0.056
0.201 -0.045 0.057
0.202 -0.044 0.057
0.214 -0.044 0.060
0.270 -0.043 0.076
0.275 -0.042 0.077
0.274 -0.039 0.077
0.274 -0.036 0.077
0.276 -0.034 0.077
0.279 -0.032 0.078
0.279 -0.029 0.078
0.280 -0.027 0.078
0.278 -0.024 0.078
0.278 -0.022 0.078
0.279 -0.019 0.078
0.282 -0.017 0.079
0.283 -0.014 0.079
0.280 -0.012 0.078
0.278 -0.009 0.078
0.277 -0.006 0.077
0.277 -0.004 0.078
0.279 -0.001 0.078
0.281 0.001 0.078
0.280 0.004 0.078
0.280 0.006 0.078
0.275 0.009 0.077
0.270 0.011 0.075
0.269 0.014 0.075
0.263 0.016 0.074
0.264 0.018 0.074
0.273 0.021 0.076
0.273 0.024 0.077
0.270 0.026 0.076
0.270 0.028 0.076
0.275 0.032 0.077
0.282 0.035 0.079
0.285 0.038 0.080
0.284 0.040 0.080
0.284 0.043 0.080
0.280 0.045 0.079
0.280 0.048 0.079
0.284 0.051 0.080
0.286 0.054 0.081
0.287 0.057 0.081
0.283 0.059 0.080
0.278 0.060 0.079
0.270 0.061 0.077
0.265 0.063 0.075
0.252 0.062 0.071
0.239 0.061 0.068
0.233 0.062 0.066
0.236 0.065 0.067
0.241 0.069 0.069
0.265 0.078 0.076
0.275 0.083 0.079
0.285 0.089 0.082
0.290 0.094 0.083
0.279 0.093 0.080
0.273 0.094 0.078
0.269 0.095 0.077
0.266 0.096 0.077
0.274 0.102 0.079
0.273 0.104 0.079
0.267 0.105 0.078
0.267 0.107 0.077
0.263 0.109 0.076
0.260 0.110 0.076
0.259 0.112 0.076
0.260 0.116 0.076
0.260 0.118 0.076
0.255 0.119 0.075
0.255 0.121 0.075
0.259 0.126 0.077
0.261 0.130 0.077
0.260 0.132 0.077
0.258 0.134 0.077
0.256 0.136 0.076
0.256 0.139 0.076
0.257 0.142 0.077
0.255 0.144 0.077
0.251 0.144 0.076
0.250 0.147 0.076
0.252 0.151 0.076
0.246 0.150 0.075
0.247 0.154 0.075
0.249 0.158 0.076
0.250 0.161 0.077
0.256 0.168 0.079
0.257 0.172 0.079
0.258 0.176 0.080
0.257 0.178 0.080
0.251 0.178 0.078
0.248 0.179 0.078
0.249 0.183 0.078
0.247 0.185 0.078
0.249 0.189 0.079
0.248 0.192 0.079
0.249 0.196 0.079
0.250 0.200 0.080
0.249 0.203 0.080
0.246 0.204 0.080
0.243 0.205 0.079
0.243 0.208 0.079
0.237 0.207 0.078
0.225 0.203 0.075
0.215 0.198 0.072
0.208 0.195 0.070
0.205 0.195 0.069
0.200 0.193 0.068
0.200 0.197 0.068
0.199 0.199 0.068
0.202 0.205 0.070
0.203 0.210 0.070
0.210 0.221 0.073
0.208 0.222 0.073
0.201 0.218 0.071
0.197 0.217 0.070
0.194 0.218 0.069
0.192 0.219 0.069
0.198 0.230 0.072
0.196 0.231 0.071
0.196 0.235 0.072
0.199 0.243 0.074
0.202 0.250 0.075
0.196 0.247 0.073
0.187 0.240 0.071
0.183 0.238 0.069
0.185 0.244 0.070
0.181 0.242 0.069
0.100 -0.137 0.039
0.101 -0.137 0.039
0.102 -0.136 0.039
0.102 -0.135 0.039
0.102 -0.133 0.039
0.103 -0.132 0.039
0.104 -0.131 0.039
0.104 -0.130 0.039
0.105 -0.129 0.039
0.106 -0.128 0.039
0.106 -0.127 0.039
0.105 -0.123 0.039
0.105 -0.122 0.039
0.105 -0.120 0.038
0.104 -0.117 0.038
0.113 -0.125 0.041
0.108 -0.118 0.039
0.106 -0.114 0.038
0.103 -0.109 0.036
0.110 -0.114 0.039
0.113 -0.116 0.040
0.115 -0.117 0.040
0.124 -0.124 0.043
0.256 -0.247 0.088
0.260 -0.247 0.089
0.261 -0.244 0.089
0.262 -0.241 0.089
0.263 -0.238 0.089
0.261 -0.233 0.088
0.261 -0.229 0.088
0.263 -0.227 0.088
0.266 -0.225 0.088
0.266 -0.222 0.088
0.260 -0.214 0.086
0.257 -0.208 0.084
0.247 -0.196 0.081
0.204 -0.157 0.066
0.198 -0.150 0.064
0.198 -0.147 0.064
0.199 -0.146 0.064
0.200 -0.144 0.064
0.199 -0.140 0.063
0.200 -0.139 0.064
0.203 -0.139 0.064
0.204 -0.137 0.064
0.206 -0.136 0.065
0.174 -0.110 0.054
0.173 -0.108 0.054
0.173 -0.106 0.054
0.196 -0.118 0.061
0.202 -0.119 0.063
0.204 -0.118 0.063
0.208 -0.118 0.064
0.210 -0.117 0.065
0.210 -0.114 0.064
0.205 -0.110 0.063
0.204 -0.107 0.062
0.203 -0.104 0.062
0.200 -0.101 0.061
0.200 -0.099 0.061
0.206 -0.099 0.062
0.209 -0.099 0.063
0.208 -0.096 0.063
0.209 -0.094 0.063
0.208 -0.091 0.062
0.207 -0.089 0.062
0.209 -0.088 0.063
0.206 -0.085 0.062
0.209 -0.083 0.062
0.211 -0.082 0.063
0.212 -0.080 0.063
0.211 -0.078 0.063
0.211 -0.076 0.062
0.214 -0.075 0.063
0.217 -0.074 0.064
0.222 -0.074 0.066
0.228 -0.073 0.067
0.229 -0.071 0.067
0.236 -0.071 0.070
0.240 -0.070 0.071
0.239 -0.067 0.070
0.208 -0.055 0.061
0.202 -0.051 0.059
0.199 -0.049 0.058
0.199 -0.047 0.058
0.200 -0.045 0.058
0.200 -0.043 0.058
0.200 -0.041 0.058
0.201 -0.040 0.059
0.205 -0.039 0.060
0.207 -0.037 0.060
0.207 -0.035 0.060
0.211 -0.034 0.061
0.212 -0.032 0.061
0.222 -0.031 0.064
0.270 -0.033 0.078
0.276 -0.032 0.080
0.277 -0.029 0.080
0.277 -0.027 0.080
0.275 -0.024 0.080
0.276 -0.021 0.080
0.276 -0.019 0.080
0.278 -0.016 0.080
0.279 -0.014 0.081
0.278 -0.011 0.080
0.274 -0.009 0.079
0.273 -0.006 0.079
0.274 -0.004 0.079
0.277 -0.001 0.080
0.275 0.001 0.080
0.276 0.004 0.080
0.275 0.006 0.080
0.268 0.009 0.077
0.269 0.011 0.078
0.274 0.014 0.079
0.266 0.016 0.077
0.265 0.018 0.077
0.270 0.021 0.078
0.273 0.024 0.079
0.272 0.026 0.079
0.274 0.029 0.080
0.281 0.032 0.082
0.281 0.035 0.082
0.280 0.037 0.081
0.279 0.040 0.081
0.278 0.042 0.081
0.281 0.045 0.082
0.281 0.048 0.082
0.285 0.051 0.083
0.283 0.054 0.083
0.280 0.056 0.082
0.274 0.057 0.080
0.267 0.058 0.078
0.259 0.059 0.076
0.255 0.060 0.075
0.253 0.062 0.074
0.214 0.055 0.063
0.224 0.059 0.066
0.237 0.065 0.070
0.245 0.070 0.072
0.259 0.076 0.076
0.273 0.083 0.081
0.283 0.089 0.084
0.285 0.092 0.084
0.281 0.094 0.083
0.267 0.092 0.079
0.261 0.092 0.078
0.259 0.094 0.077
0.258 0.096 0.077
0.256 0.098 0.077
0.256 0.101 0.077
0.251 0.101 0.075
0.251 0.104 0.075
0.252 0.107 0.076
0.251 0.109 0.076
0.253 0.112 0.076
0.253 0.115 0.077
0.251 0.117 0.076
0.250 0.119 0.076
0.252 0.123 0.077
0.254 0.127 0.078
0.255 0.130 0.078
0.254 0.132 0.078
0.255 0.135 0.079
0.253 0.137 0.078
0.251 0.139 0.078
0.249 0.141 0.077
0.246 0.142 0.077
0.244 0.144 0.076
0.244 0.146 0.076
0.242 0.148 0.076
0.241 0.150 0.076
0.246 0.156 0.078
0.249 0.161 0.079
0.252 0.166 0.080
0.262 0.176 0.084
0.260 0.178 0.083
0.253 0.176 0.082
0.248 0.176 0.080
0.247 0.178 0.080
0.245 0.180 0.080
0.245 0.183 0.080
0.245 0.187 0.080
0.246 0.191 0.081
0.245 0.193 0.081
0.248 0.199 0.082
0.247 0.202 0.082
0.233 0.193 0.078
0.234 0.197 0.079
0.231 0.199 0.078
0.222 0.194 0.075
0.214 0.190 0.073
0.208 0.188 0.071
0.208 0.191 0.072
0.207 0.193 0.072
0.205 0.195 0.071
0.204 0.197 0.071
0.203 0.200 0.072
0.204 0.204 0.072
0.202 0.206 0.072
0.202 0.209 0.072
0.200 0.210 0.072
0.205 0.220 0.075
0.203 0.221 0.074
0.197 0.218 0.073
0.193 0.217 0.071
0.190 0.217 0.071
0.197 0.229 0.074
0.196 0.232 0.074
0.193 0.232 0.073
0.194 0.237 0.074
0.197 0.245 0.076
0.194 0.244 0.075
0.187 0.240 0.073
0.184 0.239 0.072
0.186 0.245 0.073
0.185 0.247 0.073
0.102 -0.138 0.041
0.103 -0.137 0.041
0.103 -0.136 0.041
0.103 -0.134 0.040
0.103 -0.133 0.041
0.104 -0.132 0.041
0.104 -0.130 0.041
0.105 -0.129 0.041
0.106 -0.128 0.041
0.106 -0.127 0.041
0.106 -0.125 0.040
0.105 -0.122 0.040
0.105 -0.120 0.040
0.106 -0.119 0.040
0.114 -0.127 0.043
0.104 -0.114 0.039
0.104 -0.113 0.039
0.100 -0.107 0.037
0.111 -0.116 0.040
0.124 -0.128 0.045
0.118 -0.119 0.043
0.117 -0.117 0.042
0.116 -0.114 0.042
0.255 -0.242 0.090
0.251 -0.235 0.088
0.257 -0.237 0.090
0.258 -0.234 0.090
0.258 -0.230 0.090
0.258 -0.227 0.089
0.258 -0.223 0.089
0.258 -0.219 0.089
0.263 -0.220 0.090
0.261 -0.215 0.089
0.254 -0.206 0.086
0.249 -0.198 0.084
0.203 -0.154 0.068
0.200 -0.149 0.066
0.199 -0.146 0.066
0.198 -0.143 0.066
0.199 -0.141 0.066
0.200 -0.139 0.066
0.204 -0.140 0.067
0.211 -0.142 0.069
0.195 -0.128 0.063
0.182 -0.118 0.059
0.176 -0.112 0.057
0.175 -0.110 0.057
0.198 -0.122 0.064
0.204 -0.123 0.066
0.203 -0.120 0.065
0.205 -0.119 0.065
0.207 -0.118 0.066
0.210 -0.117 0.067
0.212 -0.116 0.067
0.208 -0.111 0.066
0.206 -0.108 0.065
0.204 -0.105 0.064
0.203 -0.102 0.064
0.204 -0.101 0.064
0.206 -0.099 0.064
0.209 -0.098 0.065
0.209 -0.096 0.065
0.209 -0.094 0.065
0.211 -0.093 0.066
0.204 -0.088 0.063
0.206 -0.087 0.064
0.203 -0.083 0.063
0.206 -0.083 0.064
0.209 -0.082 0.064
0.211 -0.080 0.065
0.212 -0.078 0.065
0.213 -0.077 0.065
0.212 -0.074 0.065
0.215 -0.073 0.066
0.220 -0.073 0.067
0.225 -0.072 0.069
0.231 -0.072 0.070
0.236 -0.071 0.072
0.245 -0.072 0.074
0.249 -0.070 0.075
0.258 -0.071 0.078
0.267 -0.070 0.081
0.273 -0.069 0.083
0.270 -0.066 0.081
0.262 -0.062 0.079
0.210 -0.042 0.063
0.208 -0.039 0.063
0.207 -0.037 0.062
0.207 -0.035 0.062
0.208 -0.033 0.062
0.210 -0.032 0.063
0.211 -0.030 0.063
0.212 -0.028 0.064
0.215 -0.027 0.064
0.218 -0.025 0.065
0.276 -0.024 0.082
0.272 -0.021 0.081
0.272 -0.019 0.081
0.273 -0.016 0.082
0.273 -0.014 0.082
0.273 -0.011 0.082
0.273 -0.009 0.081
0.271 -0.006 0.081
0.272 -0.004 0.081
0.272 -0.001 0.081
0.272 0.001 0.081
0.272 0.004 0.081
0.270 0.006 0.081
0.271 0.009 0.081
0.276 0.011 0.083
0.278 0.014 0.083
0.273 0.016 0.082
0.270 0.019 0.081
0.268 0.021 0.080
0.271 0.024 0.081
0.270 0.026 0.081
0.271 0.029 0.081
0.282 0.032 0.084
0.276 0.034 0.083
0.270 0.036 0.081
0.272 0.039 0.082
0.277 0.042 0.083
0.280 0.045 0.084
0.285 0.049 0.086
0.281 0.051 0.085
0.276 0.052 0.083
0.270 0.054 0.081
0.269 0.056 0.081
0.264 0.057 0.080
0.248 0.056 0.075
0.232 0.055 0.070
0.223 0.055 0.068
0.208 0.053 0.063
0.223 0.059 0.068
0.238 0.066 0.072
0.248 0.071 0.076
0.256 0.075 0.078
0.277 0.084 0.084
0.282 0.088 0.086
0.282 0.091 0.086
0.279 0.093 0.085
0.245 0.084 0.075
0.245 0.087 0.075
0.250 0.091 0.077
0.249 0.093 0.077
0.249 0.096 0.077
0.247 0.097 0.077
0.245 0.099 0.076
0.245 0.101 0.076
0.245 0.104 0.076
0.246 0.107 0.077
0.249 0.111 0.078
0.248 0.113 0.078
0.247 0.115 0.078
0.247 0.118 0.078
0.247 0.120 0.078
0.248 0.124 0.078
0.250 0.127 0.079
0.250 0.130 0.079
0.248 0.132 0.079
0.247 0.134 0.079
0.247 0.137 0.079
0.247 0.140 0.079
0.245 0.141 0.079
0.244 0.144 0.079
0.245 0.147 0.079
0.246 0.150 0.080
0.244 0.152 0.080
0.242 0.154 0.079
0.245 0.158 0.080
0.246 0.162 0.081
0.253 0.170 0.084
0.254 0.174 0.084
0.247 0.172 0.082
0.245 0.174 0.082
0.244 0.176 0.082
0.244 0.179 0.082
0.243 0.182 0.082
0.245 0.187 0.083
0.244 0.189 0.083
0.240 0.189 0.082
0.235 0.189 0.081
0.227 0.185 0.078
0.214 0.178 0.074
0.209 0.183 0.073
0.201 0.179 0.071
0.204 0.185 0.072
0.206 0.190 0.074
0.207 0.194 0.074
0.209 0.199 0.075
0.206 0.200 0.075
0.202 0.200 0.074
0.199 0.200 0.073
0.200 0.204 0.074
0.196 0.204 0.073
0.196 0.206 0.073
0.195 0.209 0.073
0.198 0.216 0.075
0.195 0.216 0.074
0.190 0.215 0.073
0.195 0.223 0.075
0.193 0.225 0.075
0.194 0.229 0.076
0.191 0.231 0.075
0.192 0.235 0.076
0.195 0.242 0.077
0.196 0.247 0.078
0.192 0.247 0.077
0.192 0.249 0.077
0.191 0.252 0.078
0.190 0.255 0.078
0.102 -0.139 0.042
0.103 -0.138 0.042
0.103 -0.137 0.042
0.103 -0.135 0.042
0.104 -0.134 0.042
0.105 -0.133 0.042
0.105 -0.132 0.042
0.105 -0.130 0.042
0.105 -0.128 0.042
0.105 -0.126 0.042
0.105 -0.125 0.042
0.104 -0.121 0.041
0.108 -0.124 0.042
0.113 -0.128 0.044
0.106 -0.119 0.041
0.104 -0.114 0.040
0.099 -0.107 0.038
0.101 -0.107 0.038
0.103 -0.107 0.039
0.115 -0.116 0.043
0.110 -0.110 0.041
0.110 -0.108 0.041
0.243 -0.232 0.089
0.248 -0.233 0.090
0.247 -0.228 0.090
0.253 -0.230 0.091
0.253 -0.227 0.091
0.252 -0.222 0.090
0.253 -0.219 0.090
0.253 -0.216 0.090
0.252 -0.212 0.089
0.251 -0.207 0.088
0.249 -0.202 0.087
0.246 -0.196 0.086
0.238 -0.187 0.083
0.203 -0.154 0.070
0.202 -0.151 0.069
0.200 -0.147 0.068
0.197 -0.142 0.067
0.199 -0.141 0.068
0.203 -0.142 0.069
0.200 -0.137 0.068
0.203 -0.137 0.068
0.189 -0.125 0.063
0.178 -0.116 0.060
0.179 -0.114 0.060
0.195 -0.122 0.065
0.203 -0.124 0.067
0.205 -0.123 0.068
0.205 -0.121 0.068
0.204 -0.118 0.067
0.206 -0.117 0.068
0.208 -0.116 0.068
0.209 -0.114 0.068
0.209 -0.112 0.068
0.206 -0.108 0.067
0.203 -0.104 0.066
0.204 -0.103 0.066
0.206 -0.102 0.067
0.206 -0.100 0.067
0.205 -0.097 0.066
0.209 -0.096 0.067
0.202 -0.091 0.065
0.211 -0.093 0.068
0.210 -0.091 0.067
0.198 -0.083 0.063
0.205 -0.084 0.065
0.206 -0.083 0.066
0.208 -0.081 0.066
0.211 -0.080 0.067
0.212 -0.079 0.067
0.213 -0.077 0.067
0.210 -0.074 0.066
0.210 -0.072 0.066
0.214 -0.071 0.067
0.223 -0.072 0.070
0.230 -0.072 0.072
0.242 -0.073 0.076
0.247 -0.072 0.077
0.251 -0.071 0.079
0.257 -0.070 0.080
0.264 -0.070 0.082
0.270 -0.069 0.084
