VERSION .7
FIELDS x y z
SIZE 4 4 4
TYPE F F F
COUNT 1 1 1
WIDTH     2586
HEIGHT 1
VIEWPOINT 0 0 0 1 0 0 0
POINTS     2586
DATA ascii
0.344 0.183 0.032
0.339 0.184 0.031
0.333 0.184 0.031
0.328 0.185 0.031
0.319 0.183 0.030
0.315 0.185 0.030
0.309 0.185 0.029
0.304 0.185 0.029
0.298 0.185 0.028
0.295 0.186 0.028
0.290 0.187 0.028
0.287 0.188 0.027
0.280 0.187 0.027
0.277 0.188 0.027
0.268 0.185 0.026
0.265 0.187 0.026
0.263 0.189 0.026
0.261 0.191 0.026
0.261 0.194 0.026
0.260 0.197 0.026
0.260 0.200 0.026
0.261 0.204 0.026
0.260 0.207 0.026
0.258 0.209 0.026
0.258 0.212 0.026
0.258 0.216 0.026
0.258 0.220 0.026
0.258 0.223 0.026
0.257 0.226 0.026
0.258 0.231 0.027
0.257 0.234 0.027
0.257 0.238 0.027
0.257 0.242 0.027
0.256 0.245 0.027
0.256 0.249 0.027
0.255 0.252 0.027
0.438 0.455 0.048
0.436 0.460 0.048
0.360 0.413 0.041
0.338 0.400 0.039
0.331 0.398 0.038
0.324 0.396 0.038
0.313 0.390 0.037
0.304 0.385 0.036
0.302 0.387 0.036
0.297 0.387 0.036
0.183 -0.253 0.024
0.180 -0.245 0.024
0.179 -0.241 0.023
0.178 -0.236 0.023
0.179 -0.235 0.023
0.181 -0.234 0.023
0.183 -0.233 0.023
0.185 -0.232 0.024
0.186 -0.231 0.024
0.188 -0.229 0.024
0.189 -0.227 0.024
0.192 -0.227 0.024
0.193 -0.226 0.024
0.196 -0.225 0.024
0.200 -0.226 0.024
0.200 -0.224 0.024
0.203 -0.223 0.024
0.204 -0.221 0.024
0.206 -0.220 0.025
0.208 -0.218 0.025
0.210 -0.217 0.025
0.213 -0.217 0.025
0.216 -0.216 0.025
0.219 -0.216 0.025
0.221 -0.215 0.025
0.223 -0.214 0.026
0.225 -0.212 0.026
0.228 -0.212 0.026
0.231 -0.211 0.026
0.234 -0.210 0.026
0.237 -0.209 0.026
0.239 -0.209 0.027
0.242 -0.208 0.027
0.245 -0.206 0.027
0.247 -0.205 0.027
0.248 -0.203 0.027
0.250 -0.201 0.027
0.240 -0.190 0.026
0.209 -0.160 0.023
0.202 -0.152 0.022
0.201 -0.149 0.021
0.208 -0.152 0.022
0.213 -0.153 0.023
0.209 -0.147 0.022
0.205 -0.142 0.022
0.205 -0.140 0.022
0.212 -0.142 0.022
0.217 -0.143 0.023
0.211 -0.136 0.022
0.208 -0.132 0.022
0.205 -0.128 0.021
0.207 -0.127 0.021
0.206 -0.124 0.021
0.207 -0.122 0.021
0.209 -0.121 0.021
0.210 -0.119 0.021
0.211 -0.117 0.021
0.211 -0.115 0.021
0.211 -0.113 0.021
0.213 -0.112 0.022
0.214 -0.110 0.022
0.210 -0.106 0.021
0.208 -0.103 0.021
0.210 -0.102 0.021
0.208 -0.098 0.021
0.211 -0.098 0.021
0.204 -0.092 0.020
0.209 -0.093 0.021
0.203 -0.088 0.020
0.223 -0.094 0.022
0.219 -0.091 0.022
0.217 -0.087 0.021
0.214 -0.084 0.021
0.214 -0.082 0.021
0.208 -0.078 0.020
0.221 -0.078 0.022
0.234 -0.080 0.023
0.234 -0.078 0.023
0.234 -0.076 0.023
0.241 -0.076 0.024
0.254 -0.078 0.025
0.254 -0.075 0.025
0.411 -0.111 0.040
0.413 -0.107 0.040
0.414 -0.104 0.040
0.416 -0.100 0.040
0.417 -0.096 0.040
0.379 -0.077 0.036
0.373 -0.073 0.036
0.361 -0.067 0.035
0.287 -0.048 0.028
0.288 -0.046 0.028
0.290 -0.043 0.028
0.285 -0.040 0.027
0.284 -0.037 0.027
0.287 -0.035 0.027
0.290 -0.033 0.028
0.291 -0.030 0.028
0.290 -0.027 0.028
0.290 -0.025 0.028
0.288 -0.022 0.027
0.288 -0.020 0.028
0.291 -0.017 0.028
0.293 -0.015 0.028
0.298 -0.012 0.028
0.301 -0.010 0.029
0.301 -0.007 0.029
0.302 -0.004 0.029
0.298 -0.001 0.029
0.298 0.001 0.028
0.300 0.004 0.029
0.314 0.007 0.030
0.313 0.010 0.030
0.305 0.012 0.029
0.302 0.015 0.029
0.304 0.018 0.029
0.309 0.021 0.030
0.304 0.023 0.029
0.300 0.026 0.029
0.305 0.029 0.029
0.304 0.031 0.029
0.305 0.034 0.029
0.311 0.038 0.030
0.317 0.041 0.030
0.315 0.044 0.030
0.314 0.047 0.030
0.318 0.050 0.031
0.317 0.053 0.030
0.306 0.054 0.029
0.294 0.055 0.028
0.302 0.059 0.029
0.313 0.064 0.030
0.306 0.068 0.030
0.298 0.069 0.029
0.305 0.074 0.030
0.320 0.080 0.031
0.329 0.086 0.032
0.321 0.087 0.031
0.306 0.085 0.030
0.303 0.088 0.030
0.311 0.093 0.030
0.307 0.095 0.030
0.304 0.097 0.030
0.306 0.100 0.030
0.316 0.107 0.031
0.318 0.110 0.031
0.325 0.116 0.032
0.318 0.117 0.031
0.319 0.120 0.032
0.333 0.128 0.033
0.337 0.133 0.033
0.424 0.176 0.042
0.418 0.178 0.042
0.410 0.179 0.041
0.405 0.181 0.041
0.395 0.181 0.040
0.388 0.181 0.039
0.378 0.181 0.038
0.371 0.181 0.038
0.366 0.183 0.037
0.356 0.182 0.036
0.347 0.181 0.035
0.343 0.182 0.035
0.338 0.183 0.035
0.334 0.185 0.034
0.330 0.186 0.034
0.320 0.184 0.033
0.315 0.185 0.033
0.311 0.186 0.032
0.307 0.187 0.032
0.300 0.186 0.031
0.295 0.187 0.031
0.292 0.188 0.031
0.285 0.187 0.030
0.278 0.186 0.029
0.275 0.187 0.029
0.267 0.185 0.028
0.265 0.187 0.028
0.263 0.188 0.028
0.262 0.191 0.028
0.261 0.194 0.028
0.260 0.197 0.028
0.261 0.201 0.028
0.260 0.203 0.028
0.259 0.206 0.028
0.258 0.209 0.029
0.258 0.212 0.029
0.258 0.216 0.029
0.258 0.220 0.029
0.259 0.224 0.029
0.258 0.227 0.029
0.256 0.229 0.029
0.257 0.233 0.029
0.257 0.238 0.030
0.256 0.241 0.030
0.255 0.244 0.030
0.255 0.248 0.030
0.253 0.251 0.030
0.338 0.369 0.041
0.334 0.371 0.041
0.331 0.399 0.042
0.313 0.390 0.041
0.306 0.388 0.040
0.301 0.387 0.040
0.302 0.394 0.040
0.183 -0.252 0.026
0.179 -0.244 0.026
0.179 -0.241 0.026
0.179 -0.238 0.025
0.179 -0.235 0.025
0.180 -0.233 0.025
0.182 -0.232 0.025
0.184 -0.231 0.026
0.186 -0.230 0.026
0.187 -0.229 0.026
0.190 -0.229 0.026
0.192 -0.227 0.026
0.194 -0.226 0.026
0.195 -0.224 0.026
0.197 -0.223 0.026
0.201 -0.224 0.027
0.202 -0.222 0.027
0.204 -0.221 0.027
0.206 -0.220 0.027
0.208 -0.219 0.027
0.210 -0.217 0.027
0.213 -0.217 0.027
0.215 -0.216 0.027
0.217 -0.215 0.028
0.221 -0.215 0.028
0.223 -0.213 0.028
0.225 -0.212 0.028
0.228 -0.212 0.028
0.231 -0.211 0.029
0.234 -0.210 0.029
0.237 -0.210 0.029
0.240 -0.209 0.029
0.243 -0.208 0.029
0.246 -0.207 0.030
0.247 -0.205 0.030
0.249 -0.204 0.030
0.250 -0.201 0.030
0.247 -0.195 0.029
0.218 -0.167 0.026
0.209 -0.157 0.025
0.200 -0.148 0.023
0.201 -0.146 0.023
0.208 -0.149 0.024
0.215 -0.151 0.025
0.203 -0.141 0.023
0.206 -0.141 0.024
0.214 -0.143 0.025
0.216 -0.142 0.025
0.211 -0.136 0.024
0.203 -0.129 0.023
0.208 -0.130 0.024
0.208 -0.127 0.024
0.208 -0.125 0.023
0.207 -0.122 0.023
0.208 -0.121 0.023
0.210 -0.119 0.023
0.210 -0.117 0.023
0.210 -0.115 0.023
0.213 -0.114 0.024
0.212 -0.111 0.023
0.212 -0.109 0.023
0.214 -0.108 0.024
0.206 -0.102 0.023
0.215 -0.104 0.024
0.212 -0.101 0.023
0.209 -0.097 0.023
0.206 -0.093 0.022
0.210 -0.093 0.023
0.208 -0.090 0.023
0.212 -0.090 0.023
0.215 -0.089 0.023
0.214 -0.086 0.023
0.212 -0.083 0.023
0.210 -0.081 0.023
0.202 -0.076 0.022
0.208 -0.076 0.022
0.227 -0.080 0.024
0.229 -0.079 0.025
0.219 -0.073 0.023
0.233 -0.076 0.025
0.248 -0.079 0.027
0.251 -0.077 0.027
0.257 -0.076 0.027
0.263 -0.076 0.028
0.408 -0.110 0.043
0.411 -0.107 0.044
0.415 -0.104 0.044
0.420 -0.101 0.044
0.419 -0.097 0.044
0.375 -0.076 0.039
0.387 -0.075 0.041
0.287 -0.048 0.030
0.286 -0.045 0.030
0.286 -0.043 0.030
0.285 -0.040 0.030
0.283 -0.037 0.030
0.287 -0.035 0.030
0.288 -0.033 0.030
0.289 -0.030 0.030
0.289 -0.027 0.030
0.291 -0.025 0.030
0.289 -0.022 0.030
0.290 -0.020 0.030
0.292 -0.017 0.031
0.292 -0.015 0.031
0.296 -0.012 0.031
0.304 -0.010 0.032
0.312 -0.007 0.033
0.304 -0.004 0.032
0.300 -0.001 0.031
0.297 0.001 0.031
0.308 0.004 0.032
0.311 0.007 0.033
0.311 0.010 0.033
0.302 0.012 0.032
0.300 0.015 0.031
0.302 0.018 0.032
0.309 0.021 0.032
0.303 0.023 0.032
0.297 0.025 0.031
0.295 0.028 0.031
0.296 0.031 0.031
0.306 0.034 0.032
0.313 0.038 0.033
0.302 0.040 0.032
0.308 0.043 0.032
0.316 0.047 0.033
0.311 0.049 0.033
0.323 0.054 0.034
0.317 0.056 0.033
0.306 0.057 0.032
0.302 0.059 0.032
0.318 0.065 0.034
0.310 0.066 0.033
0.304 0.068 0.032
0.315 0.079 0.033
0.329 0.086 0.035
0.332 0.090 0.035
0.320 0.089 0.034
0.306 0.088 0.033
0.305 0.091 0.033
0.302 0.093 0.032
0.299 0.095 0.032
0.314 0.103 0.034
0.320 0.108 0.034
0.322 0.112 0.035
0.317 0.113 0.034
0.313 0.115 0.034
0.316 0.119 0.034
0.321 0.124 0.035
0.331 0.131 0.036
0.337 0.137 0.037
0.406 0.173 0.044
0.401 0.175 0.044
0.399 0.179 0.044
0.399 0.183 0.044
0.393 0.184 0.043
0.382 0.183 0.042
0.373 0.182 0.041
0.364 0.182 0.040
0.358 0.182 0.040
0.349 0.182 0.039
0.342 0.182 0.038
0.338 0.183 0.038
0.334 0.185 0.037
0.328 0.185 0.037
0.322 0.185 0.036
0.315 0.185 0.036
0.311 0.186 0.035
0.306 0.187 0.035
0.299 0.186 0.034
0.295 0.187 0.034
0.289 0.187 0.033
0.284 0.186 0.033
0.280 0.187 0.032
0.277 0.188 0.032
0.270 0.187 0.031
0.265 0.187 0.031
0.263 0.189 0.031
0.262 0.191 0.031
0.261 0.194 0.031
0.261 0.197 0.031
0.260 0.200 0.031
0.260 0.204 0.031
0.259 0.206 0.031
0.258 0.209 0.031
0.259 0.213 0.031
0.259 0.217 0.032
0.259 0.221 0.032
0.259 0.224 0.032
0.258 0.227 0.032
0.257 0.230 0.032
0.257 0.234 0.032
0.256 0.237 0.032
0.255 0.240 0.032
0.255 0.244 0.032
0.254 0.248 0.033
0.253 0.250 0.033
0.328 0.358 0.044
0.322 0.358 0.043
0.325 0.367 0.044
0.314 0.367 0.043
0.302 0.359 0.042
0.305 0.368 0.043
0.304 0.379 0.043
0.304 0.384 0.043
0.300 0.386 0.043
0.300 0.392 0.043
0.172 -0.238 0.027
0.177 -0.241 0.028
0.178 -0.240 0.028
0.181 -0.241 0.028
0.179 -0.235 0.027
0.181 -0.234 0.028
0.183 -0.233 0.028
0.185 -0.232 0.028
0.187 -0.232 0.028
0.189 -0.230 0.028
0.190 -0.229 0.028
0.193 -0.228 0.028
0.193 -0.226 0.028
0.195 -0.224 0.028
0.197 -0.223 0.028
0.200 -0.223 0.029
0.202 -0.222 0.029
0.204 -0.221 0.029
0.206 -0.220 0.029
0.208 -0.219 0.029
0.211 -0.218 0.029
0.213 -0.217 0.030
0.214 -0.215 0.030
0.217 -0.214 0.030
0.221 -0.215 0.030
0.223 -0.214 0.030
0.226 -0.213 0.031
0.229 -0.212 0.031
0.231 -0.211 0.031
0.234 -0.210 0.031
0.238 -0.210 0.032
0.241 -0.210 0.032
0.249 -0.213 0.033
0.250 -0.211 0.033
0.252 -0.209 0.033
0.253 -0.207 0.033
0.254 -0.205 0.033
0.254 -0.201 0.033
0.219 -0.168 0.028
0.211 -0.159 0.027
0.206 -0.153 0.026
0.204 -0.149 0.026
0.206 -0.148 0.026
0.206 -0.145 0.026
0.205 -0.142 0.026
0.207 -0.141 0.026
0.214 -0.143 0.027
0.213 -0.140 0.026
0.203 -0.131 0.025
0.201 -0.128 0.025
0.205 -0.128 0.025
0.208 -0.128 0.026
0.207 -0.125 0.025
0.208 -0.123 0.025
0.205 -0.119 0.025
0.201 -0.115 0.024
0.219 -0.122 0.026
0.222 -0.121 0.027
0.216 -0.116 0.026
0.210 -0.111 0.025
0.213 -0.110 0.026
0.212 -0.107 0.025
0.214 -0.106 0.026
0.201 -0.097 0.024
0.203 -0.096 0.024
0.202 -0.093 0.024
0.204 -0.092 0.024
0.197 -0.087 0.023
0.204 -0.088 0.024
0.207 -0.088 0.024
0.213 -0.088 0.025
0.214 -0.086 0.025
0.213 -0.084 0.025
0.207 -0.079 0.024
0.212 -0.079 0.025
0.204 -0.074 0.024
0.224 -0.079 0.026
0.231 -0.080 0.027
0.231 -0.078 0.027
0.231 -0.075 0.027
0.244 -0.077 0.028
0.252 -0.077 0.029
0.259 -0.077 0.030
0.268 -0.077 0.031
0.403 -0.109 0.046
0.411 -0.107 0.047
0.420 -0.105 0.048
0.422 -0.102 0.048
0.419 -0.097 0.048
0.391 -0.080 0.045
0.377 -0.074 0.043
0.283 -0.047 0.032
0.282 -0.045 0.032
0.282 -0.042 0.032
0.283 -0.040 0.032
0.284 -0.037 0.032
0.288 -0.035 0.033
0.288 -0.033 0.033
0.286 -0.030 0.033
0.288 -0.027 0.033
0.289 -0.025 0.033
0.290 -0.022 0.033
0.291 -0.020 0.033
0.291 -0.017 0.033
0.290 -0.014 0.033
0.292 -0.012 0.033
0.298 -0.009 0.034
0.307 -0.007 0.035
0.302 -0.004 0.034
0.297 -0.001 0.034
0.299 0.001 0.034
0.307 0.004 0.035
0.307 0.007 0.035
0.312 0.010 0.035
0.304 0.012 0.035
0.303 0.015 0.034
0.298 0.017 0.034
0.304 0.020 0.035
0.305 0.023 0.035
0.303 0.026 0.034
0.299 0.028 0.034
0.302 0.031 0.034
0.309 0.035 0.035
0.312 0.038 0.036
0.307 0.040 0.035
0.296 0.041 0.034
0.297 0.044 0.034
0.308 0.049 0.035
0.308 0.052 0.035
0.316 0.056 0.036
0.307 0.057 0.035
0.310 0.061 0.036
0.307 0.063 0.035
0.311 0.066 0.036
0.296 0.066 0.034
0.289 0.070 0.033
0.308 0.077 0.036
0.309 0.081 0.036
0.315 0.085 0.036
0.327 0.091 0.038
0.319 0.092 0.037
0.309 0.092 0.036
0.306 0.094 0.036
0.312 0.099 0.036
0.319 0.104 0.037
0.327 0.110 0.038
0.324 0.112 0.038
0.318 0.113 0.037
0.318 0.117 0.037
0.312 0.118 0.037
0.313 0.121 0.037
0.320 0.127 0.038
0.334 0.136 0.039
0.345 0.144 0.041
0.356 0.152 0.042
0.387 0.169 0.046
0.400 0.179 0.048
0.401 0.183 0.048
0.393 0.184 0.047
0.386 0.185 0.046
0.370 0.181 0.044
0.363 0.181 0.044
0.356 0.182 0.043
0.349 0.182 0.042
0.344 0.183 0.042
0.339 0.184 0.041
0.332 0.184 0.041
0.326 0.184 0.040
0.316 0.182 0.039
0.314 0.184 0.039
0.310 0.185 0.038
0.304 0.185 0.038
0.298 0.185 0.037
0.294 0.186 0.037
0.288 0.186 0.036
0.284 0.187 0.036
0.280 0.187 0.035
0.273 0.186 0.034
0.268 0.186 0.034
0.265 0.187 0.034
0.263 0.189 0.034
0.261 0.191 0.033
0.260 0.194 0.033
0.260 0.197 0.034
0.260 0.201 0.034
0.259 0.203 0.034
0.259 0.206 0.034
0.259 0.210 0.034
0.259 0.213 0.034
0.259 0.217 0.034
0.259 0.221 0.034
0.258 0.224 0.035
0.257 0.227 0.035
0.258 0.231 0.035
0.257 0.234 0.035
0.255 0.237 0.035
0.255 0.240 0.035
0.255 0.245 0.035
0.255 0.248 0.035
0.253 0.251 0.035
0.364 0.379 0.052
0.359 0.380 0.051
0.330 0.355 0.048
0.322 0.352 0.047
0.319 0.355 0.047
0.321 0.363 0.047
0.312 0.359 0.046
0.302 0.353 0.045
0.292 0.347 0.044
0.294 0.355 0.044
0.304 0.373 0.046
0.304 0.379 0.047
0.300 0.380 0.046
0.298 0.384 0.046
0.298 0.389 0.047
0.173 -0.239 0.029
0.175 -0.239 0.029
0.180 -0.243 0.030
0.184 -0.245 0.031
0.187 -0.245 0.031
0.183 -0.236 0.030
0.187 -0.238 0.030
0.189 -0.237 0.031
0.190 -0.235 0.031
0.191 -0.233 0.031
0.192 -0.232 0.031
0.195 -0.232 0.031
0.199 -0.232 0.031
0.206 -0.237 0.032
0.284 -0.264 0.041
0.288 -0.264 0.042
0.292 -0.263 0.042
0.291 -0.258 0.042
0.292 -0.255 0.042
0.293 -0.252 0.042
0.294 -0.249 0.042
0.294 -0.245 0.041
0.292 -0.239 0.041
0.216 -0.166 0.030
0.210 -0.158 0.029
0.209 -0.155 0.029
0.207 -0.151 0.028
0.205 -0.147 0.028
0.206 -0.145 0.028
0.208 -0.145 0.028
0.209 -0.142 0.028
0.210 -0.141 0.028
0.214 -0.141 0.029
0.209 -0.135 0.028
0.205 -0.130 0.027
0.207 -0.129 0.027
0.207 -0.127 0.027
0.209 -0.126 0.028
0.208 -0.123 0.027
0.208 -0.120 0.027
0.204 -0.116 0.027
0.205 -0.114 0.027
0.219 -0.120 0.029
0.215 -0.115 0.028
0.212 -0.111 0.027
0.210 -0.108 0.027
0.215 -0.109 0.028
0.212 -0.105 0.027
0.205 -0.099 0.026
0.205 -0.097 0.026
0.211 -0.098 0.027
0.210 -0.095 0.027
0.210 -0.093 0.027
0.204 -0.089 0.026
0.209 -0.088 0.027
0.211 -0.087 0.027
0.216 -0.087 0.027
0.214 -0.084 0.027
0.210 -0.081 0.027
0.209 -0.078 0.026
0.220 -0.080 0.028
0.225 -0.080 0.028
0.231 -0.080 0.029
0.235 -0.079 0.029
0.235 -0.077 0.029
0.239 -0.076 0.030
0.250 -0.077 0.031
0.257 -0.076 0.032
0.267 -0.077 0.033
0.277 -0.077 0.034
0.404 -0.109 0.050
0.418 -0.109 0.052
0.424 -0.106 0.053
0.423 -0.102 0.052
0.417 -0.097 0.052
0.377 -0.077 0.047
0.368 -0.072 0.045
0.353 -0.066 0.044
0.279 -0.047 0.034
0.280 -0.044 0.034
0.283 -0.042 0.035
0.283 -0.040 0.035
0.285 -0.037 0.035
0.291 -0.036 0.036
0.288 -0.033 0.035
0.288 -0.030 0.035
0.289 -0.027 0.035
0.289 -0.025 0.035
0.288 -0.022 0.035
0.293 -0.020 0.036
0.293 -0.017 0.036
0.290 -0.014 0.036
0.290 -0.012 0.036
0.291 -0.009 0.036
0.293 -0.007 0.036
0.296 -0.004 0.036
0.298 -0.001 0.037
0.298 0.001 0.037
0.304 0.004 0.037
0.309 0.007 0.038
0.308 0.010 0.038
0.304 0.012 0.037
0.304 0.015 0.037
0.300 0.018 0.037
0.309 0.021 0.038
0.312 0.024 0.038
0.300 0.026 0.037
0.296 0.028 0.036
0.311 0.032 0.038
0.314 0.035 0.039
0.308 0.038 0.038
0.305 0.040 0.038
0.298 0.042 0.037
0.296 0.044 0.036
0.296 0.047 0.037
0.310 0.052 0.038
0.304 0.054 0.038
0.317 0.059 0.039
0.312 0.061 0.039
0.311 0.064 0.039
0.310 0.066 0.038
0.314 0.070 0.039
0.309 0.072 0.038
0.310 0.075 0.039
0.299 0.075 0.037
0.297 0.077 0.037
0.306 0.083 0.038
0.326 0.091 0.041
0.326 0.094 0.041
0.306 0.091 0.038
0.308 0.095 0.039
0.317 0.101 0.040
0.322 0.106 0.041
0.317 0.107 0.040
0.316 0.110 0.040
0.318 0.113 0.040
0.315 0.116 0.040
0.312 0.118 0.040
0.308 0.119 0.039
0.317 0.126 0.040
0.330 0.134 0.042
0.343 0.143 0.044
0.355 0.152 0.045
0.402 0.180 0.052
0.392 0.179 0.051
0.393 0.184 0.051
0.384 0.184 0.050
0.370 0.181 0.048
0.363 0.182 0.047
0.355 0.181 0.046
0.348 0.181 0.045
0.342 0.182 0.045
0.337 0.183 0.044
0.332 0.184 0.044
0.326 0.184 0.043
0.314 0.181 0.042
0.313 0.184 0.042
0.308 0.185 0.041
0.303 0.185 0.040
0.299 0.186 0.040
0.294 0.186 0.040
0.290 0.187 0.039
0.283 0.186 0.038
0.279 0.187 0.038
0.273 0.186 0.037
0.268 0.186 0.037
0.265 0.187 0.036
0.263 0.189 0.036
0.261 0.191 0.036
0.260 0.193 0.036
0.261 0.198 0.036
0.260 0.200 0.036
0.259 0.203 0.036
0.258 0.206 0.036
0.259 0.210 0.037
0.260 0.214 0.037
0.259 0.217 0.037
0.258 0.220 0.037
0.257 0.223 0.037
0.257 0.227 0.037
0.257 0.231 0.037
0.256 0.234 0.038
0.255 0.236 0.038
0.255 0.240 0.038
0.255 0.245 0.038
0.255 0.248 0.038
0.253 0.251 0.038
0.357 0.372 0.055
0.354 0.375 0.055
0.321 0.352 0.050
0.322 0.358 0.051
0.312 0.354 0.050
0.303 0.349 0.048
0.294 0.344 0.047
0.290 0.345 0.047
0.298 0.360 0.049
0.307 0.378 0.051
0.304 0.380 0.050
0.300 0.380 0.050
0.298 0.384 0.050
0.294 0.385 0.050
0.178 -0.246 0.032
0.176 -0.240 0.032
0.181 -0.244 0.032
0.187 -0.249 0.033
0.276 -0.327 0.047
0.278 -0.325 0.047
0.280 -0.314 0.047
0.283 -0.312 0.047
0.286 -0.310 0.047
0.286 -0.306 0.047
0.286 -0.301 0.046
0.288 -0.299 0.047
0.290 -0.296 0.047
0.291 -0.293 0.047
0.291 -0.288 0.046
0.292 -0.285 0.046
0.293 -0.281 0.046
0.287 -0.271 0.045
0.289 -0.269 0.045
0.293 -0.268 0.045
0.292 -0.263 0.045
0.291 -0.258 0.045
0.291 -0.254 0.045
0.292 -0.251 0.045
0.293 -0.248 0.045
0.294 -0.245 0.045
0.291 -0.238 0.044
0.227 -0.177 0.034
0.215 -0.165 0.032
0.209 -0.158 0.031
0.208 -0.155 0.031
0.206 -0.150 0.030
0.203 -0.146 0.030
0.206 -0.145 0.030
0.208 -0.144 0.030
0.209 -0.142 0.030
0.205 -0.138 0.030
0.209 -0.138 0.030
0.209 -0.135 0.030
0.206 -0.131 0.029
0.204 -0.128 0.029
0.207 -0.127 0.029
0.206 -0.124 0.029
0.206 -0.122 0.029
0.204 -0.118 0.029
0.205 -0.116 0.029
0.206 -0.115 0.029
0.210 -0.115 0.029
0.213 -0.114 0.030
0.212 -0.112 0.030
0.210 -0.108 0.029
0.212 -0.107 0.029
0.210 -0.104 0.029
0.206 -0.100 0.029
0.207 -0.098 0.028
0.210 -0.098 0.029
0.207 -0.094 0.028
0.212 -0.094 0.029
0.205 -0.089 0.028
0.207 -0.088 0.028
0.210 -0.087 0.029
0.215 -0.087 0.029
0.216 -0.085 0.029
0.209 -0.080 0.028
0.212 -0.079 0.029
0.215 -0.078 0.029
0.224 -0.080 0.030
0.231 -0.080 0.031
0.231 -0.078 0.031
0.234 -0.076 0.032
0.240 -0.076 0.032
0.248 -0.076 0.033
0.255 -0.076 0.034
0.264 -0.076 0.035
0.280 -0.078 0.038
0.411 -0.111 0.055
0.421 -0.109 0.056
0.428 -0.107 0.057
0.421 -0.102 0.056
0.418 -0.097 0.056
0.371 -0.076 0.049
0.370 -0.072 0.049
0.353 -0.066 0.047
0.341 -0.060 0.045
0.279 -0.047 0.037
0.283 -0.045 0.037
0.284 -0.042 0.038
0.285 -0.040 0.038
0.285 -0.037 0.038
0.288 -0.035 0.038
0.289 -0.033 0.038
0.289 -0.030 0.038
0.292 -0.028 0.039
0.289 -0.025 0.038
0.290 -0.022 0.038
0.294 -0.020 0.039
0.295 -0.017 0.039
0.291 -0.015 0.038
0.289 -0.012 0.038
0.289 -0.009 0.038
0.289 -0.007 0.038
0.294 -0.004 0.039
0.302 -0.001 0.040
0.299 0.001 0.039
0.302 0.004 0.040
0.307 0.007 0.040
0.308 0.010 0.041
0.304 0.012 0.040
0.299 0.015 0.039
0.305 0.018 0.040
0.309 0.021 0.041
0.306 0.023 0.040
0.288 0.025 0.038
0.284 0.027 0.038
0.305 0.032 0.040
0.311 0.035 0.041
0.303 0.037 0.040
0.304 0.040 0.040
0.306 0.043 0.041
0.305 0.046 0.040
0.300 0.048 0.040
0.299 0.050 0.040
0.311 0.055 0.041
0.315 0.059 0.042
0.320 0.063 0.043
0.318 0.065 0.042
0.320 0.069 0.043
0.323 0.072 0.043
0.321 0.075 0.043
0.315 0.076 0.042
0.302 0.076 0.040
0.291 0.076 0.039
0.309 0.084 0.041
0.324 0.091 0.043
0.316 0.091 0.043
0.297 0.089 0.040
0.300 0.093 0.040
0.319 0.102 0.043
0.315 0.103 0.043
0.310 0.105 0.042
0.308 0.107 0.042
0.308 0.110 0.042
0.314 0.115 0.043
0.306 0.115 0.042
0.305 0.118 0.042
0.312 0.124 0.043
0.324 0.132 0.044
0.345 0.144 0.047
0.355 0.152 0.049
0.368 0.161 0.051
0.387 0.173 0.053
0.391 0.179 0.054
0.386 0.181 0.054
0.384 0.184 0.053
0.372 0.182 0.052
0.366 0.183 0.051
0.358 0.183 0.050
0.348 0.181 0.049
0.342 0.182 0.048
0.335 0.182 0.047
0.330 0.183 0.047
0.325 0.184 0.046
0.318 0.184 0.045
0.314 0.185 0.045
0.307 0.184 0.044
0.303 0.185 0.043
0.299 0.186 0.043
0.295 0.187 0.043
0.290 0.187 0.042
0.285 0.187 0.041
0.281 0.188 0.041
0.273 0.186 0.040
0.268 0.186 0.039
0.265 0.187 0.039
0.263 0.189 0.039
0.261 0.191 0.039
0.260 0.194 0.039
0.260 0.197 0.039
0.260 0.200 0.039
0.259 0.203 0.039
0.259 0.206 0.039
0.260 0.211 0.040
0.259 0.214 0.040
0.259 0.217 0.040
0.258 0.220 0.040
0.257 0.223 0.040
0.256 0.226 0.040
0.257 0.230 0.040
0.256 0.234 0.040
0.256 0.238 0.041
0.254 0.240 0.040
0.255 0.245 0.041
0.254 0.248 0.041
0.253 0.251 0.041
0.353 0.374 0.059
0.345 0.371 0.058
0.302 0.342 0.051
0.297 0.343 0.051
0.290 0.340 0.050
0.290 0.345 0.050
0.298 0.361 0.052
0.306 0.376 0.054
0.304 0.380 0.054
0.300 0.381 0.054
0.299 0.385 0.054
0.297 0.388 0.054
0.184 -0.255 0.036
0.177 -0.242 0.034
0.185 -0.249 0.035
0.187 -0.250 0.036
0.277 -0.358 0.052
0.279 -0.357 0.052
0.279 -0.352 0.052
0.280 -0.348 0.052
0.285 -0.349 0.052
0.287 -0.346 0.053
0.285 -0.339 0.052
0.284 -0.333 0.051
0.288 -0.332 0.052
0.290 -0.329 0.052
0.284 -0.318 0.051
0.287 -0.316 0.051
0.288 -0.313 0.051
0.288 -0.308 0.050
0.289 -0.304 0.050
0.289 -0.299 0.050
0.291 -0.298 0.050
0.292 -0.294 0.050
0.293 -0.290 0.050
0.293 -0.285 0.049
0.288 -0.276 0.048
0.287 -0.272 0.048
0.289 -0.269 0.048
0.290 -0.266 0.048
0.291 -0.262 0.048
0.289 -0.256 0.047
0.289 -0.253 0.047
0.289 -0.249 0.047
0.286 -0.242 0.046
0.285 -0.237 0.046
0.289 -0.237 0.047
0.212 -0.163 0.034
0.205 -0.155 0.032
0.206 -0.153 0.032
0.205 -0.150 0.032
0.203 -0.146 0.032
0.202 -0.143 0.031
0.206 -0.143 0.032
0.207 -0.142 0.032
0.206 -0.138 0.032
0.205 -0.135 0.032
0.208 -0.135 0.032
0.202 -0.128 0.031
0.208 -0.130 0.032
0.206 -0.126 0.031
0.205 -0.123 0.031
0.204 -0.121 0.031
0.206 -0.119 0.031
0.203 -0.115 0.030
0.207 -0.116 0.031
0.203 -0.111 0.030
0.211 -0.114 0.032
0.211 -0.111 0.031
0.211 -0.109 0.031
0.207 -0.105 0.031
0.207 -0.102 0.031
0.203 -0.098 0.030
0.201 -0.095 0.030
0.203 -0.094 0.030
0.210 -0.095 0.031
0.198 -0.088 0.029
0.205 -0.089 0.030
0.198 -0.084 0.029
0.211 -0.087 0.031
0.217 -0.088 0.032
0.217 -0.086 0.032
0.215 -0.083 0.031
0.202 -0.076 0.029
0.213 -0.078 0.031
0.218 -0.077 0.031
0.229 -0.079 0.033
0.227 -0.076 0.033
0.229 -0.075 0.033
0.237 -0.075 0.034
0.244 -0.075 0.035
0.252 -0.075 0.036
0.266 -0.077 0.038
0.275 -0.077 0.039
0.411 -0.111 0.059
0.415 -0.108 0.059
0.422 -0.106 0.060
0.422 -0.102 0.060
0.407 -0.094 0.058
0.382 -0.085 0.054
0.374 -0.080 0.053
0.371 -0.076 0.053
0.369 -0.072 0.052
0.358 -0.067 0.051
0.283 -0.047 0.040
0.283 -0.045 0.040
0.286 -0.043 0.040
0.285 -0.040 0.040
0.284 -0.037 0.040
0.285 -0.035 0.040
0.288 -0.033 0.041
0.289 -0.030 0.041
0.288 -0.027 0.041
0.292 -0.025 0.041
0.293 -0.023 0.041
0.294 -0.020 0.041
0.297 -0.017 0.042
0.290 -0.014 0.041
0.292 -0.012 0.041
0.290 -0.009 0.041
0.291 -0.007 0.041
0.296 -0.004 0.042
0.300 -0.001 0.042
0.305 0.001 0.043
0.295 0.004 0.042
0.295 0.007 0.042
0.300 0.009 0.042
0.299 0.012 0.042
0.300 0.015 0.042
0.308 0.018 0.043
0.307 0.021 0.043
0.302 0.023 0.043
0.299 0.026 0.042
0.288 0.027 0.041
0.299 0.031 0.042
0.306 0.035 0.043
0.299 0.036 0.042
0.303 0.040 0.043
0.316 0.044 0.045
0.314 0.047 0.044
0.305 0.048 0.043
0.304 0.051 0.043
0.306 0.054 0.043
0.311 0.058 0.044
0.315 0.062 0.045
0.318 0.065 0.045
0.318 0.068 0.045
0.318 0.071 0.045
0.317 0.074 0.045
0.306 0.074 0.044
0.305 0.077 0.044
0.301 0.079 0.043
0.296 0.080 0.042
0.317 0.089 0.046
0.302 0.088 0.043
0.301 0.090 0.043
0.309 0.095 0.045
0.301 0.099 0.043
0.308 0.104 0.045
0.297 0.103 0.043
0.308 0.110 0.045
0.306 0.113 0.045
0.304 0.115 0.044
0.302 0.117 0.044
0.311 0.123 0.045
0.328 0.134 0.048
0.342 0.143 0.050
0.355 0.152 0.052
0.368 0.161 0.054
0.386 0.173 0.057
0.388 0.178 0.057
0.388 0.182 0.057
0.378 0.181 0.056
0.373 0.183 0.055
0.367 0.183 0.055
0.356 0.182 0.053
0.348 0.182 0.052
0.341 0.182 0.051
0.334 0.182 0.050
0.328 0.182 0.050
0.322 0.182 0.049
0.317 0.183 0.048
0.313 0.184 0.048
0.306 0.184 0.047
0.303 0.185 0.046
0.299 0.186 0.046
0.294 0.186 0.045
0.286 0.185 0.044
0.283 0.187 0.044
0.281 0.188 0.044
0.271 0.185 0.042
0.267 0.186 0.042
0.265 0.187 0.042
0.263 0.189 0.041
0.261 0.192 0.041
0.261 0.194 0.042
0.260 0.197 0.042
0.261 0.201 0.042
0.259 0.204 0.042
0.259 0.207 0.042
0.258 0.210 0.042
0.259 0.214 0.042
0.259 0.217 0.042
0.258 0.220 0.043
0.257 0.223 0.043
0.257 0.227 0.043
0.256 0.230 0.043
0.257 0.235 0.043
0.256 0.238 0.043
0.255 0.241 0.043
0.253 0.243 0.043
0.255 0.249 0.044
0.252 0.251 0.044
0.260 0.263 0.045
0.291 0.304 0.051
0.284 0.311 0.051
0.283 0.316 0.051
0.297 0.337 0.054
0.294 0.339 0.054
0.294 0.344 0.054
0.290 0.345 0.054
0.290 0.351 0.054
0.304 0.374 0.057
0.301 0.376 0.057
0.298 0.379 0.057
0.297 0.384 0.057
0.295 0.386 0.057
0.180 -0.249 0.037
0.175 -0.240 0.036
0.183 -0.246 0.037
0.193 -0.258 0.039
0.275 -0.356 0.055
0.280 -0.358 0.056
0.282 -0.356 0.056
0.283 -0.352 0.056
0.285 -0.349 0.056
0.287 -0.346 0.056
0.288 -0.343 0.056
0.289 -0.339 0.056
0.290 -0.335 0.055
0.288 -0.328 0.055
0.289 -0.324 0.055
0.289 -0.320 0.054
0.290 -0.316 0.054
0.290 -0.311 0.054
0.290 -0.306 0.054
0.291 -0.302 0.054
0.292 -0.298 0.053
0.292 -0.294 0.053
0.293 -0.291 0.053
0.290 -0.283 0.052
0.286 -0.275 0.051
0.287 -0.272 0.051
0.288 -0.268 0.051
0.289 -0.265 0.051
0.288 -0.260 0.051
0.287 -0.255 0.050
0.288 -0.252 0.050
0.288 -0.248 0.050
0.283 -0.240 0.049
0.282 -0.235 0.049
0.281 -0.231 0.048
0.281 -0.227 0.048
0.270 -0.215 0.046
0.204 -0.157 0.034
0.201 -0.152 0.034
0.205 -0.153 0.034
0.207 -0.151 0.035
0.206 -0.148 0.034
0.204 -0.144 0.034
0.205 -0.142 0.034
0.210 -0.143 0.035
0.210 -0.141 0.034
0.208 -0.137 0.034
0.206 -0.133 0.034
0.209 -0.133 0.034
0.208 -0.130 0.034
0.206 -0.127 0.033
0.205 -0.123 0.033
0.207 -0.123 0.033
0.213 -0.124 0.034
0.213 -0.122 0.034
0.204 -0.114 0.033
0.208 -0.114 0.033
0.203 -0.109 0.032
0.209 -0.110 0.033
0.208 -0.108 0.033
0.206 -0.104 0.033
0.206 -0.102 0.032
0.208 -0.101 0.033
0.207 -0.098 0.033
0.206 -0.096 0.032
0.207 -0.094 0.032
0.209 -0.093 0.033
0.199 -0.086 0.031
0.212 -0.090 0.033
0.207 -0.086 0.032
0.215 -0.087 0.033
0.218 -0.086 0.034
0.215 -0.083 0.033
0.212 -0.079 0.033
0.211 -0.077 0.033
0.221 -0.076 0.034
0.226 -0.076 0.035
0.228 -0.074 0.035
0.234 -0.074 0.036
0.239 -0.073 0.036
0.250 -0.074 0.038
0.263 -0.076 0.040
0.274 -0.076 0.042
0.396 -0.107 0.060
0.405 -0.105 0.062
0.416 -0.104 0.063
0.416 -0.100 0.063
0.405 -0.094 0.061
0.393 -0.088 0.060
0.378 -0.081 0.057
0.372 -0.076 0.056
0.359 -0.070 0.054
0.357 -0.066 0.054
0.341 -0.060 0.051
0.279 -0.047 0.042
0.281 -0.045 0.042
0.284 -0.042 0.043
0.284 -0.040 0.043
0.280 -0.037 0.042
0.281 -0.034 0.042
0.287 -0.032 0.043
0.287 -0.030 0.043
0.286 -0.027 0.043
0.289 -0.025 0.043
0.293 -0.023 0.044
0.294 -0.020 0.044
0.288 -0.017 0.043
0.296 -0.015 0.044
0.296 -0.012 0.044
0.291 -0.009 0.044
0.291 -0.007 0.044
0.292 -0.004 0.044
0.292 -0.001 0.044
0.301 0.001 0.045
0.301 0.004 0.045
0.292 0.007 0.044
0.293 0.009 0.044
0.295 0.012 0.044
0.294 0.015 0.044
0.305 0.018 0.046
0.299 0.020 0.045
0.301 0.023 0.045
0.300 0.026 0.045
0.309 0.029 0.046
0.291 0.033 0.044
0.294 0.036 0.044
0.301 0.040 0.045
0.301 0.042 0.045
0.303 0.045 0.046
0.298 0.047 0.045
0.306 0.051 0.046
0.304 0.054 0.046
0.307 0.057 0.046
0.307 0.060 0.046
0.308 0.063 0.047
0.307 0.066 0.047
0.300 0.067 0.046
0.299 0.070 0.046
0.306 0.074 0.047
0.309 0.078 0.047
0.309 0.081 0.047
0.304 0.082 0.046
0.306 0.089 0.047
0.297 0.089 0.045
0.280 0.086 0.043
0.276 0.088 0.042
0.288 0.095 0.044
0.303 0.103 0.047
0.310 0.108 0.048
0.308 0.110 0.048
0.307 0.113 0.047
0.295 0.111 0.046
0.295 0.114 0.046
0.309 0.123 0.048
0.325 0.132 0.051
0.340 0.142 0.053
0.351 0.150 0.055
0.388 0.174 0.061
0.389 0.178 0.061
0.384 0.180 0.061
0.374 0.179 0.059
0.369 0.181 0.059
0.362 0.181 0.057
0.353 0.181 0.056
0.348 0.182 0.056
0.343 0.183 0.055
0.334 0.182 0.054
0.325 0.181 0.052
0.319 0.181 0.051
0.315 0.182 0.051
0.310 0.182 0.050
0.306 0.184 0.050
0.303 0.185 0.049
0.300 0.187 0.049
0.294 0.187 0.048
0.286 0.185 0.047
0.283 0.186 0.047
0.277 0.186 0.046
0.272 0.186 0.045
0.267 0.186 0.045
0.264 0.187 0.044
0.263 0.189 0.044
0.261 0.192 0.044
0.260 0.194 0.044
0.261 0.198 0.044
0.260 0.201 0.044
0.260 0.204 0.045
0.259 0.207 0.045
0.258 0.210 0.045
0.259 0.214 0.045
0.259 0.218 0.045
0.258 0.221 0.045
0.257 0.224 0.045
0.257 0.227 0.045
0.256 0.231 0.046
0.255 0.233 0.046
0.256 0.238 0.046
0.254 0.241 0.046
0.257 0.248 0.047
0.255 0.250 0.047
0.254 0.253 0.047
0.257 0.260 0.048
0.276 0.283 0.051
0.281 0.294 0.053
0.280 0.298 0.053
0.278 0.301 0.053
0.275 0.302 0.053
0.279 0.311 0.054
0.287 0.326 0.056
0.295 0.341 0.058
0.294 0.345 0.058
0.289 0.345 0.057
0.297 0.360 0.059
0.300 0.369 0.060
0.300 0.376 0.061
0.298 0.379 0.061
0.294 0.380 0.060
0.292 0.383 0.060
0.143 -0.199 0.031
0.170 -0.233 0.037
0.180 -0.243 0.039
0.273 -0.354 0.058
0.277 -0.355 0.058
0.283 -0.357 0.059
0.284 -0.353 0.059
0.285 -0.349 0.059
0.286 -0.346 0.059
0.288 -0.342 0.059
0.290 -0.340 0.059
0.290 -0.336 0.059
0.290 -0.330 0.058
0.291 -0.326 0.058
0.292 -0.323 0.058
0.291 -0.316 0.058
0.292 -0.313 0.057
0.292 -0.308 0.057
0.291 -0.303 0.057
0.291 -0.298 0.056
0.292 -0.295 0.056
0.291 -0.289 0.056
0.291 -0.285 0.056
0.288 -0.277 0.055
0.288 -0.272 0.054
0.289 -0.269 0.054
0.288 -0.265 0.054
0.287 -0.260 0.054
0.287 -0.255 0.053
0.286 -0.251 0.053
0.286 -0.247 0.053
0.283 -0.240 0.052
0.283 -0.236 0.052
0.283 -0.232 0.051
0.282 -0.228 0.051
0.207 -0.159 0.037
0.201 -0.152 0.036
0.202 -0.151 0.036
0.204 -0.150 0.036
0.207 -0.149 0.037
0.204 -0.144 0.036
0.206 -0.143 0.036
0.208 -0.142 0.036
0.211 -0.142 0.037
0.210 -0.139 0.036
0.210 -0.136 0.036
0.208 -0.132 0.036
0.206 -0.129 0.035
0.205 -0.126 0.035
0.206 -0.124 0.035
0.209 -0.123 0.036
0.213 -0.124 0.036
0.213 -0.121 0.036
0.206 -0.115 0.035
0.205 -0.112 0.035
0.203 -0.109 0.034
0.206 -0.109 0.035
0.209 -0.108 0.035
0.209 -0.106 0.035
0.210 -0.104 0.035
0.210 -0.102 0.035
0.206 -0.098 0.034
0.205 -0.095 0.034
0.205 -0.093 0.034
0.207 -0.092 0.034
0.201 -0.087 0.033
0.215 -0.091 0.035
0.206 -0.085 0.034
0.209 -0.085 0.034
0.212 -0.084 0.035
0.208 -0.080 0.034
0.211 -0.079 0.035
0.210 -0.077 0.034
0.217 -0.077 0.035
0.234 -0.081 0.038
0.223 -0.075 0.036
0.236 -0.077 0.038
0.236 -0.075 0.038
0.236 -0.073 0.038
0.243 -0.073 0.039
0.258 -0.075 0.042
0.390 -0.101 0.063
0.404 -0.102 0.065
0.416 -0.101 0.067
0.410 -0.095 0.066
0.400 -0.089 0.064
0.390 -0.083 0.063
0.376 -0.077 0.060
0.361 -0.071 0.058
0.338 -0.063 0.054
0.327 -0.058 0.052
0.276 -0.046 0.044
0.278 -0.044 0.044
0.279 -0.042 0.045
0.280 -0.039 0.045
0.279 -0.037 0.045
0.281 -0.034 0.045
0.286 -0.032 0.046
0.287 -0.030 0.046
0.286 -0.027 0.046
0.287 -0.025 0.046
0.290 -0.022 0.046
0.288 -0.020 0.046
0.286 -0.017 0.046
0.290 -0.014 0.046
0.291 -0.012 0.046
0.291 -0.009 0.046
0.291 -0.007 0.046
0.290 -0.004 0.046
0.294 -0.001 0.047
0.296 0.001 0.047
0.294 0.004 0.047
0.295 0.007 0.047
0.293 0.009 0.047
0.293 0.012 0.047
0.291 0.014 0.046
0.295 0.017 0.047
0.298 0.020 0.047
0.299 0.023 0.048
0.300 0.026 0.048
0.303 0.029 0.048
0.297 0.031 0.047
0.295 0.033 0.047
0.295 0.036 0.047
0.293 0.039 0.047
0.305 0.043 0.049
0.297 0.045 0.048
0.304 0.048 0.049
0.292 0.049 0.047
0.304 0.054 0.049
0.300 0.056 0.048
0.296 0.058 0.048
0.296 0.061 0.048
0.295 0.063 0.048
0.288 0.064 0.046
0.289 0.067 0.047
0.307 0.074 0.050
0.309 0.078 0.050
0.310 0.081 0.050
0.320 0.087 0.052
0.316 0.089 0.051
0.300 0.087 0.049
0.299 0.090 0.049
0.278 0.086 0.045
0.272 0.087 0.044
0.284 0.093 0.046
0.291 0.099 0.048
0.298 0.104 0.049
0.306 0.109 0.050
0.306 0.113 0.050
0.300 0.113 0.049
0.294 0.114 0.048
0.314 0.125 0.052
0.329 0.134 0.054
0.349 0.146 0.058
0.355 0.152 0.059
0.384 0.168 0.064
0.386 0.173 0.064
0.384 0.176 0.064
0.378 0.177 0.063
0.371 0.178 0.062
0.366 0.180 0.062
0.359 0.180 0.061
0.353 0.181 0.060
0.349 0.182 0.059
0.344 0.184 0.058
0.336 0.183 0.057
0.329 0.183 0.056
0.321 0.182 0.055
0.314 0.181 0.054
0.309 0.182 0.053
0.305 0.183 0.053
0.301 0.185 0.052
0.299 0.186 0.052
0.291 0.185 0.051
0.289 0.187 0.050
0.283 0.186 0.050
0.278 0.186 0.049
0.272 0.186 0.048
0.268 0.186 0.047
0.264 0.187 0.047
0.262 0.189 0.047
0.261 0.191 0.047
0.260 0.194 0.047
0.259 0.197 0.047
0.259 0.201 0.047
0.260 0.205 0.047
0.259 0.208 0.047
0.259 0.211 0.048
0.257 0.213 0.047
0.258 0.218 0.048
0.258 0.221 0.048
0.258 0.224 0.048
0.256 0.227 0.048
0.255 0.230 0.048
0.256 0.234 0.049
0.255 0.238 0.049
0.256 0.242 0.049
0.256 0.246 0.049
0.256 0.250 0.050
0.254 0.253 0.050
0.257 0.260 0.050
0.279 0.288 0.055
0.281 0.294 0.056
0.282 0.300 0.056
0.278 0.300 0.056
0.275 0.302 0.056
0.274 0.306 0.056
0.270 0.307 0.055
0.291 0.342 0.061
0.289 0.346 0.061
0.296 0.359 0.062
0.298 0.368 0.063
0.297 0.372 0.064
0.295 0.375 0.064
0.291 0.377 0.063
0.284 0.372 0.062
0.123 -0.170 0.028
0.121 -0.166 0.028
0.123 -0.167 0.028
0.268 -0.343 0.060
0.273 -0.345 0.061
0.284 -0.353 0.063
0.284 -0.349 0.062
0.285 -0.345 0.062
0.287 -0.342 0.062
0.289 -0.339 0.062
0.290 -0.335 0.062
0.290 -0.331 0.062
0.292 -0.328 0.062
0.293 -0.324 0.062
0.292 -0.318 0.061
0.291 -0.313 0.061
0.292 -0.309 0.061
0.292 -0.304 0.060
0.292 -0.300 0.060
0.292 -0.294 0.059
0.291 -0.289 0.059
0.289 -0.283 0.058
0.288 -0.277 0.058
0.288 -0.273 0.058
0.289 -0.270 0.058
0.289 -0.266 0.057
0.288 -0.261 0.057
0.286 -0.255 0.056
0.286 -0.250 0.056
0.285 -0.246 0.055
0.285 -0.242 0.055
0.283 -0.236 0.055
0.283 -0.233 0.054
0.283 -0.229 0.054
0.266 -0.212 0.051
0.255 -0.200 0.048
0.216 -0.166 0.041
0.205 -0.155 0.039
0.201 -0.150 0.038
0.202 -0.148 0.038
0.204 -0.147 0.038
0.206 -0.146 0.038
0.207 -0.144 0.038
0.208 -0.142 0.038
0.211 -0.142 0.039
0.214 -0.141 0.039
0.214 -0.139 0.039
0.210 -0.134 0.038
0.204 -0.128 0.037
0.202 -0.124 0.037
0.207 -0.125 0.037
0.207 -0.123 0.037
0.209 -0.122 0.038
0.208 -0.119 0.037
0.208 -0.117 0.037
0.203 -0.111 0.036
0.205 -0.111 0.037
0.206 -0.108 0.037
0.210 -0.108 0.037
0.210 -0.107 0.037
0.209 -0.104 0.037
0.209 -0.102 0.037
0.207 -0.099 0.036
0.202 -0.094 0.036
0.204 -0.093 0.036
0.202 -0.090 0.035
0.214 -0.093 0.037
0.210 -0.087 0.037
0.204 -0.083 0.036
0.209 -0.082 0.036
0.210 -0.081 0.036
0.203 -0.076 0.035
0.202 -0.074 0.035
0.218 -0.077 0.038
0.221 -0.077 0.038
0.228 -0.077 0.039
0.238 -0.078 0.041
0.241 -0.076 0.041
0.242 -0.074 0.041
0.238 -0.071 0.041
0.257 -0.074 0.044
0.269 -0.075 0.046
0.386 -0.101 0.066
0.402 -0.101 0.068
0.408 -0.099 0.069
0.412 -0.096 0.070
0.396 -0.088 0.067
0.391 -0.084 0.066
0.390 -0.080 0.066
0.278 -0.047 0.047
0.277 -0.044 0.047
0.278 -0.042 0.047
0.279 -0.039 0.047
0.282 -0.037 0.048
0.284 -0.035 0.048
0.286 -0.032 0.048
0.287 -0.030 0.048
0.285 -0.027 0.048
0.287 -0.025 0.048
0.290 -0.022 0.049
0.286 -0.019 0.048
0.286 -0.017 0.048
0.287 -0.014 0.048
0.288 -0.012 0.048
0.291 -0.009 0.049
0.292 -0.007 0.049
0.297 -0.004 0.050
0.296 -0.001 0.050
0.294 0.001 0.049
0.288 0.004 0.048
0.290 0.006 0.049
0.294 0.009 0.049
0.290 0.012 0.049
0.288 0.014 0.049
0.293 0.017 0.049
0.297 0.020 0.050
0.294 0.023 0.050
0.295 0.025 0.050
0.295 0.028 0.050
0.295 0.031 0.050
0.294 0.033 0.050
0.292 0.036 0.049
0.296 0.039 0.050
0.296 0.042 0.050
0.298 0.045 0.050
0.296 0.047 0.050
0.300 0.051 0.051
0.301 0.053 0.051
0.298 0.056 0.051
0.292 0.057 0.050
0.293 0.060 0.050
0.296 0.064 0.050
0.288 0.064 0.049
0.289 0.067 0.049
0.294 0.071 0.050
0.299 0.075 0.051
0.298 0.078 0.051
0.307 0.083 0.053
0.311 0.087 0.053
0.313 0.091 0.054
0.304 0.091 0.052
0.297 0.092 0.051
0.281 0.090 0.048
0.268 0.088 0.046
0.270 0.091 0.047
0.276 0.096 0.048
0.310 0.114 0.054
0.310 0.117 0.054
0.312 0.121 0.054
0.314 0.125 0.055
0.326 0.133 0.057
0.374 0.164 0.066
0.374 0.168 0.066
0.373 0.172 0.066
0.369 0.174 0.065
0.367 0.176 0.065
0.360 0.177 0.064
0.355 0.178 0.063
0.352 0.180 0.063
0.347 0.182 0.062
0.342 0.183 0.061
0.333 0.182 0.060
0.327 0.182 0.059
0.321 0.182 0.058
0.313 0.181 0.057
0.309 0.182 0.056
0.304 0.183 0.055
0.301 0.184 0.055
0.296 0.185 0.054
0.292 0.186 0.054
0.289 0.187 0.053
0.283 0.187 0.053
0.278 0.187 0.052
0.272 0.186 0.051
0.267 0.186 0.050
0.264 0.188 0.050
0.262 0.189 0.049
0.261 0.191 0.049
0.260 0.194 0.049
0.259 0.197 0.049
0.259 0.201 0.050
0.260 0.204 0.050
0.260 0.208 0.050
0.259 0.211 0.050
0.258 0.214 0.050
0.258 0.218 0.051
0.258 0.221 0.051
0.257 0.224 0.051
0.256 0.227 0.051
0.256 0.231 0.051
0.256 0.235 0.051
0.256 0.239 0.052
0.256 0.243 0.052
0.254 0.245 0.052
0.255 0.250 0.052
0.253 0.252 0.052
0.277 0.286 0.058
0.280 0.294 0.059
0.277 0.295 0.059
0.274 0.297 0.058
0.274 0.301 0.059
0.264 0.296 0.057
0.263 0.299 0.057
0.264 0.305 0.058
0.287 0.337 0.063
0.288 0.344 0.064
0.296 0.360 0.066
0.294 0.364 0.066
0.290 0.364 0.066
0.288 0.367 0.066
0.285 0.370 0.065
0.286 0.375 0.066
0.107 -0.149 0.026
0.116 -0.159 0.028
0.116 -0.156 0.028
0.129 -0.172 0.031
0.283 -0.343 0.065
0.286 -0.341 0.065
0.288 -0.338 0.065
0.289 -0.334 0.065
0.290 -0.331 0.065
0.292 -0.328 0.065
0.292 -0.324 0.065
0.292 -0.318 0.065
0.292 -0.313 0.064
0.292 -0.309 0.064
0.294 -0.306 0.064
0.295 -0.302 0.064
0.293 -0.296 0.063
0.291 -0.289 0.062
0.289 -0.283 0.061
0.288 -0.278 0.061
0.289 -0.274 0.061
0.289 -0.270 0.061
0.289 -0.266 0.060
0.288 -0.261 0.060
0.286 -0.255 0.059
0.287 -0.251 0.059
0.286 -0.247 0.059
0.285 -0.242 0.058
0.284 -0.237 0.058
0.284 -0.234 0.057
0.281 -0.228 0.057
0.270 -0.215 0.054
0.212 -0.163 0.042
0.203 -0.154 0.040
0.197 -0.147 0.039
0.198 -0.145 0.039
0.203 -0.146 0.040
0.207 -0.147 0.041
0.206 -0.144 0.040
0.206 -0.141 0.040
0.207 -0.139 0.040
0.210 -0.139 0.041
0.215 -0.140 0.041
0.215 -0.137 0.041
0.206 -0.129 0.040
0.205 -0.126 0.039
0.205 -0.124 0.039
0.210 -0.124 0.040
0.209 -0.121 0.040
0.208 -0.119 0.039
0.208 -0.117 0.039
0.205 -0.113 0.039
0.201 -0.108 0.038
0.208 -0.110 0.039
0.210 -0.108 0.039
0.206 -0.104 0.038
0.208 -0.103 0.039
0.207 -0.101 0.039
0.206 -0.098 0.038
0.206 -0.096 0.038
0.207 -0.094 0.038
0.212 -0.095 0.039
0.215 -0.093 0.040
0.217 -0.092 0.040
0.209 -0.087 0.038
0.211 -0.086 0.039
0.212 -0.084 0.039
0.213 -0.082 0.039
0.217 -0.081 0.040
0.218 -0.080 0.040
0.221 -0.079 0.040
0.221 -0.077 0.040
0.224 -0.076 0.041
0.230 -0.075 0.042
0.239 -0.076 0.043
0.240 -0.074 0.043
0.247 -0.074 0.045
0.246 -0.071 0.044
0.258 -0.072 0.046
0.389 -0.101 0.070
0.397 -0.100 0.071
0.399 -0.097 0.072
0.382 -0.089 0.068
0.378 -0.084 0.068
0.383 -0.082 0.068
0.373 -0.076 0.067
0.351 -0.069 0.063
0.335 -0.062 0.060
0.279 -0.047 0.050
0.279 -0.044 0.050
0.279 -0.042 0.050
0.283 -0.040 0.050
0.286 -0.038 0.051
0.288 -0.035 0.051
0.288 -0.033 0.051
0.285 -0.030 0.051
0.284 -0.027 0.050
0.288 -0.025 0.051
0.293 -0.023 0.052
0.293 -0.020 0.052
0.289 -0.017 0.051
0.289 -0.014 0.051
0.289 -0.012 0.051
0.290 -0.009 0.051
0.293 -0.007 0.052
0.298 -0.004 0.053
0.298 -0.001 0.053
0.291 0.001 0.052
0.286 0.004 0.051
0.288 0.006 0.051
0.291 0.009 0.052
0.289 0.012 0.051
0.289 0.014 0.051
0.294 0.017 0.052
0.293 0.020 0.052
0.296 0.023 0.053
0.294 0.025 0.052
0.297 0.028 0.053
0.293 0.031 0.052
0.290 0.033 0.052
0.295 0.036 0.053
0.298 0.039 0.053
0.301 0.042 0.054
0.295 0.044 0.053
0.297 0.047 0.053
0.301 0.051 0.054
0.300 0.053 0.054
0.293 0.055 0.052
0.291 0.057 0.052
0.293 0.060 0.053
0.304 0.065 0.055
0.304 0.068 0.055
0.292 0.068 0.053
0.290 0.070 0.052
0.290 0.073 0.052
0.299 0.078 0.054
0.307 0.083 0.055
0.312 0.088 0.056
0.313 0.091 0.057
0.314 0.094 0.057
0.305 0.095 0.055
0.294 0.094 0.054
0.282 0.093 0.051
0.265 0.090 0.048
0.262 0.091 0.048
0.275 0.098 0.050
0.304 0.112 0.056
0.311 0.118 0.057
0.306 0.119 0.056
0.312 0.124 0.057
0.320 0.131 0.059
0.328 0.137 0.061
0.358 0.161 0.067
0.363 0.167 0.068
0.360 0.169 0.067
0.355 0.171 0.066
0.352 0.173 0.066
0.353 0.177 0.066
0.346 0.178 0.065
0.343 0.180 0.065
0.336 0.180 0.064
0.330 0.180 0.063
0.325 0.181 0.062
0.322 0.183 0.061
0.314 0.182 0.060
0.309 0.182 0.059
0.305 0.184 0.059
0.300 0.184 0.058
0.296 0.185 0.057
0.291 0.185 0.056
0.287 0.186 0.056
0.283 0.187 0.055
0.279 0.188 0.055
0.269 0.184 0.053
0.266 0.185 0.052
0.264 0.187 0.052
0.262 0.189 0.052
0.260 0.191 0.052
0.260 0.195 0.052
0.260 0.198 0.052
0.260 0.201 0.053
0.261 0.206 0.053
0.259 0.208 0.053
0.259 0.211 0.053
0.258 0.214 0.053
0.258 0.218 0.053
0.258 0.222 0.054
0.258 0.225 0.054
0.257 0.228 0.054
0.257 0.232 0.054
0.256 0.235 0.054
0.256 0.239 0.054
0.256 0.243 0.055
0.256 0.247 0.055
0.254 0.250 0.055
0.253 0.252 0.055
0.280 0.289 0.062
0.271 0.285 0.060
0.263 0.281 0.059
0.262 0.284 0.059
0.259 0.286 0.059
0.263 0.295 0.060
0.261 0.297 0.060
0.281 0.331 0.065
0.281 0.337 0.066
0.284 0.345 0.067
0.289 0.358 0.069
0.287 0.360 0.068
0.282 0.361 0.068
0.281 0.365 0.068
0.278 0.365 0.068
0.108 -0.150 0.027
0.106 -0.145 0.027
0.106 -0.143 0.027
0.106 -0.142 0.027
0.106 -0.140 0.027
0.108 -0.140 0.027
0.289 -0.335 0.069
0.290 -0.331 0.068
0.290 -0.327 0.068
0.291 -0.323 0.068
0.292 -0.319 0.068
0.292 -0.314 0.067
0.293 -0.310 0.067
0.294 -0.306 0.067
0.294 -0.302 0.067
0.294 -0.297 0.066
0.292 -0.291 0.066
0.290 -0.285 0.065
0.290 -0.280 0.065
0.290 -0.276 0.064
0.290 -0.272 0.064
0.289 -0.266 0.064
0.288 -0.261 0.063
0.287 -0.256 0.063
0.287 -0.252 0.062
0.288 -0.249 0.062
0.287 -0.244 0.062
0.285 -0.238 0.061
0.285 -0.234 0.061
0.284 -0.230 0.060
0.272 -0.217 0.058
0.262 -0.206 0.055
0.201 -0.152 0.042
0.197 -0.147 0.041
0.199 -0.146 0.041
0.205 -0.148 0.042
0.208 -0.148 0.043
0.208 -0.145 0.043
0.204 -0.140 0.042
0.202 -0.136 0.041
0.203 -0.135 0.041
0.207 -0.135 0.042
0.214 -0.136 0.043
0.215 -0.135 0.043
0.203 -0.125 0.041
0.210 -0.127 0.042
0.211 -0.125 0.042
0.211 -0.123 0.042
0.208 -0.119 0.041
0.207 -0.116 0.041
0.203 -0.112 0.040
0.202 -0.109 0.040
0.205 -0.108 0.040
0.203 -0.105 0.040
0.207 -0.105 0.041
0.204 -0.102 0.040
0.206 -0.100 0.040
0.205 -0.098 0.040
0.205 -0.095 0.040
0.206 -0.094 0.040
0.206 -0.092 0.040
0.203 -0.088 0.039
0.211 -0.090 0.041
0.198 -0.082 0.038
0.212 -0.086 0.041
0.211 -0.084 0.041
0.215 -0.083 0.041
0.221 -0.083 0.042
0.224 -0.082 0.043
0.221 -0.079 0.042
0.223 -0.077 0.043
0.223 -0.075 0.042
0.223 -0.073 0.042
0.229 -0.073 0.044
0.245 -0.075 0.046
0.243 -0.073 0.046
0.246 -0.071 0.047
0.250 -0.070 0.047
0.370 -0.100 0.070
0.382 -0.100 0.072
0.381 -0.096 0.072
0.372 -0.090 0.070
0.368 -0.086 0.069
0.365 -0.081 0.069
0.360 -0.077 0.068
0.350 -0.072 0.066
0.343 -0.067 0.064
0.338 -0.063 0.064
0.330 -0.058 0.062
0.289 -0.049 0.054
0.279 -0.044 0.052
0.282 -0.042 0.053
0.286 -0.040 0.054
0.288 -0.038 0.054
0.289 -0.035 0.054
0.286 -0.032 0.053
0.284 -0.030 0.053
0.285 -0.027 0.053
0.292 -0.025 0.054
0.294 -0.023 0.055
0.293 -0.020 0.055
0.289 -0.017 0.054
0.288 -0.014 0.054
0.288 -0.012 0.054
0.290 -0.009 0.054
0.290 -0.007 0.054
0.294 -0.004 0.055
0.295 -0.001 0.055
0.293 0.001 0.055
0.287 0.004 0.053
0.289 0.006 0.054
0.293 0.009 0.055
0.293 0.012 0.055
0.291 0.014 0.054
0.289 0.017 0.054
0.291 0.020 0.054
0.295 0.023 0.055
0.295 0.025 0.055
0.293 0.028 0.055
0.286 0.030 0.053
0.282 0.032 0.053
0.290 0.035 0.054
0.300 0.039 0.056
0.301 0.042 0.056
0.299 0.045 0.056
0.296 0.047 0.056
0.297 0.050 0.056
0.296 0.053 0.056
0.291 0.054 0.055
0.289 0.057 0.055
0.303 0.062 0.057
0.313 0.067 0.059
0.309 0.069 0.058
0.306 0.071 0.058
0.293 0.074 0.055
0.299 0.078 0.057
0.304 0.082 0.058
0.307 0.086 0.058
0.304 0.088 0.058
0.303 0.091 0.058
0.300 0.093 0.057
0.292 0.093 0.056
0.293 0.096 0.056
0.296 0.100 0.057
0.262 0.094 0.050
0.272 0.100 0.052
0.293 0.114 0.057
0.305 0.122 0.059
0.316 0.129 0.061
0.317 0.133 0.062
0.325 0.140 0.063
0.334 0.147 0.065
0.332 0.149 0.065
0.353 0.162 0.069
0.355 0.167 0.070
0.348 0.168 0.068
0.345 0.170 0.068
0.342 0.172 0.068
0.341 0.175 0.068
0.339 0.178 0.067
0.333 0.178 0.066
0.329 0.180 0.066
0.326 0.182 0.065
0.320 0.182 0.064
0.314 0.182 0.063
0.310 0.183 0.062
0.306 0.184 0.062
0.300 0.184 0.061
0.295 0.184 0.060
0.289 0.184 0.059
0.285 0.185 0.058
0.281 0.186 0.058
0.274 0.185 0.057
0.269 0.184 0.056
0.265 0.185 0.055
0.262 0.186 0.055
0.260 0.188 0.054
0.260 0.192 0.055
0.260 0.195 0.055
0.261 0.199 0.055
0.261 0.202 0.055
0.260 0.205 0.055
0.260 0.208 0.056
0.259 0.211 0.056
0.259 0.215 0.056
0.258 0.218 0.056
0.258 0.222 0.056
0.258 0.225 0.056
0.257 0.228 0.057
0.257 0.232 0.057
0.256 0.235 0.057
0.255 0.238 0.057
0.255 0.243 0.057
0.255 0.246 0.058
0.254 0.250 0.058
0.252 0.252 0.058
0.255 0.259 0.059
0.258 0.266 0.060
0.257 0.270 0.060
0.257 0.274 0.060
0.256 0.278 0.060
0.259 0.286 0.062
0.258 0.289 0.062
0.268 0.306 0.065
0.271 0.314 0.066
0.276 0.325 0.067
0.276 0.331 0.068
0.278 0.339 0.069
0.286 0.354 0.071
0.284 0.357 0.071
0.219 0.288 0.056
0.105 -0.146 0.028
0.106 -0.146 0.028
0.106 -0.144 0.028
0.106 -0.142 0.028
0.106 -0.140 0.028
0.106 -0.137 0.027
0.106 -0.136 0.028
0.109 -0.136 0.028
0.118 -0.146 0.030
0.126 -0.152 0.032
0.287 -0.323 0.071
0.290 -0.321 0.071
0.291 -0.318 0.071
0.291 -0.313 0.070
0.292 -0.310 0.071
0.293 -0.306 0.070
0.292 -0.301 0.070
0.293 -0.296 0.069
0.293 -0.292 0.069
0.292 -0.286 0.069
0.292 -0.282 0.068
0.291 -0.277 0.068
0.292 -0.274 0.068
0.290 -0.267 0.067
0.290 -0.263 0.066
0.288 -0.257 0.066
0.288 -0.253 0.065
0.288 -0.249 0.065
0.287 -0.245 0.065
0.286 -0.240 0.064
0.285 -0.235 0.064
0.283 -0.230 0.063
0.279 -0.222 0.062
0.220 -0.170 0.048
0.211 -0.160 0.046
0.200 -0.149 0.044
0.199 -0.146 0.043
0.206 -0.149 0.045
0.212 -0.150 0.046
0.206 -0.144 0.044
0.202 -0.138 0.043
0.204 -0.138 0.044
0.204 -0.135 0.044
0.206 -0.134 0.044
0.215 -0.137 0.046
0.219 -0.137 0.046
0.210 -0.129 0.044
0.208 -0.126 0.044
0.210 -0.125 0.044
0.210 -0.122 0.044
0.209 -0.120 0.044
0.206 -0.115 0.043
0.204 -0.112 0.042
0.206 -0.111 0.043
0.203 -0.107 0.042
0.207 -0.107 0.043
0.206 -0.105 0.042
0.208 -0.104 0.043
0.207 -0.101 0.042
0.207 -0.099 0.042
0.206 -0.096 0.042
0.198 -0.090 0.040
0.204 -0.091 0.041
0.214 -0.093 0.044
0.197 -0.084 0.040
0.214 -0.089 0.043
0.198 -0.080 0.040
0.211 -0.083 0.043
0.213 -0.082 0.043
0.207 -0.078 0.042
0.222 -0.079 0.044
0.221 -0.077 0.044
0.225 -0.076 0.045
0.222 -0.073 0.044
0.224 -0.071 0.045
0.238 -0.073 0.047
0.249 -0.074 0.050
0.246 -0.071 0.049
0.247 -0.069 0.049
0.357 -0.097 0.071
0.368 -0.096 0.073
0.373 -0.094 0.074
0.370 -0.090 0.073
0.367 -0.086 0.073
0.364 -0.081 0.072
0.350 -0.075 0.069
0.346 -0.071 0.068
0.345 -0.068 0.068
0.344 -0.064 0.068
0.284 -0.048 0.056
0.278 -0.044 0.055
0.278 -0.042 0.055
0.284 -0.040 0.056
0.286 -0.038 0.056
0.283 -0.035 0.056
0.281 -0.032 0.055
0.283 -0.030 0.056
0.287 -0.027 0.056
0.291 -0.025 0.057
0.290 -0.022 0.057
0.289 -0.020 0.057
0.285 -0.017 0.056
0.283 -0.014 0.055
0.286 -0.012 0.056
0.288 -0.009 0.056
0.286 -0.007 0.056
0.289 -0.004 0.057
0.294 -0.001 0.058
0.295 0.001 0.058
0.289 0.004 0.057
0.288 0.006 0.056
0.292 0.009 0.057
0.294 0.012 0.058
0.291 0.014 0.057
0.288 0.017 0.056
0.288 0.020 0.057
0.294 0.023 0.058
0.299 0.026 0.059
0.293 0.028 0.058
0.282 0.029 0.055
0.281 0.032 0.055
0.288 0.035 0.057
0.294 0.039 0.058
0.298 0.042 0.059
0.296 0.044 0.058
0.295 0.047 0.058
0.293 0.049 0.058
0.285 0.051 0.056
0.283 0.053 0.056
0.288 0.057 0.057
0.296 0.061 0.059
0.304 0.065 0.060
0.310 0.070 0.062
0.308 0.072 0.061
0.315 0.077 0.063
0.311 0.079 0.062
0.299 0.078 0.059
0.299 0.081 0.060
0.296 0.083 0.059
0.294 0.086 0.059
0.295 0.089 0.059
0.289 0.090 0.058
0.288 0.092 0.058
0.293 0.096 0.059
0.302 0.103 0.061
0.305 0.107 0.061
0.296 0.106 0.060
0.269 0.099 0.054
0.262 0.099 0.053
0.314 0.128 0.064
0.318 0.133 0.065
0.323 0.139 0.066
0.324 0.143 0.066
0.322 0.145 0.066
0.316 0.146 0.065
0.314 0.148 0.065
0.319 0.154 0.066
0.337 0.166 0.070
0.333 0.167 0.069
0.334 0.172 0.070
0.332 0.174 0.069
0.329 0.176 0.069
0.327 0.179 0.069
0.324 0.181 0.068
0.317 0.180 0.067
0.312 0.181 0.066
0.309 0.183 0.065
0.306 0.185 0.065
0.298 0.183 0.063
0.291 0.183 0.062
0.288 0.184 0.062
0.285 0.185 0.061
0.281 0.186 0.061
0.275 0.185 0.060
0.269 0.185 0.058
0.264 0.185 0.058
0.261 0.186 0.057
0.261 0.189 0.057
0.260 0.192 0.057
0.260 0.195 0.057
0.260 0.199 0.058
0.260 0.202 0.058
0.260 0.205 0.058
0.259 0.208 0.058
0.259 0.212 0.059
0.258 0.215 0.059
0.258 0.218 0.059
0.257 0.221 0.059
0.258 0.225 0.059
0.257 0.229 0.060
0.256 0.232 0.060
0.255 0.235 0.060
0.254 0.238 0.060
0.253 0.241 0.060
0.253 0.245 0.060
0.255 0.250 0.061
0.254 0.254 0.061
0.252 0.256 0.061
0.251 0.260 0.061
0.252 0.265 0.062
0.254 0.271 0.063
0.260 0.283 0.064
0.258 0.285 0.064
0.262 0.294 0.066
0.270 0.319 0.069
0.269 0.323 0.069
0.194 0.249 0.051
0.194 0.252 0.052
0.175 0.231 0.047
0.110 -0.153 0.031
0.113 -0.156 0.032
0.112 -0.151 0.031
0.113 -0.152 0.031
0.114 -0.150 0.031
0.115 -0.149 0.031
0.116 -0.149 0.031
0.117 -0.149 0.032
0.117 -0.146 0.031
0.118 -0.145 0.031
0.119 -0.145 0.032
0.123 -0.148 0.033
