VERSION .7
FIELDS x y z
SIZE 4 4 4
TYPE F F F
COUNT 1 1 1
WIDTH     2587
HEIGHT 1
VIEWPOINT 0 0 0 1 0 0 0
POINTS     2587
DATA ascii
0.330 0.183 0.037
0.325 0.184 0.037
0.318 0.183 0.036
0.312 0.183 0.035
0.309 0.185 0.035
0.305 0.186 0.035
0.299 0.186 0.034
0.296 0.187 0.034
0.289 0.186 0.033
0.286 0.187 0.033
0.280 0.187 0.032
0.274 0.187 0.032
0.269 0.186 0.031
0.265 0.187 0.031
0.263 0.189 0.031
0.261 0.191 0.031
0.262 0.195 0.031
0.261 0.197 0.031
0.261 0.201 0.031
0.260 0.203 0.031
0.260 0.207 0.031
0.260 0.211 0.031
0.259 0.214 0.032
0.258 0.216 0.031
0.258 0.220 0.032
0.258 0.224 0.032
0.258 0.227 0.032
0.257 0.230 0.032
0.257 0.234 0.032
0.257 0.238 0.032
0.257 0.242 0.033
0.256 0.245 0.033
0.255 0.248 0.033
0.253 0.251 0.033
0.388 0.404 0.051
0.325 0.356 0.044
0.316 0.351 0.043
0.308 0.360 0.042
0.302 0.359 0.042
0.315 0.387 0.044
0.304 0.379 0.043
0.302 0.383 0.043
0.299 0.385 0.043
0.300 0.392 0.043
0.179 -0.248 0.028
0.178 -0.243 0.028
0.179 -0.241 0.028
0.177 -0.236 0.027
0.177 -0.232 0.027
0.179 -0.231 0.027
0.183 -0.233 0.028
0.185 -0.233 0.028
0.187 -0.232 0.028
0.188 -0.230 0.028
0.190 -0.229 0.028
0.192 -0.228 0.028
0.194 -0.226 0.028
0.195 -0.225 0.028
0.197 -0.223 0.028
0.199 -0.223 0.029
0.202 -0.222 0.029
0.204 -0.221 0.029
0.206 -0.220 0.029
0.209 -0.219 0.029
0.210 -0.218 0.029
0.212 -0.216 0.029
0.215 -0.216 0.030
0.218 -0.216 0.030
0.221 -0.215 0.030
0.223 -0.214 0.030
0.226 -0.213 0.031
0.229 -0.212 0.031
0.231 -0.211 0.031
0.236 -0.212 0.031
0.240 -0.213 0.032
0.244 -0.213 0.032
0.247 -0.212 0.032
0.250 -0.211 0.033
0.253 -0.211 0.033
0.252 -0.206 0.033
0.250 -0.201 0.032
0.247 -0.196 0.032
0.215 -0.167 0.028
0.211 -0.162 0.027
0.208 -0.157 0.027
0.204 -0.151 0.026
0.201 -0.146 0.025
0.206 -0.147 0.026
0.203 -0.143 0.026
0.203 -0.141 0.025
0.207 -0.141 0.026
0.212 -0.142 0.026
0.211 -0.139 0.026
0.209 -0.135 0.026
0.204 -0.129 0.025
0.203 -0.127 0.025
0.207 -0.127 0.025
0.207 -0.125 0.025
0.207 -0.122 0.025
0.205 -0.119 0.025
0.202 -0.115 0.025
0.206 -0.115 0.025
0.203 -0.111 0.024
0.203 -0.109 0.024
0.206 -0.108 0.025
0.211 -0.109 0.025
0.211 -0.107 0.025
0.213 -0.105 0.025
0.200 -0.097 0.024
0.204 -0.097 0.024
0.206 -0.095 0.024
0.210 -0.095 0.025
0.200 -0.089 0.024
0.208 -0.090 0.025
0.207 -0.088 0.024
0.217 -0.090 0.026
0.219 -0.089 0.026
0.217 -0.085 0.025
0.212 -0.081 0.025
0.210 -0.079 0.025
0.208 -0.076 0.024
0.231 -0.082 0.027
0.239 -0.082 0.028
0.238 -0.080 0.028
0.237 -0.077 0.028
0.241 -0.076 0.028
0.247 -0.076 0.029
0.253 -0.075 0.029
0.262 -0.075 0.030
0.402 -0.108 0.046
0.413 -0.107 0.048
0.424 -0.106 0.049
0.430 -0.104 0.049
0.371 -0.076 0.043
0.380 -0.074 0.044
0.368 -0.068 0.042
0.282 -0.047 0.032
0.281 -0.045 0.032
0.281 -0.042 0.032
0.283 -0.040 0.032
0.282 -0.037 0.032
0.283 -0.035 0.032
0.286 -0.032 0.033
0.289 -0.030 0.033
0.290 -0.028 0.033
0.290 -0.025 0.033
0.288 -0.022 0.033
0.286 -0.019 0.033
0.283 -0.017 0.032
0.284 -0.014 0.032
0.289 -0.012 0.033
0.295 -0.009 0.033
0.296 -0.007 0.034
0.298 -0.004 0.034
0.304 -0.001 0.035
0.315 0.001 0.036
0.310 0.004 0.035
0.297 0.007 0.034
0.293 0.009 0.033
0.299 0.012 0.034
0.303 0.015 0.034
0.303 0.018 0.034
0.297 0.020 0.034
0.300 0.023 0.034
0.307 0.026 0.035
0.307 0.029 0.035
0.311 0.032 0.035
0.303 0.034 0.035
0.301 0.037 0.034
0.287 0.038 0.033
0.282 0.040 0.032
0.291 0.043 0.033
0.295 0.047 0.034
0.297 0.050 0.034
0.296 0.052 0.034
0.293 0.054 0.034
0.304 0.059 0.035
0.298 0.061 0.034
0.302 0.064 0.035
0.306 0.068 0.035
0.312 0.072 0.036
0.316 0.076 0.036
0.314 0.082 0.036
0.319 0.086 0.037
0.305 0.085 0.035
0.306 0.088 0.035
0.308 0.092 0.036
0.315 0.097 0.037
0.321 0.102 0.037
0.314 0.103 0.037
0.308 0.104 0.036
0.303 0.105 0.035
0.305 0.109 0.036
0.309 0.113 0.036
0.315 0.119 0.037
0.314 0.121 0.037
0.310 0.123 0.037
0.318 0.129 0.038
0.394 0.172 0.047
0.399 0.179 0.048
0.395 0.181 0.047
0.390 0.182 0.047
0.382 0.183 0.046
0.365 0.178 0.044
0.362 0.181 0.044
0.358 0.183 0.043
0.352 0.184 0.043
0.341 0.181 0.041
0.334 0.181 0.041
0.331 0.183 0.040
0.327 0.185 0.040
0.320 0.184 0.039
0.311 0.182 0.038
0.307 0.184 0.038
0.303 0.185 0.038
0.299 0.186 0.037
0.294 0.186 0.037
0.288 0.185 0.036
0.283 0.186 0.035
0.279 0.187 0.035
0.273 0.186 0.034
0.269 0.186 0.034
0.266 0.188 0.034
0.262 0.189 0.033
0.261 0.191 0.033
0.261 0.194 0.034
0.261 0.198 0.034
0.260 0.200 0.034
0.260 0.203 0.034
0.260 0.207 0.034
0.260 0.211 0.034
0.259 0.214 0.034
0.258 0.216 0.034
0.258 0.220 0.034
0.258 0.223 0.034
0.258 0.227 0.035
0.257 0.230 0.035
0.257 0.234 0.035
0.256 0.238 0.035
0.256 0.241 0.035
0.256 0.245 0.035
0.255 0.249 0.035
0.254 0.252 0.036
0.315 0.345 0.046
0.304 0.338 0.044
0.299 0.338 0.044
0.295 0.340 0.044
0.300 0.351 0.045
0.294 0.349 0.044
0.297 0.359 0.045
0.306 0.375 0.047
0.305 0.380 0.047
0.301 0.381 0.047
0.300 0.386 0.047
0.298 0.390 0.047
0.169 -0.234 0.029
0.177 -0.241 0.030
0.180 -0.242 0.030
0.183 -0.243 0.030
0.186 -0.243 0.031
0.185 -0.239 0.030
0.185 -0.236 0.030
0.186 -0.234 0.030
0.188 -0.233 0.030
0.190 -0.233 0.031
0.194 -0.234 0.031
0.198 -0.235 0.031
0.200 -0.234 0.032
0.203 -0.233 0.032
0.278 -0.258 0.040
0.287 -0.262 0.041
0.289 -0.260 0.042
0.290 -0.257 0.042
0.291 -0.254 0.041
0.293 -0.252 0.042
0.294 -0.249 0.042
0.293 -0.244 0.041
0.291 -0.238 0.041
0.216 -0.165 0.030
0.208 -0.157 0.029
0.203 -0.150 0.028
0.212 -0.155 0.029
0.207 -0.148 0.028
0.203 -0.143 0.028
0.204 -0.141 0.028
0.207 -0.141 0.028
0.209 -0.140 0.028
0.212 -0.140 0.028
0.210 -0.136 0.028
0.209 -0.133 0.028
0.206 -0.129 0.027
0.205 -0.126 0.027
0.208 -0.125 0.027
0.212 -0.125 0.028
0.207 -0.120 0.027
0.208 -0.118 0.027
0.206 -0.115 0.027
0.203 -0.111 0.026
0.206 -0.110 0.027
0.212 -0.112 0.028
0.211 -0.109 0.027
0.212 -0.107 0.027
0.215 -0.106 0.028
0.202 -0.098 0.026
0.204 -0.097 0.026
0.209 -0.097 0.027
0.208 -0.094 0.027
0.212 -0.094 0.027
0.205 -0.089 0.026
0.211 -0.090 0.027
0.214 -0.089 0.027
0.218 -0.088 0.028
0.217 -0.085 0.027
0.213 -0.082 0.027
0.210 -0.079 0.027
0.217 -0.079 0.027
0.224 -0.079 0.028
0.231 -0.080 0.029
0.236 -0.079 0.030
0.240 -0.078 0.030
0.242 -0.077 0.030
0.249 -0.076 0.031
0.255 -0.076 0.032
0.271 -0.078 0.034
0.401 -0.108 0.050
0.417 -0.108 0.052
0.426 -0.107 0.053
0.429 -0.103 0.053
0.425 -0.099 0.053
0.369 -0.075 0.046
0.379 -0.074 0.047
0.368 -0.068 0.045
0.285 -0.048 0.035
0.283 -0.045 0.035
0.283 -0.042 0.035
0.283 -0.040 0.035
0.284 -0.037 0.035
0.285 -0.035 0.035
0.285 -0.032 0.035
0.288 -0.030 0.035
0.287 -0.027 0.035
0.288 -0.025 0.035
0.288 -0.022 0.035
0.289 -0.020 0.036
0.289 -0.017 0.035
0.286 -0.014 0.035
0.287 -0.012 0.035
0.291 -0.009 0.036
0.297 -0.007 0.036
0.291 -0.004 0.036
0.300 -0.001 0.037
0.314 0.001 0.039
0.316 0.004 0.039
0.303 0.007 0.037
0.298 0.009 0.037
0.294 0.012 0.036
0.298 0.015 0.037
0.298 0.017 0.037
0.293 0.020 0.036
0.285 0.022 0.035
0.294 0.025 0.036
0.298 0.028 0.037
0.300 0.031 0.037
0.302 0.034 0.037
0.293 0.036 0.036
0.289 0.038 0.036
0.287 0.040 0.035
0.293 0.044 0.036
0.299 0.047 0.037
0.285 0.048 0.035
0.288 0.051 0.036
0.311 0.058 0.039
0.307 0.060 0.038
0.301 0.061 0.037
0.299 0.064 0.037
0.301 0.067 0.037
0.305 0.071 0.038
0.295 0.071 0.037
0.319 0.080 0.040
0.321 0.084 0.040
0.297 0.080 0.037
0.307 0.086 0.038
0.308 0.089 0.039
0.304 0.091 0.038
0.307 0.095 0.039
0.306 0.097 0.038
0.308 0.101 0.039
0.301 0.102 0.038
0.300 0.104 0.038
0.301 0.107 0.038
0.325 0.119 0.041
0.317 0.119 0.040
0.299 0.115 0.038
0.304 0.121 0.039
0.316 0.129 0.040
0.329 0.137 0.042
0.359 0.153 0.046
0.360 0.157 0.046
0.392 0.175 0.050
0.393 0.180 0.051
0.389 0.182 0.050
0.376 0.180 0.049
0.373 0.182 0.048
0.363 0.182 0.047
0.359 0.183 0.047
0.354 0.185 0.046
0.340 0.181 0.045
0.335 0.182 0.044
0.332 0.184 0.044
0.328 0.185 0.043
0.319 0.184 0.042
0.312 0.183 0.041
0.307 0.184 0.041
0.302 0.185 0.040
0.297 0.185 0.040
0.292 0.185 0.039
0.288 0.186 0.039
0.282 0.186 0.038
0.279 0.187 0.038
0.274 0.187 0.037
0.269 0.186 0.037
0.265 0.187 0.036
0.262 0.189 0.036
0.261 0.191 0.036
0.262 0.195 0.036
0.260 0.197 0.036
0.260 0.200 0.036
0.259 0.203 0.036
0.260 0.207 0.037
0.260 0.211 0.037
0.259 0.214 0.037
0.258 0.216 0.037
0.257 0.220 0.037
0.257 0.223 0.037
0.258 0.227 0.037
0.257 0.231 0.037
0.256 0.234 0.038
0.256 0.237 0.038
0.256 0.241 0.038
0.255 0.245 0.038
0.255 0.249 0.038
0.255 0.252 0.038
0.350 0.371 0.054
0.312 0.341 0.049
0.299 0.333 0.047
0.292 0.331 0.046
0.293 0.338 0.047
0.294 0.344 0.047
0.292 0.348 0.047
0.295 0.356 0.048
0.305 0.374 0.050
0.304 0.380 0.050
0.301 0.381 0.050
0.299 0.386 0.050
0.298 0.390 0.050
0.161 -0.223 0.029
0.177 -0.242 0.032
0.182 -0.246 0.033
0.185 -0.246 0.033
0.257 -0.337 0.045
0.267 -0.345 0.047
0.272 -0.333 0.047
0.274 -0.330 0.047
0.277 -0.319 0.047
0.281 -0.319 0.047
0.279 -0.307 0.046
0.282 -0.306 0.046
0.284 -0.304 0.046
0.286 -0.301 0.046
0.288 -0.298 0.047
0.289 -0.294 0.046
0.290 -0.291 0.046
0.290 -0.287 0.046
0.289 -0.281 0.046
0.288 -0.276 0.045
0.288 -0.272 0.045
0.288 -0.267 0.045
0.288 -0.264 0.045
0.290 -0.261 0.045
0.289 -0.257 0.045
0.291 -0.254 0.045
0.293 -0.251 0.045
0.294 -0.248 0.045
0.291 -0.242 0.044
0.287 -0.235 0.043
0.227 -0.177 0.034
0.217 -0.167 0.032
0.212 -0.160 0.031
0.211 -0.157 0.031
0.215 -0.157 0.031
0.204 -0.146 0.030
0.201 -0.142 0.029
0.205 -0.142 0.030
0.208 -0.142 0.030
0.210 -0.141 0.030
0.209 -0.138 0.030
0.213 -0.138 0.031
0.210 -0.133 0.030
0.204 -0.127 0.029
0.200 -0.123 0.028
0.203 -0.122 0.029
0.205 -0.121 0.029
0.206 -0.120 0.029
0.207 -0.118 0.029
0.204 -0.114 0.029
0.212 -0.116 0.030
0.208 -0.112 0.029
0.214 -0.113 0.030
0.211 -0.109 0.029
0.208 -0.105 0.029
0.205 -0.102 0.028
0.203 -0.098 0.028
0.204 -0.097 0.028
0.207 -0.096 0.028
0.208 -0.094 0.029
0.209 -0.093 0.029
0.204 -0.088 0.028
0.209 -0.089 0.029
0.213 -0.088 0.029
0.213 -0.086 0.029
0.214 -0.084 0.029
0.210 -0.081 0.029
0.211 -0.079 0.029
0.218 -0.079 0.029
0.222 -0.079 0.030
0.226 -0.078 0.030
0.233 -0.078 0.031
0.243 -0.079 0.033
0.244 -0.077 0.033
0.246 -0.076 0.033
0.250 -0.074 0.034
0.264 -0.076 0.035
0.277 -0.077 0.037
0.407 -0.110 0.054
0.413 -0.107 0.055
0.421 -0.105 0.056
0.433 -0.104 0.058
0.421 -0.098 0.056
0.360 -0.077 0.048
0.348 -0.071 0.046
0.354 -0.069 0.047
0.353 -0.066 0.047
0.337 -0.060 0.045
0.284 -0.048 0.038
0.284 -0.045 0.038
0.282 -0.042 0.037
0.284 -0.040 0.037
0.286 -0.038 0.038
0.289 -0.035 0.038
0.288 -0.033 0.038
0.287 -0.030 0.038
0.286 -0.027 0.038
0.287 -0.025 0.038
0.287 -0.022 0.038
0.289 -0.020 0.038
0.292 -0.017 0.038
0.292 -0.015 0.038
0.288 -0.012 0.038
0.294 -0.009 0.039
0.290 -0.007 0.038
0.281 -0.004 0.037
0.292 -0.001 0.038
0.303 0.001 0.040
0.308 0.004 0.041
0.309 0.007 0.041
0.293 0.009 0.039
0.294 0.012 0.039
0.302 0.015 0.040
0.301 0.018 0.040
0.296 0.020 0.039
0.290 0.022 0.038
0.288 0.025 0.038
0.290 0.027 0.038
0.298 0.031 0.039
0.291 0.033 0.039
0.292 0.036 0.039
0.293 0.038 0.039
0.299 0.042 0.040
0.302 0.045 0.040
0.292 0.046 0.039
0.284 0.048 0.038
0.293 0.052 0.039
0.314 0.059 0.042
0.318 0.062 0.042
0.305 0.062 0.041
0.288 0.062 0.038
0.302 0.067 0.040
0.293 0.068 0.039
0.295 0.071 0.039
0.311 0.078 0.042
0.314 0.082 0.042
0.307 0.083 0.041
0.305 0.085 0.041
0.313 0.091 0.042
0.309 0.092 0.042
0.304 0.094 0.041
0.301 0.096 0.041
0.304 0.100 0.041
0.305 0.103 0.041
0.296 0.103 0.040
0.298 0.106 0.040
0.306 0.113 0.042
0.306 0.116 0.042
0.298 0.115 0.041
0.303 0.120 0.041
0.342 0.143 0.047
0.343 0.147 0.047
0.390 0.175 0.054
0.392 0.180 0.054
0.386 0.181 0.053
0.381 0.182 0.053
0.371 0.182 0.052
0.364 0.182 0.051
0.359 0.183 0.050
0.352 0.184 0.049
0.345 0.184 0.048
0.336 0.182 0.047
0.331 0.184 0.047
0.326 0.184 0.046
0.318 0.184 0.045
0.313 0.184 0.045
0.308 0.185 0.044
0.302 0.184 0.043
0.296 0.184 0.043
0.293 0.185 0.042
0.289 0.187 0.042
0.284 0.187 0.041
0.278 0.186 0.041
0.274 0.187 0.040
0.269 0.187 0.039
0.265 0.188 0.039
0.263 0.189 0.039
0.262 0.192 0.039
0.261 0.194 0.039
0.260 0.197 0.039
0.259 0.200 0.039
0.260 0.204 0.039
0.261 0.208 0.039
0.260 0.211 0.040
0.259 0.214 0.040
0.258 0.217 0.040
0.257 0.220 0.040
0.256 0.223 0.040
0.256 0.226 0.040
0.257 0.230 0.040
0.256 0.234 0.040
0.256 0.238 0.040
0.256 0.241 0.041
0.255 0.245 0.041
0.254 0.248 0.041
0.254 0.252 0.041
0.261 0.264 0.043
0.303 0.332 0.051
0.296 0.330 0.050
0.292 0.331 0.050
0.291 0.336 0.050
0.291 0.341 0.050
0.292 0.347 0.051
0.293 0.355 0.051
0.305 0.375 0.054
0.305 0.381 0.054
0.302 0.383 0.054
0.299 0.385 0.054
0.298 0.390 0.054
0.173 -0.240 0.033
0.179 -0.245 0.034
0.184 -0.249 0.035
0.193 -0.257 0.037
0.273 -0.354 0.051
0.280 -0.357 0.052
0.283 -0.356 0.053
0.281 -0.348 0.052
0.282 -0.346 0.052
0.282 -0.340 0.052
0.283 -0.337 0.052
0.283 -0.332 0.051
0.283 -0.326 0.051
0.285 -0.324 0.051
0.288 -0.323 0.051
0.280 -0.309 0.049
0.284 -0.309 0.050
0.287 -0.307 0.050
0.288 -0.303 0.050
0.287 -0.297 0.050
0.289 -0.296 0.050
0.291 -0.292 0.050
0.291 -0.288 0.050
0.289 -0.281 0.049
0.287 -0.276 0.048
0.289 -0.273 0.048
0.288 -0.268 0.048
0.288 -0.264 0.048
0.288 -0.260 0.048
0.289 -0.257 0.048
0.289 -0.252 0.047
0.287 -0.247 0.047
0.290 -0.245 0.047
0.288 -0.240 0.046
0.282 -0.232 0.045
0.274 -0.221 0.044
0.213 -0.164 0.034
0.207 -0.156 0.033
0.203 -0.151 0.032
0.203 -0.149 0.032
0.202 -0.145 0.032
0.204 -0.144 0.032
0.209 -0.145 0.032
0.212 -0.145 0.033
0.210 -0.141 0.032
0.213 -0.140 0.033
0.210 -0.136 0.032
0.203 -0.129 0.031
0.200 -0.125 0.030
0.198 -0.122 0.030
0.201 -0.121 0.030
0.207 -0.122 0.031
0.208 -0.121 0.031
0.201 -0.115 0.030
0.208 -0.116 0.031
0.201 -0.110 0.030
0.214 -0.115 0.032
0.215 -0.113 0.032
0.212 -0.110 0.032
0.208 -0.105 0.031
0.207 -0.103 0.031
0.203 -0.098 0.030
0.202 -0.096 0.030
0.201 -0.093 0.030
0.209 -0.095 0.031
0.196 -0.087 0.029
0.204 -0.089 0.030
0.200 -0.085 0.029
0.211 -0.087 0.031
0.214 -0.086 0.031
0.212 -0.084 0.031
0.212 -0.082 0.031
0.201 -0.075 0.029
0.214 -0.078 0.031
0.224 -0.079 0.032
0.226 -0.078 0.033
0.228 -0.077 0.033
0.228 -0.074 0.033
0.254 -0.081 0.037
0.242 -0.074 0.035
0.248 -0.074 0.035
0.252 -0.073 0.036
0.261 -0.073 0.037
0.404 -0.109 0.058
0.406 -0.106 0.058
0.406 -0.102 0.058
0.411 -0.099 0.059
0.417 -0.097 0.059
0.409 -0.091 0.058
0.335 -0.069 0.048
0.338 -0.066 0.048
0.336 -0.063 0.048
0.284 -0.048 0.040
0.281 -0.045 0.040
0.282 -0.042 0.040
0.283 -0.040 0.040
0.285 -0.037 0.040
0.290 -0.035 0.041
0.289 -0.033 0.041
0.286 -0.030 0.040
0.284 -0.027 0.040
0.286 -0.025 0.040
0.286 -0.022 0.040
0.287 -0.019 0.040
0.290 -0.017 0.041
0.290 -0.014 0.041
0.292 -0.012 0.041
0.295 -0.009 0.042
0.277 -0.006 0.039
0.279 -0.004 0.039
0.285 -0.001 0.040
0.295 0.001 0.042
0.289 0.004 0.041
0.291 0.007 0.041
0.291 0.009 0.041
0.297 0.012 0.042
0.303 0.015 0.043
0.301 0.018 0.042
0.300 0.020 0.042
0.299 0.023 0.042
0.295 0.025 0.042
0.293 0.028 0.041
0.291 0.030 0.041
0.294 0.033 0.042
0.293 0.036 0.041
0.299 0.039 0.042
0.306 0.043 0.043
0.304 0.045 0.043
0.298 0.047 0.042
0.291 0.049 0.041
0.303 0.054 0.043
0.311 0.058 0.044
0.315 0.062 0.045
0.306 0.063 0.044
0.303 0.065 0.043
0.284 0.064 0.041
0.294 0.069 0.042
0.298 0.072 0.043
0.296 0.074 0.042
0.294 0.077 0.042
0.302 0.082 0.043
0.299 0.084 0.043
0.300 0.087 0.043
0.302 0.090 0.044
0.298 0.092 0.043
0.298 0.095 0.043
0.304 0.100 0.044
0.305 0.103 0.044
0.302 0.105 0.044
0.303 0.108 0.044
0.305 0.112 0.044
0.305 0.115 0.044
0.299 0.116 0.044
0.305 0.121 0.045
0.338 0.138 0.050
0.342 0.143 0.050
0.353 0.151 0.052
0.367 0.161 0.054
0.392 0.176 0.058
0.389 0.178 0.058
0.387 0.182 0.057
0.375 0.180 0.056
0.369 0.181 0.055
0.365 0.182 0.054
0.357 0.183 0.053
0.351 0.183 0.053
0.344 0.183 0.052
0.337 0.183 0.051
0.329 0.182 0.050
0.324 0.183 0.049
0.319 0.184 0.048
0.313 0.184 0.048
0.308 0.185 0.047
0.304 0.186 0.047
0.298 0.186 0.046
0.293 0.186 0.045
0.288 0.186 0.045
0.284 0.187 0.044
0.278 0.186 0.043
0.274 0.187 0.043
0.270 0.188 0.042
0.266 0.188 0.042
0.263 0.189 0.042
0.261 0.191 0.041
0.261 0.195 0.042
0.260 0.197 0.041
0.260 0.201 0.042
0.259 0.204 0.042
0.260 0.207 0.042
0.259 0.210 0.042
0.258 0.214 0.042
0.258 0.217 0.042
0.258 0.220 0.043
0.257 0.223 0.043
0.256 0.226 0.043
0.256 0.230 0.043
0.256 0.234 0.043
0.255 0.237 0.043
0.255 0.241 0.043
0.255 0.245 0.044
0.253 0.248 0.044
0.253 0.251 0.044
0.257 0.260 0.045
0.263 0.271 0.046
0.279 0.291 0.049
0.283 0.300 0.050
0.289 0.312 0.052
0.289 0.318 0.052
0.291 0.325 0.053
0.290 0.329 0.053
0.286 0.330 0.052
0.286 0.335 0.053
0.290 0.346 0.054
0.292 0.353 0.055
0.306 0.377 0.058
0.305 0.381 0.058
0.300 0.382 0.057
0.298 0.384 0.057
0.292 0.383 0.057
0.171 -0.237 0.035
0.177 -0.242 0.036
0.189 -0.255 0.038
0.195 -0.260 0.039
0.277 -0.359 0.055
0.282 -0.360 0.056
0.285 -0.360 0.056
0.285 -0.355 0.056
0.283 -0.347 0.055
0.284 -0.343 0.055
0.285 -0.339 0.055
0.284 -0.333 0.055
0.285 -0.330 0.055
0.287 -0.327 0.055
0.289 -0.324 0.055
0.291 -0.321 0.055
0.289 -0.314 0.054
0.289 -0.310 0.054
0.288 -0.304 0.053
0.288 -0.300 0.053
0.290 -0.296 0.053
0.292 -0.294 0.053
0.292 -0.290 0.053
0.292 -0.285 0.053
0.289 -0.278 0.052
0.286 -0.270 0.051
0.285 -0.266 0.051
0.286 -0.262 0.050
0.286 -0.258 0.050
0.287 -0.255 0.050
0.285 -0.249 0.050
0.285 -0.245 0.049
0.285 -0.242 0.049
0.283 -0.236 0.049
0.282 -0.231 0.048
0.270 -0.218 0.046
0.257 -0.204 0.044
0.246 -0.193 0.042
0.209 -0.160 0.035
0.201 -0.152 0.034
0.199 -0.148 0.033
0.203 -0.148 0.034
0.207 -0.149 0.034
0.212 -0.150 0.035
0.210 -0.146 0.035
0.210 -0.144 0.035
0.211 -0.142 0.035
0.210 -0.139 0.034
0.212 -0.137 0.035
0.209 -0.133 0.034
0.204 -0.128 0.033
0.201 -0.123 0.032
0.205 -0.123 0.033
0.209 -0.124 0.034
0.213 -0.124 0.034
0.212 -0.121 0.034
0.203 -0.114 0.032
0.207 -0.113 0.033
0.209 -0.112 0.033
0.214 -0.113 0.034
0.210 -0.108 0.033
0.208 -0.105 0.033
0.209 -0.104 0.033
0.208 -0.101 0.033
0.209 -0.099 0.033
0.205 -0.095 0.032
0.210 -0.096 0.033
0.213 -0.095 0.033
0.203 -0.088 0.032
0.217 -0.092 0.034
0.207 -0.086 0.032
0.210 -0.085 0.033
0.214 -0.084 0.033
0.213 -0.082 0.033
0.213 -0.080 0.033
0.212 -0.078 0.033
0.222 -0.079 0.034
0.225 -0.078 0.035
0.224 -0.075 0.034
0.226 -0.074 0.035
0.234 -0.074 0.036
0.250 -0.077 0.038
0.242 -0.072 0.037
0.250 -0.072 0.038
0.257 -0.072 0.039
0.397 -0.107 0.060
0.397 -0.103 0.060
0.398 -0.100 0.060
0.400 -0.097 0.061
0.408 -0.095 0.062
0.407 -0.091 0.062
0.398 -0.085 0.060
0.347 -0.071 0.052
0.346 -0.068 0.052
0.334 -0.062 0.050
0.282 -0.047 0.043
0.281 -0.045 0.042
0.279 -0.042 0.042
0.280 -0.039 0.042
0.285 -0.037 0.043
0.287 -0.035 0.043
0.289 -0.033 0.043
0.286 -0.030 0.043
0.286 -0.027 0.043
0.288 -0.025 0.043
0.286 -0.022 0.043
0.284 -0.019 0.043
0.289 -0.017 0.043
0.292 -0.015 0.044
0.293 -0.012 0.044
0.297 -0.009 0.045
0.294 -0.007 0.044
0.282 -0.004 0.042
0.299 -0.001 0.045
0.285 0.001 0.043
0.288 0.004 0.043
0.289 0.006 0.043
0.292 0.009 0.044
0.295 0.012 0.044
0.300 0.015 0.045
0.296 0.017 0.044
0.296 0.020 0.044
0.300 0.023 0.045
0.306 0.026 0.046
0.301 0.029 0.045
0.302 0.031 0.045
0.299 0.034 0.045
0.303 0.037 0.046
0.302 0.040 0.046
0.301 0.042 0.045
0.300 0.045 0.045
0.298 0.047 0.045
0.295 0.050 0.045
0.298 0.053 0.045
0.302 0.056 0.046
0.308 0.060 0.047
0.305 0.062 0.046
0.296 0.063 0.045
0.291 0.065 0.044
0.295 0.069 0.045
0.299 0.072 0.045
0.293 0.074 0.045
0.288 0.075 0.044
0.286 0.077 0.044
0.292 0.082 0.045
0.289 0.084 0.044
0.284 0.085 0.043
0.284 0.088 0.044
0.289 0.092 0.044
0.293 0.096 0.045
0.303 0.102 0.047
0.315 0.109 0.049
0.311 0.111 0.048
0.309 0.114 0.048
0.302 0.114 0.047
0.303 0.117 0.047
0.305 0.121 0.048
0.347 0.145 0.054
0.354 0.152 0.055
0.376 0.165 0.059
0.386 0.173 0.061
0.385 0.176 0.061
0.378 0.177 0.060
0.371 0.178 0.059
0.367 0.180 0.058
0.363 0.182 0.058
0.357 0.182 0.057
0.349 0.182 0.056
0.343 0.183 0.055
0.334 0.182 0.054
0.327 0.181 0.053
0.323 0.183 0.052
0.317 0.183 0.051
0.312 0.184 0.051
0.308 0.185 0.050
0.304 0.186 0.050
0.299 0.187 0.049
0.293 0.186 0.048
0.287 0.185 0.047
0.283 0.187 0.047
0.278 0.186 0.046
0.275 0.188 0.046
0.266 0.185 0.044
0.264 0.187 0.044
0.263 0.189 0.044
0.261 0.191 0.044
0.260 0.194 0.044
0.260 0.198 0.044
0.260 0.200 0.044
0.260 0.204 0.045
0.259 0.207 0.045
0.258 0.210 0.045
0.258 0.213 0.045
0.258 0.217 0.045
0.259 0.221 0.045
0.258 0.224 0.045
0.258 0.228 0.046
0.256 0.231 0.046
0.255 0.234 0.046
0.255 0.237 0.046
0.254 0.240 0.046
0.254 0.244 0.046
0.254 0.248 0.046
0.252 0.250 0.046
0.255 0.258 0.047
0.273 0.280 0.051
0.282 0.295 0.053
0.284 0.301 0.054
0.280 0.303 0.053
0.281 0.308 0.054
0.284 0.317 0.055
0.280 0.318 0.054
0.280 0.323 0.055
0.284 0.334 0.056
0.290 0.346 0.057
0.293 0.355 0.058
0.304 0.374 0.061
0.301 0.377 0.061
0.298 0.379 0.061
0.294 0.380 0.060
0.293 0.384 0.060
0.139 -0.193 0.030
0.277 -0.360 0.059
0.283 -0.363 0.060
0.284 -0.359 0.060
0.285 -0.354 0.059
0.283 -0.347 0.059
0.285 -0.344 0.059
0.286 -0.341 0.059
0.284 -0.333 0.058
0.287 -0.331 0.058
0.289 -0.330 0.058
0.288 -0.323 0.058
0.290 -0.320 0.058
0.292 -0.317 0.058
0.292 -0.313 0.058
0.290 -0.306 0.057
0.289 -0.300 0.056
0.290 -0.297 0.056
0.292 -0.294 0.056
0.293 -0.291 0.056
0.291 -0.285 0.056
0.289 -0.278 0.055
0.287 -0.272 0.054
0.287 -0.267 0.054
0.285 -0.262 0.053
0.285 -0.258 0.053
0.286 -0.254 0.053
0.287 -0.251 0.053
0.285 -0.245 0.052
0.285 -0.241 0.052
0.284 -0.237 0.052
0.282 -0.232 0.051
0.273 -0.220 0.049
0.262 -0.208 0.047
0.199 -0.150 0.035
0.199 -0.148 0.035
0.203 -0.149 0.036
0.213 -0.153 0.038
0.212 -0.150 0.037
0.208 -0.145 0.036
0.209 -0.143 0.037
0.209 -0.140 0.036
0.209 -0.138 0.036
0.212 -0.137 0.037
0.214 -0.137 0.037
0.203 -0.127 0.035
0.208 -0.128 0.036
0.206 -0.125 0.035
0.206 -0.122 0.035
0.210 -0.122 0.036
0.213 -0.122 0.036
0.209 -0.117 0.035
0.209 -0.115 0.035
0.204 -0.110 0.034
0.209 -0.110 0.035
0.207 -0.107 0.035
0.207 -0.105 0.035
0.208 -0.103 0.035
0.210 -0.102 0.035
0.204 -0.097 0.034
0.205 -0.095 0.034
0.207 -0.094 0.034
0.209 -0.093 0.035
0.203 -0.088 0.033
0.216 -0.092 0.036
0.206 -0.085 0.034
0.209 -0.084 0.034
0.211 -0.083 0.035
0.212 -0.081 0.035
0.213 -0.080 0.035
0.211 -0.077 0.034
0.214 -0.076 0.035
0.222 -0.077 0.036
0.224 -0.075 0.036
0.226 -0.074 0.037
0.235 -0.075 0.038
0.240 -0.074 0.039
0.244 -0.073 0.039
0.251 -0.072 0.041
0.264 -0.074 0.043
0.390 -0.102 0.063
0.398 -0.100 0.064
0.399 -0.097 0.064
0.401 -0.093 0.064
0.400 -0.089 0.064
0.393 -0.084 0.063
0.348 -0.068 0.056
0.337 -0.063 0.054
0.284 -0.048 0.045
0.282 -0.045 0.045
0.278 -0.042 0.044
0.280 -0.039 0.045
0.282 -0.037 0.045
0.284 -0.035 0.045
0.283 -0.032 0.045
0.287 -0.030 0.046
0.286 -0.027 0.046
0.287 -0.025 0.046
0.288 -0.022 0.046
0.285 -0.019 0.045
0.289 -0.017 0.046
0.299 -0.015 0.048
0.299 -0.012 0.048
0.292 -0.009 0.046
0.293 -0.007 0.047
0.302 -0.004 0.048
0.283 -0.001 0.045
0.284 0.001 0.045
0.289 0.004 0.046
0.290 0.006 0.046
0.293 0.009 0.047
0.292 0.012 0.046
0.290 0.014 0.046
0.284 0.017 0.045
0.290 0.020 0.046
0.289 0.022 0.046
0.295 0.025 0.047
0.304 0.029 0.048
0.303 0.031 0.048
0.306 0.035 0.049
0.304 0.037 0.049
0.297 0.039 0.047
0.305 0.043 0.049
0.299 0.045 0.048
0.301 0.048 0.048
0.296 0.050 0.047
0.300 0.053 0.048
0.302 0.056 0.049
0.307 0.060 0.049
0.308 0.063 0.050
0.300 0.064 0.048
0.296 0.066 0.048
0.301 0.070 0.049
0.300 0.073 0.048
0.295 0.074 0.048
0.297 0.078 0.048
0.297 0.080 0.048
0.291 0.082 0.047
0.285 0.083 0.046
0.283 0.085 0.046
0.277 0.086 0.045
0.276 0.088 0.045
0.280 0.092 0.046
0.296 0.100 0.048
0.312 0.109 0.051
0.312 0.112 0.051
0.300 0.111 0.049
0.299 0.113 0.049
0.299 0.116 0.049
0.311 0.124 0.051
0.349 0.146 0.058
0.359 0.154 0.060
0.374 0.164 0.062
0.379 0.170 0.063
0.379 0.174 0.063
0.374 0.175 0.063
0.369 0.177 0.062
0.367 0.180 0.062
0.360 0.180 0.061
0.355 0.182 0.060
0.351 0.183 0.059
0.336 0.179 0.057
0.332 0.181 0.057
0.326 0.181 0.056
0.321 0.182 0.055
0.316 0.182 0.054
0.311 0.183 0.053
0.307 0.184 0.053
0.301 0.184 0.052
0.297 0.185 0.052
0.293 0.186 0.051
0.288 0.187 0.050
0.282 0.186 0.049
0.278 0.187 0.049
0.275 0.188 0.048
0.265 0.185 0.047
0.263 0.187 0.047
0.262 0.189 0.047
0.261 0.192 0.047
0.260 0.194 0.047
0.260 0.197 0.047
0.260 0.201 0.047
0.260 0.205 0.047
0.259 0.207 0.047
0.259 0.211 0.047
0.258 0.213 0.048
0.258 0.218 0.048
0.258 0.221 0.048
0.258 0.225 0.048
0.258 0.228 0.049
0.257 0.231 0.049
0.255 0.234 0.049
0.255 0.237 0.049
0.254 0.241 0.049
0.254 0.244 0.049
0.253 0.248 0.049
0.252 0.251 0.049
0.259 0.263 0.051
0.284 0.297 0.056
0.286 0.304 0.057
0.280 0.303 0.056
0.275 0.302 0.056
0.270 0.302 0.055
0.271 0.309 0.056
0.275 0.318 0.057
0.288 0.339 0.060
0.289 0.345 0.061
0.296 0.359 0.063
0.300 0.370 0.064
0.297 0.373 0.064
0.293 0.373 0.063
0.290 0.375 0.063
0.287 0.376 0.063
0.125 -0.174 0.029
0.126 -0.170 0.029
0.135 -0.181 0.031
0.277 -0.349 0.061
0.282 -0.351 0.062
0.283 -0.347 0.062
0.284 -0.343 0.062
0.285 -0.339 0.062
0.285 -0.335 0.061
0.286 -0.331 0.061
0.289 -0.330 0.062
0.291 -0.327 0.062
0.289 -0.320 0.061
0.291 -0.317 0.061
0.293 -0.315 0.061
0.294 -0.311 0.061
0.290 -0.302 0.060
0.290 -0.297 0.059
0.292 -0.294 0.059
0.292 -0.290 0.059
0.291 -0.284 0.059
0.290 -0.279 0.058
0.288 -0.273 0.058
0.289 -0.269 0.057
0.289 -0.266 0.057
0.285 -0.258 0.056
0.286 -0.255 0.056
0.286 -0.251 0.056
0.285 -0.246 0.056
0.285 -0.242 0.055
0.283 -0.237 0.055
0.282 -0.232 0.054
0.281 -0.227 0.054
0.209 -0.161 0.040
0.206 -0.156 0.039
0.193 -0.144 0.036
0.200 -0.146 0.037
0.207 -0.149 0.039
0.211 -0.149 0.039
0.208 -0.145 0.039
0.205 -0.140 0.038
0.207 -0.139 0.038
0.209 -0.138 0.038
0.212 -0.137 0.039
0.210 -0.134 0.038
0.218 -0.136 0.040
0.202 -0.124 0.037
0.206 -0.124 0.037
0.205 -0.121 0.037
0.201 -0.117 0.036
0.208 -0.118 0.037
0.212 -0.119 0.038
0.202 -0.111 0.036
0.205 -0.111 0.037
0.203 -0.107 0.036
0.209 -0.108 0.037
0.209 -0.106 0.037
0.209 -0.104 0.037
0.207 -0.100 0.036
0.206 -0.098 0.036
0.202 -0.094 0.036
0.204 -0.093 0.036
0.204 -0.091 0.036
0.212 -0.092 0.037
0.211 -0.087 0.037
0.205 -0.083 0.036
0.210 -0.083 0.036
0.213 -0.082 0.037
0.206 -0.077 0.036
0.205 -0.075 0.035
0.213 -0.076 0.037
0.216 -0.075 0.037
0.222 -0.075 0.038
0.232 -0.076 0.040
0.235 -0.074 0.040
0.239 -0.073 0.041
0.244 -0.073 0.042
0.257 -0.074 0.044
0.266 -0.074 0.045
0.386 -0.101 0.066
0.402 -0.101 0.068
0.405 -0.098 0.069
0.391 -0.091 0.066
0.386 -0.086 0.066
0.382 -0.082 0.065
0.379 -0.078 0.064
0.345 -0.067 0.058
0.336 -0.063 0.057
0.288 -0.048 0.049
0.277 -0.044 0.047
0.279 -0.042 0.047
0.279 -0.039 0.047
0.281 -0.037 0.047
0.281 -0.034 0.047
0.283 -0.032 0.048
0.284 -0.030 0.048
0.277 -0.026 0.047
0.285 -0.025 0.048
0.289 -0.022 0.049
0.288 -0.020 0.048
0.287 -0.017 0.048
0.297 -0.015 0.050
0.293 -0.012 0.049
0.291 -0.009 0.049
0.289 -0.007 0.049
0.291 -0.004 0.049
0.286 -0.001 0.048
0.287 0.001 0.048
0.289 0.004 0.049
0.292 0.007 0.049
0.294 0.009 0.049
0.298 0.012 0.050
0.289 0.014 0.049
0.289 0.017 0.049
0.285 0.019 0.048
0.285 0.022 0.048
0.290 0.025 0.049
0.297 0.028 0.050
0.305 0.032 0.051
0.304 0.034 0.051
0.296 0.036 0.050
0.307 0.040 0.052
0.301 0.042 0.051
0.299 0.045 0.051
0.298 0.047 0.050
0.301 0.051 0.051
0.302 0.053 0.051
0.302 0.056 0.051
0.306 0.060 0.052
0.307 0.063 0.052
0.306 0.066 0.052
0.301 0.067 0.051
0.299 0.070 0.051
0.298 0.072 0.051
0.297 0.075 0.051
0.302 0.079 0.052
0.291 0.079 0.050
0.292 0.085 0.050
0.292 0.088 0.050
0.285 0.088 0.049
0.279 0.089 0.048
0.271 0.089 0.047
0.276 0.094 0.048
0.296 0.103 0.051
0.296 0.106 0.051
0.295 0.109 0.051
0.294 0.111 0.051
0.301 0.117 0.052
0.312 0.124 0.054
0.331 0.135 0.058
0.346 0.145 0.061
0.362 0.155 0.064
0.367 0.161 0.064
0.365 0.164 0.064
0.370 0.170 0.065
0.369 0.173 0.065
0.366 0.176 0.065
0.361 0.177 0.064
0.355 0.178 0.063
0.352 0.180 0.063
0.349 0.183 0.062
0.339 0.181 0.061
0.331 0.181 0.060
0.325 0.181 0.059
0.321 0.182 0.058
0.317 0.184 0.058
0.311 0.183 0.057
0.305 0.183 0.056
0.299 0.183 0.055
0.295 0.184 0.054
0.292 0.185 0.054
0.288 0.187 0.053
0.281 0.186 0.052
0.277 0.186 0.052
0.274 0.187 0.051
0.265 0.185 0.050
0.263 0.187 0.049
0.263 0.190 0.050
0.262 0.192 0.050
0.260 0.195 0.049
0.259 0.197 0.049
0.259 0.200 0.050
0.260 0.205 0.050
0.260 0.208 0.050
0.259 0.211 0.050
0.259 0.214 0.050
0.258 0.218 0.051
0.259 0.222 0.051
0.258 0.225 0.051
0.257 0.228 0.051
0.257 0.231 0.051
0.256 0.234 0.051
0.255 0.238 0.052
0.255 0.241 0.052
0.254 0.245 0.052
0.253 0.248 0.052
0.252 0.251 0.052
0.260 0.263 0.054
0.269 0.277 0.056
0.273 0.286 0.057
0.273 0.291 0.058
0.270 0.293 0.058
0.266 0.293 0.057
0.261 0.292 0.056
0.261 0.297 0.057
0.273 0.316 0.060
0.281 0.331 0.062
0.287 0.343 0.064
0.294 0.357 0.066
0.296 0.365 0.066
0.293 0.368 0.066
0.286 0.365 0.065
0.284 0.368 0.065
0.284 0.373 0.066
0.107 -0.149 0.026
0.109 -0.149 0.026
0.122 -0.165 0.029
0.128 -0.171 0.031
0.281 -0.341 0.065
0.283 -0.337 0.065
0.283 -0.333 0.064
0.286 -0.331 0.065
0.288 -0.329 0.065
0.290 -0.326 0.065
0.292 -0.323 0.065
0.293 -0.319 0.065
0.293 -0.315 0.064
0.292 -0.309 0.064
0.291 -0.303 0.063
0.290 -0.297 0.063
0.291 -0.294 0.063
0.292 -0.290 0.062
0.290 -0.284 0.062
0.289 -0.279 0.061
0.291 -0.276 0.061
0.290 -0.271 0.061
0.290 -0.267 0.061
0.287 -0.260 0.060
0.286 -0.254 0.059
0.287 -0.251 0.059
0.285 -0.246 0.059
0.285 -0.242 0.058
0.285 -0.238 0.058
0.282 -0.232 0.057
0.280 -0.227 0.057
0.266 -0.212 0.053
0.255 -0.199 0.051
0.204 -0.154 0.040
0.197 -0.147 0.039
0.198 -0.145 0.039
0.210 -0.151 0.041
0.212 -0.150 0.042
0.210 -0.146 0.041
0.206 -0.141 0.040
0.205 -0.138 0.040
0.206 -0.136 0.040
0.211 -0.137 0.041
0.217 -0.138 0.042
0.209 -0.131 0.040
0.209 -0.128 0.040
0.203 -0.123 0.039
0.204 -0.121 0.039
0.204 -0.119 0.039
0.206 -0.118 0.039
0.209 -0.117 0.040
0.211 -0.116 0.040
0.203 -0.109 0.038
0.211 -0.111 0.039
0.207 -0.107 0.039
0.211 -0.107 0.039
0.210 -0.104 0.039
0.206 -0.100 0.038
0.202 -0.096 0.038
0.203 -0.094 0.038
0.210 -0.096 0.039
0.211 -0.094 0.039
0.212 -0.092 0.039
0.218 -0.092 0.040
0.209 -0.087 0.038
0.215 -0.087 0.039
0.213 -0.084 0.039
0.214 -0.082 0.039
0.216 -0.081 0.039
0.213 -0.078 0.039
0.218 -0.078 0.040
0.217 -0.075 0.039
0.223 -0.075 0.041
0.230 -0.075 0.042
0.237 -0.075 0.043
0.242 -0.074 0.044
0.250 -0.075 0.045
0.252 -0.073 0.045
0.269 -0.075 0.048
0.389 -0.101 0.070
0.400 -0.101 0.072
0.383 -0.093 0.069
0.378 -0.088 0.068
0.378 -0.084 0.068
0.376 -0.081 0.067
0.363 -0.074 0.065
0.337 -0.066 0.060
0.330 -0.062 0.059
0.320 -0.057 0.057
0.275 -0.046 0.049
0.278 -0.044 0.050
0.279 -0.042 0.050
0.280 -0.039 0.050
0.279 -0.037 0.050
0.282 -0.034 0.050
0.280 -0.032 0.050
0.277 -0.029 0.049
0.285 -0.027 0.051
0.280 -0.024 0.050
0.285 -0.022 0.051
0.286 -0.019 0.051
0.288 -0.017 0.051
0.288 -0.014 0.051
0.290 -0.012 0.051
0.289 -0.009 0.051
0.291 -0.007 0.052
0.290 -0.004 0.052
0.293 -0.001 0.052
0.290 0.001 0.051
0.287 0.004 0.051
0.291 0.007 0.052
0.300 0.009 0.053
0.299 0.012 0.053
0.295 0.015 0.052
0.287 0.017 0.051
0.293 0.020 0.052
0.292 0.022 0.052
0.293 0.025 0.052
0.298 0.028 0.053
0.298 0.031 0.053
0.298 0.036 0.053
0.304 0.040 0.054
0.299 0.042 0.053
0.298 0.045 0.053
0.301 0.048 0.054
0.304 0.051 0.054
0.304 0.054 0.054
0.304 0.057 0.054
0.300 0.059 0.054
0.302 0.062 0.054
0.299 0.064 0.054
0.297 0.067 0.053
0.290 0.068 0.052
0.295 0.072 0.053
0.302 0.076 0.054
0.299 0.078 0.054
0.295 0.080 0.053
0.287 0.081 0.052
0.297 0.086 0.054
0.294 0.088 0.053
0.295 0.091 0.054
0.290 0.093 0.053
0.283 0.093 0.052
0.277 0.094 0.051
0.284 0.102 0.052
0.290 0.107 0.053
0.296 0.112 0.054
0.304 0.118 0.056
0.313 0.125 0.058
0.329 0.134 0.061
0.340 0.142 0.063
0.349 0.150 0.065
0.354 0.155 0.066
0.355 0.160 0.066
0.361 0.166 0.067
0.363 0.171 0.068
0.358 0.172 0.067
0.354 0.174 0.066
0.349 0.175 0.066
0.346 0.177 0.065
0.340 0.178 0.064
0.335 0.179 0.063
0.331 0.181 0.063
0.324 0.181 0.062
0.320 0.182 0.061
0.317 0.183 0.061
0.312 0.184 0.060
0.305 0.183 0.059
0.300 0.184 0.058
0.293 0.183 0.057
0.290 0.184 0.056
0.286 0.186 0.056
0.280 0.185 0.055
0.276 0.186 0.054
0.268 0.184 0.053
0.265 0.185 0.052
0.264 0.187 0.052
0.263 0.190 0.052
0.262 0.192 0.052
0.260 0.195 0.052
0.259 0.197 0.052
0.259 0.201 0.052
0.260 0.205 0.053
0.259 0.208 0.053
0.259 0.212 0.053
0.259 0.215 0.053
0.258 0.217 0.053
0.258 0.221 0.054
0.258 0.225 0.054
0.257 0.228 0.054
0.256 0.231 0.054
0.257 0.236 0.055
0.256 0.239 0.055
0.255 0.242 0.055
0.254 0.245 0.055
0.253 0.249 0.055
0.253 0.252 0.055
0.263 0.267 0.058
0.265 0.274 0.058
0.261 0.274 0.058
0.261 0.278 0.058
0.257 0.279 0.058
0.255 0.282 0.058
0.259 0.290 0.059
0.261 0.298 0.060
0.273 0.317 0.063
0.279 0.329 0.065
0.286 0.342 0.067
0.281 0.342 0.066
0.288 0.356 0.068
0.283 0.356 0.068
0.280 0.357 0.067
0.279 0.362 0.067
0.282 0.371 0.069
0.107 -0.148 0.027
0.106 -0.146 0.027
0.107 -0.145 0.027
0.107 -0.143 0.027
0.106 -0.140 0.027
0.105 -0.137 0.026
0.112 -0.143 0.028
0.286 -0.331 0.068
0.287 -0.328 0.068
0.289 -0.325 0.068
0.291 -0.323 0.068
0.293 -0.320 0.068
0.292 -0.313 0.067
0.291 -0.308 0.067
0.290 -0.302 0.066
0.290 -0.298 0.066
0.291 -0.294 0.066
0.291 -0.290 0.066
0.290 -0.284 0.065
0.289 -0.279 0.064
0.290 -0.276 0.064
0.291 -0.272 0.064
0.289 -0.266 0.063
0.287 -0.260 0.063
0.289 -0.258 0.063
0.286 -0.251 0.062
0.287 -0.248 0.062
0.285 -0.243 0.061
0.285 -0.239 0.061
0.284 -0.234 0.060
0.282 -0.229 0.060
0.205 -0.158 0.043
0.203 -0.154 0.042
0.200 -0.150 0.042
0.210 -0.154 0.044
0.214 -0.154 0.044
0.211 -0.149 0.043
0.212 -0.148 0.044
0.208 -0.143 0.043
0.207 -0.139 0.042
0.205 -0.136 0.042
0.207 -0.135 0.042
0.207 -0.133 0.042
0.214 -0.134 0.043
0.209 -0.129 0.042
0.203 -0.123 0.041
0.202 -0.120 0.040
0.204 -0.119 0.041
0.206 -0.118 0.041
0.209 -0.117 0.042
0.210 -0.115 0.042
0.206 -0.111 0.041
0.204 -0.108 0.040
0.203 -0.105 0.040
0.208 -0.106 0.041
0.208 -0.103 0.041
0.204 -0.099 0.040
0.203 -0.097 0.040
0.204 -0.095 0.040
0.206 -0.094 0.040
0.212 -0.094 0.041
0.202 -0.088 0.039
0.214 -0.091 0.041
0.199 -0.083 0.038
0.209 -0.085 0.040
0.209 -0.083 0.040
0.214 -0.082 0.041
0.218 -0.082 0.042
0.224 -0.082 0.043
0.220 -0.078 0.042
0.220 -0.076 0.042
0.223 -0.075 0.042
0.229 -0.075 0.044
0.237 -0.075 0.045
0.248 -0.076 0.047
0.247 -0.074 0.047
0.250 -0.072 0.047
0.251 -0.070 0.048
0.386 -0.101 0.073
0.379 -0.095 0.072
0.374 -0.091 0.071
0.374 -0.087 0.071
0.371 -0.083 0.070
0.365 -0.078 0.069
0.353 -0.072 0.066
0.339 -0.066 0.064
0.323 -0.060 0.061
0.313 -0.056 0.059
0.277 -0.047 0.052
0.278 -0.044 0.052
0.283 -0.042 0.053
0.282 -0.040 0.053
0.282 -0.037 0.053
0.283 -0.035 0.053
0.282 -0.032 0.053
0.280 -0.029 0.052
0.283 -0.027 0.053
0.287 -0.025 0.054
0.281 -0.022 0.052
0.283 -0.019 0.053
0.289 -0.017 0.054
0.292 -0.015 0.055
0.290 -0.012 0.054
0.291 -0.009 0.054
0.291 -0.007 0.054
0.293 -0.004 0.055
0.298 -0.001 0.056
0.290 0.001 0.054
0.290 0.004 0.054
0.291 0.007 0.054
0.297 0.009 0.055
0.297 0.012 0.056
0.291 0.014 0.054
0.294 0.017 0.055
0.294 0.020 0.055
0.297 0.023 0.055
0.298 0.026 0.056
0.301 0.029 0.056
0.302 0.032 0.057
0.300 0.037 0.056
0.303 0.040 0.057
0.305 0.043 0.057
0.296 0.044 0.056
0.295 0.047 0.055
0.299 0.050 0.056
0.303 0.054 0.057
0.299 0.056 0.056
0.292 0.057 0.055
0.292 0.060 0.055
0.295 0.063 0.056
0.294 0.066 0.055
0.293 0.068 0.055
0.297 0.072 0.056
0.298 0.075 0.056
0.303 0.079 0.058
0.301 0.082 0.057
0.293 0.082 0.056
0.288 0.084 0.055
0.293 0.088 0.056
0.293 0.091 0.056
0.290 0.093 0.055
0.288 0.095 0.055
0.288 0.098 0.055
0.289 0.101 0.056
0.262 0.096 0.050
0.288 0.109 0.056
0.295 0.115 0.057
0.312 0.124 0.060
0.325 0.133 0.063
0.332 0.139 0.065
0.333 0.143 0.065
0.339 0.149 0.066
0.345 0.155 0.067
0.346 0.159 0.068
0.355 0.167 0.070
0.350 0.169 0.069
0.346 0.170 0.068
0.345 0.173 0.068
0.342 0.175 0.068
0.336 0.176 0.067
0.329 0.176 0.065
0.327 0.179 0.065
0.323 0.180 0.065
0.319 0.181 0.064
0.316 0.183 0.064
0.312 0.184 0.063
0.305 0.184 0.062
0.298 0.183 0.061
0.292 0.183 0.059
0.289 0.184 0.059
0.286 0.185 0.059
0.280 0.185 0.058
0.276 0.186 0.057
0.270 0.185 0.056
0.266 0.186 0.055
0.264 0.187 0.055
0.262 0.190 0.055
0.261 0.192 0.055
0.260 0.195 0.055
0.259 0.198 0.055
0.261 0.202 0.055
0.260 0.205 0.055
0.259 0.208 0.056
0.259 0.211 0.056
0.258 0.214 0.056
0.257 0.217 0.056
0.257 0.221 0.056
0.257 0.224 0.056
0.257 0.228 0.057
0.257 0.232 0.057
0.256 0.235 0.057
0.256 0.240 0.057
0.255 0.243 0.058
0.254 0.246 0.058
0.253 0.249 0.058
0.252 0.252 0.058
0.257 0.261 0.059
0.256 0.264 0.059
0.253 0.266 0.059
0.252 0.269 0.059
0.255 0.276 0.060
0.261 0.289 0.062
0.260 0.292 0.062
0.265 0.302 0.064
0.270 0.313 0.065
0.276 0.326 0.067
0.278 0.333 0.068
0.276 0.337 0.068
0.278 0.344 0.069
0.278 0.350 0.070
0.274 0.350 0.069
0.226 0.298 0.058
0.104 -0.144 0.028
0.107 -0.146 0.028
0.108 -0.146 0.028
0.106 -0.142 0.028
0.104 -0.138 0.027
0.106 -0.138 0.028
0.106 -0.136 0.027
0.106 -0.134 0.027
0.110 -0.137 0.028
0.117 -0.144 0.030
0.126 -0.153 0.032
0.137 -0.164 0.035
0.140 -0.165 0.035
0.288 -0.324 0.071
0.290 -0.322 0.071
0.292 -0.319 0.071
0.291 -0.313 0.070
0.291 -0.309 0.070
0.291 -0.303 0.070
0.289 -0.297 0.069
0.291 -0.294 0.069
0.292 -0.291 0.069
0.289 -0.284 0.068
0.291 -0.281 0.068
0.290 -0.276 0.067
0.289 -0.271 0.067
0.288 -0.265 0.066
0.290 -0.263 0.066
0.289 -0.258 0.066
0.287 -0.252 0.065
0.287 -0.248 0.065
0.287 -0.244 0.065
0.285 -0.239 0.064
0.286 -0.235 0.064
0.283 -0.229 0.063
0.276 -0.220 0.061
0.192 -0.146 0.042
0.204 -0.153 0.045
0.209 -0.153 0.046
0.209 -0.151 0.045
0.214 -0.152 0.046
0.207 -0.144 0.045
0.207 -0.142 0.045
0.212 -0.143 0.045
0.213 -0.141 0.045
0.203 -0.132 0.043
0.214 -0.137 0.045
0.219 -0.138 0.046
0.217 -0.134 0.046
0.207 -0.125 0.044
0.202 -0.120 0.042
0.201 -0.117 0.042
0.206 -0.118 0.043
0.208 -0.117 0.043
0.209 -0.115 0.044
0.209 -0.113 0.043
0.201 -0.106 0.042
0.205 -0.106 0.042
0.205 -0.104 0.042
0.207 -0.103 0.042
0.208 -0.101 0.043
0.211 -0.100 0.043
0.205 -0.096 0.042
0.202 -0.092 0.041
0.205 -0.091 0.042
0.211 -0.092 0.043
0.199 -0.085 0.040
0.211 -0.088 0.043
0.198 -0.080 0.040
0.211 -0.083 0.043
0.209 -0.081 0.042
0.205 -0.077 0.041
0.218 -0.078 0.044
0.216 -0.075 0.043
0.221 -0.075 0.044
0.226 -0.074 0.045
0.235 -0.075 0.047
0.242 -0.075 0.048
0.246 -0.074 0.049
0.248 -0.072 0.049
0.262 -0.073 0.052
0.364 -0.095 0.072
0.369 -0.093 0.073
0.370 -0.090 0.073
0.369 -0.086 0.073
0.364 -0.081 0.072
0.358 -0.077 0.071
0.351 -0.072 0.069
0.337 -0.066 0.066
0.280 -0.047 0.055
0.279 -0.044 0.055
0.285 -0.043 0.056
0.286 -0.040 0.056
0.283 -0.037 0.056
0.284 -0.035 0.056
0.284 -0.032 0.056
0.283 -0.030 0.056
0.283 -0.027 0.056
0.286 -0.025 0.056
0.283 -0.022 0.055
0.283 -0.019 0.055
0.289 -0.017 0.057
0.293 -0.015 0.057
0.292 -0.012 0.057
0.291 -0.009 0.057
0.289 -0.007 0.057
0.295 -0.004 0.058
0.289 -0.001 0.057
0.291 0.001 0.057
0.290 0.004 0.057
0.292 0.007 0.057
0.292 0.009 0.057
0.291 0.012 0.057
0.293 0.015 0.057
0.293 0.017 0.057
0.294 0.020 0.058
0.295 0.023 0.058
0.298 0.026 0.058
0.297 0.028 0.058
0.274 0.029 0.054
0.273 0.031 0.054
0.288 0.035 0.057
0.300 0.040 0.059
0.304 0.043 0.060
0.299 0.045 0.059
0.293 0.047 0.058
0.291 0.049 0.057
0.303 0.054 0.060
0.301 0.056 0.060
0.293 0.058 0.058
0.290 0.060 0.057
0.295 0.063 0.058
0.303 0.068 0.060
0.301 0.070 0.060
0.291 0.071 0.058
0.292 0.074 0.058
0.306 0.080 0.061
0.299 0.081 0.060
0.290 0.082 0.058
0.283 0.082 0.057
0.283 0.085 0.057
0.285 0.088 0.057
0.284 0.091 0.057
0.288 0.095 0.058
0.297 0.101 0.060
0.302 0.105 0.061
0.285 0.102 0.058
0.267 0.099 0.054
0.276 0.108 0.056
0.322 0.132 0.065
0.324 0.136 0.066
0.326 0.140 0.067
0.325 0.143 0.067
0.330 0.149 0.068
0.333 0.153 0.068
0.332 0.156 0.068
0.341 0.164 0.070
0.342 0.168 0.071
0.339 0.171 0.070
0.337 0.173 0.070
0.331 0.174 0.069
0.323 0.173 0.068
0.320 0.175 0.067
0.320 0.178 0.067
0.318 0.181 0.067
0.316 0.183 0.067
0.310 0.183 0.066
0.301 0.182 0.064
0.297 0.183 0.063
0.293 0.184 0.063
0.288 0.184 0.062
0.285 0.185 0.061
0.281 0.186 0.061
0.276 0.186 0.060
0.270 0.185 0.059
0.266 0.186 0.058
0.263 0.187 0.058
0.262 0.189 0.057
0.261 0.192 0.057
0.260 0.195 0.058
0.259 0.198 0.058
0.260 0.202 0.058
0.260 0.205 0.058
0.259 0.208 0.058
0.258 0.211 0.058
0.258 0.214 0.059
0.257 0.217 0.059
0.257 0.221 0.059
0.256 0.224 0.059
0.256 0.228 0.059
0.256 0.231 0.059
0.256 0.235 0.060
0.255 0.239 0.060
0.256 0.243 0.060
0.254 0.246 0.060
0.253 0.249 0.060
0.252 0.252 0.061
0.251 0.255 0.061
0.249 0.257 0.060
0.248 0.261 0.061
0.251 0.269 0.062
0.257 0.279 0.064
0.261 0.289 0.065
0.264 0.297 0.066
0.258 0.300 0.066
0.274 0.323 0.070
0.273 0.328 0.071
0.266 0.324 0.069
0.191 0.244 0.050
0.194 0.252 0.052
0.187 0.246 0.050
0.112 -0.156 0.031
0.113 -0.155 0.031
0.114 -0.155 0.032
0.115 -0.154 0.032
0.115 -0.152 0.031
0.115 -0.150 0.031
0.116 -0.149 0.031
0.116 -0.147 0.031
0.115 -0.144 0.031
0.117 -0.144 0.031
0.118 -0.144 0.031
0.129 -0.155 0.034
0.133 -0.157 0.035
0.137 -0.159 0.036
0.290 -0.317 0.074
0.291 -0.314 0.074
0.290 -0.308 0.073
0.291 -0.305 0.073
0.291 -0.299 0.073
0.291 -0.295 0.072
0.291 -0.291 0.072
0.293 -0.287 0.072
0.292 -0.283 0.072
0.291 -0.277 0.071
0.289 -0.271 0.070
0.290 -0.268 0.070
0.288 -0.262 0.069
0.287 -0.257 0.069
0.287 -0.253 0.068
0.287 -0.248 0.068
0.286 -0.243 0.067
0.287 -0.241 0.067
0.285 -0.235 0.067
0.282 -0.229 0.066
0.275 -0.220 0.064
0.266 -0.209 0.062
0.204 -0.155 0.047
0.202 -0.151 0.046
0.206 -0.151 0.047
0.208 -0.150 0.047
0.206 -0.146 0.047
0.201 -0.141 0.045
0.202 -0.139 0.045
0.213 -0.144 0.048
0.215 -0.142 0.048
0.212 -0.138 0.047
0.215 -0.138 0.048
0.220 -0.138 0.049
0.222 -0.137 0.049
0.214 -0.130 0.047
0.202 -0.120 0.044
0.202 -0.118 0.044
0.205 -0.117 0.045
0.206 -0.115 0.045
0.208 -0.114 0.045
0.208 -0.112 0.045
0.206 -0.109 0.045
0.203 -0.105 0.044
0.206 -0.103 0.044
0.210 -0.103 0.045
0.212 -0.101 0.045
0.210 -0.098 0.045
0.213 -0.097 0.045
0.205 -0.091 0.044
0.208 -0.091 0.044
0.212 -0.090 0.045
0.208 -0.087 0.044
0.211 -0.086 0.045
0.207 -0.082 0.044
0.212 -0.082 0.045
0.217 -0.082 0.046
0.217 -0.080 0.046
0.212 -0.076 0.045
0.214 -0.074 0.045
0.219 -0.074 0.046
0.224 -0.073 0.047
0.227 -0.072 0.047
0.234 -0.072 0.049
0.243 -0.073 0.051
0.253 -0.073 0.053
0.268 -0.075 0.056
0.352 -0.092 0.073
0.359 -0.090 0.074
0.360 -0.087 0.075
0.359 -0.084 0.074
0.356 -0.080 0.074
0.354 -0.076 0.073
0.349 -0.072 0.072
0.340 -0.067 0.070
0.326 -0.061 0.067
0.292 -0.052 0.060
0.278 -0.047 0.057
0.279 -0.044 0.058
0.283 -0.042 0.058
0.285 -0.040 0.059
0.283 -0.037 0.058
0.285 -0.035 0.059
0.287 -0.033 0.059
0.283 -0.030 0.058
0.280 -0.027 0.057
0.283 -0.024 0.058
0.286 -0.022 0.059
0.286 -0.020 0.059
0.285 -0.017 0.058
0.287 -0.014 0.059
0.290 -0.012 0.059
0.288 -0.009 0.059
0.289 -0.007 0.059
0.289 -0.004 0.059
0.291 -0.001 0.060
0.283 0.001 0.058
0.286 0.004 0.059
0.288 0.006 0.059
0.288 0.009 0.059
0.289 0.012 0.059
0.291 0.014 0.060
0.291 0.017 0.060
0.289 0.020 0.059
0.291 0.022 0.060
0.290 0.025 0.060
0.286 0.027 0.059
0.274 0.029 0.056
0.276 0.031 0.057
0.286 0.035 0.059
0.298 0.039 0.061
0.297 0.042 0.061
0.304 0.046 0.063
0.314 0.050 0.065
0.297 0.053 0.061
0.297 0.056 0.061
0.291 0.057 0.060
0.289 0.060 0.060
0.298 0.064 0.062
0.306 0.069 0.064
0.301 0.070 0.062
0.284 0.069 0.059
0.280 0.071 0.058
0.287 0.075 0.060
0.296 0.080 0.062
0.289 0.081 0.060
0.285 0.083 0.060
0.280 0.084 0.059
0.276 0.086 0.058
0.275 0.088 0.058
0.287 0.095 0.060
0.295 0.100 0.062
0.293 0.102 0.062
0.294 0.106 0.062
0.287 0.106 0.061
0.264 0.103 0.056
0.312 0.128 0.066
0.317 0.133 0.068
0.320 0.138 0.068
0.321 0.141 0.069
0.320 0.144 0.069
0.320 0.148 0.069
0.319 0.150 0.069
0.315 0.152 0.068
0.316 0.156 0.068
0.318 0.160 0.069
0.324 0.167 0.071
0.323 0.170 0.070
0.319 0.171 0.070
0.317 0.174 0.070
0.316 0.177 0.070
0.315 0.180 0.070
0.313 0.182 0.069
0.306 0.181 0.068
0.299 0.180 0.066
0.295 0.181 0.066
0.290 0.182 0.065
0.287 0.184 0.065
0.284 0.185 0.064
0.281 0.186 0.063
0.276 0.186 0.063
0.269 0.185 0.061
0.265 0.185 0.060
0.262 0.187 0.060
0.262 0.190 0.060
0.261 0.193 0.060
0.260 0.196 0.060
0.260 0.199 0.060
0.259 0.201 0.061
0.259 0.205 0.061
0.259 0.208 0.061
0.258 0.211 0.061
0.258 0.215 0.061
0.257 0.218 0.061
0.256 0.221 0.061
0.256 0.224 0.062
0.255 0.227 0.062
0.255 0.231 0.062
0.254 0.235 0.062
0.254 0.239 0.063
0.255 0.243 0.063
0.253 0.245 0.063
0.252 0.248 0.063
0.253 0.253 0.064
0.244 0.249 0.062
0.240 0.248 0.061
0.244 0.257 0.063
0.251 0.268 0.065
0.249 0.271 0.065
0.251 0.278 0.066
0.207 0.244 0.055
0.198 0.242 0.054
0.189 0.235 0.052
0.188 0.238 0.052
0.190 0.244 0.053
0.187 0.243 0.052
0.180 0.238 0.051
0.115 -0.161 0.034
0.114 -0.157 0.033
0.115 -0.156 0.033
0.115 -0.155 0.033
0.112 -0.148 0.032
0.114 -0.148 0.032
0.111 -0.142 0.031
0.111 -0.140 0.031
0.113 -0.141 0.032
0.111 -0.138 0.031
0.117 -0.143 0.033
0.122 -0.146 0.034
0.124 -0.146 0.034
0.125 -0.145 0.034
0.132 -0.151 0.036
0.289 -0.308 0.076
0.289 -0.303 0.076
0.292 -0.301 0.076
0.288 -0.293 0.075
0.290 -0.290 0.075
0.291 -0.286 0.075
0.292 -0.283 0.075
0.292 -0.278 0.074
0.289 -0.271 0.073
0.290 -0.268 0.073
0.290 -0.264 0.073
0.288 -0.258 0.072
0.288 -0.254 0.072
0.288 -0.250 0.071
0.287 -0.245 0.071
0.285 -0.239 0.070
0.281 -0.232 0.069
0.284 -0.231 0.069
0.275 -0.220 0.067
0.228 -0.177 0.055
0.217 -0.165 0.052
0.205 -0.153 0.049
0.199 -0.147 0.047
0.199 -0.144 0.047
0.201 -0.143 0.047
0.198 -0.139 0.047
0.200 -0.137 0.047
0.208 -0.140 0.049
0.211 -0.140 0.049
0.211 -0.138 0.049
0.211 -0.135 0.049
0.215 -0.135 0.050
0.213 -0.132 0.049
0.207 -0.125 0.048
0.203 -0.121 0.047
0.201 -0.118 0.046
0.201 -0.115 0.046
0.203 -0.114 0.046
0.204 -0.112 0.046
0.207 -0.112 0.047
0.206 -0.109 0.047
0.204 -0.106 0.046
0.207 -0.103 0.047
0.209 -0.102 0.047
0.210 -0.100 0.047
0.204 -0.095 0.046
0.201 -0.092 0.045
0.200 -0.089 0.044
0.203 -0.089 0.045
0.207 -0.088 0.046
0.201 -0.084 0.045
0.208 -0.085 0.046
0.198 -0.078 0.044
0.209 -0.081 0.046
0.206 -0.078 0.045
0.208 -0.076 0.046
0.211 -0.076 0.046
0.218 -0.076 0.048
0.218 -0.074 0.048
0.221 -0.073 0.048
0.224 -0.071 0.049
0.228 -0.071 0.050
0.241 -0.072 0.053
0.254 -0.074 0.055
0.266 -0.075 0.058
0.337 -0.088 0.073
0.347 -0.088 0.075
0.351 -0.085 0.076
0.350 -0.082 0.076
0.350 -0.079 0.076
0.349 -0.075 0.075
0.349 -0.072 0.075
0.342 -0.067 0.074
0.327 -0.061 0.070
0.279 -0.047 0.060
0.277 -0.044 0.060
0.280 -0.042 0.060
0.281 -0.040 0.060
0.280 -0.037 0.060
0.283 -0.035 0.061
0.286 -0.033 0.061
0.282 -0.029 0.060
0.276 -0.026 0.059
0.278 -0.024 0.060
0.284 -0.022 0.061
0.286 -0.020 0.061
0.284 -0.017 0.061
0.282 -0.014 0.060
0.281 -0.011 0.060
0.283 -0.009 0.061
0.284 -0.006 0.061
0.287 -0.004 0.061
0.286 -0.001 0.061
0.285 0.001 0.061
0.278 0.004 0.060
0.279 0.006 0.060
0.286 0.009 0.061
0.289 0.012 0.062
0.291 0.014 0.062
0.286 0.017 0.061
0.285 0.019 0.061
0.283 0.022 0.061
0.285 0.025 0.061
0.283 0.027 0.061
0.284 0.030 0.061
0.272 0.031 0.059
0.284 0.035 0.061
0.292 0.039 0.063
0.292 0.041 0.063
0.302 0.045 0.065
0.311 0.050 0.067
0.298 0.050 0.064
0.301 0.054 0.065
0.300 0.056 0.065
0.289 0.057 0.062
0.285 0.059 0.062
0.298 0.064 0.065
0.290 0.065 0.063
0.287 0.067 0.062
0.288 0.070 0.063
0.265 0.067 0.058
0.278 0.073 0.061
0.287 0.078 0.063
0.292 0.082 0.064
0.288 0.084 0.063
0.283 0.085 0.062
0.275 0.085 0.060
0.277 0.089 0.061
0.287 0.095 0.063
0.292 0.099 0.064
0.295 0.103 0.065
0.296 0.107 0.065
0.298 0.110 0.066
0.299 0.114 0.066
0.296 0.115 0.066
0.265 0.106 0.059
0.271 0.111 0.060
0.308 0.132 0.069
0.316 0.139 0.071
0.316 0.143 0.071
0.315 0.146 0.071
0.314 0.148 0.071
0.310 0.150 0.070
0.305 0.150 0.069
0.308 0.155 0.070
0.314 0.161 0.071
0.316 0.166 0.072
0.315 0.169 0.072
0.315 0.172 0.072
0.313 0.175 0.072
0.309 0.176 0.071
0.306 0.178 0.071
0.299 0.177 0.069
0.295 0.178 0.068
0.291 0.179 0.068
0.288 0.181 0.067
0.285 0.182 0.067
0.282 0.184 0.066
0.279 0.185 0.066
0.275 0.186 0.065
0.268 0.185 0.064
0.265 0.186 0.063
0.263 0.188 0.063
0.262 0.190 0.063
0.261 0.193 0.063
0.260 0.196 0.063
0.259 0.199 0.063
0.259 0.202 0.063
0.259 0.205 0.063
0.259 0.209 0.064
0.259 0.212 0.064
0.257 0.214 0.064
0.256 0.217 0.064
0.255 0.220 0.064
0.254 0.223 0.064
0.254 0.227 0.064
0.253 0.230 0.065
0.253 0.233 0.065
0.252 0.237 0.065
0.251 0.240 0.065
0.249 0.242 0.065
0.244 0.241 0.064
0.235 0.239 0.062
0.231 0.240 0.062
0.225 0.238 0.060
0.208 0.231 0.057
0.202 0.228 0.056
0.207 0.238 0.057
0.202 0.236 0.056
0.198 0.235 0.056
0.197 0.237 0.056
0.192 0.235 0.055
0.189 0.236 0.054
