VERSION .7
FIELDS x y z
SIZE 4 4 4
TYPE F F F
COUNT 1 1 1
WIDTH     2434
HEIGHT 1
VIEWPOINT 0 0 0 1 0 0 0
POINTS     2434
DATA ascii
1.318 -0.450 -0.869
1.320 -0.437 -0.869
1.321 -0.424 -0.868
1.318 -0.409 -0.865
1.315 -0.395 -0.862
1.309 -0.379 -0.857
1.309 -0.366 -0.856
1.310 -0.353 -0.856
1.304 -0.338 -0.851
1.411 -0.944 -0.974
1.385 -0.909 -0.953
1.391 -0.896 -0.954
1.391 -0.879 -0.951
1.385 -0.858 -0.945
1.373 -0.834 -0.934
1.367 -0.814 -0.927
1.362 -0.795 -0.922
1.351 -0.772 -0.912
1.347 -0.754 -0.907
1.347 -0.738 -0.904
1.340 -0.719 -0.897
1.364 -0.716 -0.911
1.351 -0.694 -0.901
1.346 -0.676 -0.896
1.343 -0.659 -0.891
1.338 -0.628 -0.885
1.327 -0.608 -0.875
1.331 -0.595 -0.876
1.323 -0.577 -0.869
1.321 -0.561 -0.866
1.335 -0.553 -0.874
1.346 -0.543 -0.880
1.340 -0.527 -0.874
1.326 -0.507 -0.863
1.315 -0.489 -0.855
1.317 -0.476 -0.855
1.321 -0.464 -0.856
1.315 -0.448 -0.851
1.326 -0.438 -0.857
1.328 -0.425 -0.857
1.316 -0.407 -0.848
1.312 -0.393 -0.845
1.317 -0.381 -0.847
1.318 -0.368 -0.847
1.314 -0.353 -0.844
1.307 -0.338 -0.838
1.400 -0.934 -0.949
1.410 -0.922 -0.952
1.414 -0.908 -0.953
1.410 -0.888 -0.947
1.397 -0.863 -0.936
1.381 -0.836 -0.922
1.363 -0.809 -0.907
1.361 -0.792 -0.904
1.365 -0.778 -0.904
1.360 -0.759 -0.899
1.344 -0.735 -0.886
1.362 -0.729 -0.896
1.359 -0.711 -0.891
1.362 -0.698 -0.891
1.352 -0.677 -0.883
1.355 -0.664 -0.883
1.354 -0.648 -0.880
1.343 -0.628 -0.872
1.329 -0.607 -0.861
1.325 -0.590 -0.856
1.316 -0.572 -0.849
1.322 -0.561 -0.852
1.339 -0.553 -0.861
1.349 -0.543 -0.865
1.345 -0.527 -0.862
1.337 -0.510 -0.855
1.328 -0.492 -0.848
1.324 -0.477 -0.844
1.323 -0.463 -0.842
1.322 -0.449 -0.840
1.315 -0.433 -0.835
1.322 -0.422 -0.838
1.315 -0.406 -0.833
1.315 -0.393 -0.832
1.321 -0.381 -0.834
1.327 -0.369 -0.837
1.320 -0.354 -0.832
1.305 -0.337 -0.822
1.282 -0.318 -0.806
0.342 0.015 -0.213
0.321 0.039 -0.201
0.317 0.042 -0.198
0.308 0.044 -0.192
1.434 -0.936 -0.951
1.429 -0.914 -0.944
1.421 -0.892 -0.936
1.414 -0.871 -0.929
1.397 -0.843 -0.915
1.362 -0.806 -0.890
1.364 -0.791 -0.889
1.376 -0.782 -0.894
1.376 -0.766 -0.892
1.369 -0.746 -0.885
1.364 -0.728 -0.881
1.368 -0.714 -0.881
1.367 -0.698 -0.878
1.364 -0.681 -0.874
1.369 -0.669 -0.876
1.363 -0.650 -0.870
1.352 -0.630 -0.861
1.339 -0.610 -0.851
1.334 -0.593 -0.846
1.327 -0.575 -0.841
1.328 -0.561 -0.839
1.335 -0.550 -0.843
1.344 -0.540 -0.847
1.346 -0.526 -0.846
1.349 -0.513 -0.847
1.341 -0.496 -0.841
1.330 -0.478 -0.832
1.328 -0.463 -0.830
1.319 -0.447 -0.823
1.317 -0.432 -0.821
1.314 -0.418 -0.818
1.314 -0.405 -0.817
1.315 -0.392 -0.817
1.315 -0.378 -0.815
1.315 -0.365 -0.815
1.327 -0.355 -0.821
1.306 -0.336 -0.807
0.297 -0.056 -0.183
0.326 0.046 -0.200
0.306 0.046 -0.188
0.313 0.050 -0.192
0.198 -0.137 -0.130
0.205 -0.139 -0.134
0.204 -0.136 -0.133
1.452 -0.944 -0.944
1.433 -0.914 -0.929
1.430 -0.895 -0.925
1.398 -0.842 -0.899
1.378 -0.813 -0.884
1.368 -0.791 -0.875
1.369 -0.775 -0.873
1.377 -0.764 -0.876
1.366 -0.742 -0.867
1.360 -0.723 -0.861
1.363 -0.709 -0.861
1.370 -0.698 -0.864
1.367 -0.681 -0.860
1.373 -0.653 -0.860
1.363 -0.634 -0.852
1.351 -0.613 -0.843
1.353 -0.600 -0.843
1.352 -0.585 -0.841
1.340 -0.565 -0.832
1.341 -0.551 -0.830
1.342 -0.537 -0.829
1.350 -0.526 -0.833
1.350 -0.512 -0.832
1.348 -0.497 -0.830
1.341 -0.481 -0.824
1.321 -0.460 -0.811
1.318 -0.445 -0.807
1.317 -0.431 -0.806
1.315 -0.417 -0.804
1.314 -0.404 -0.802
1.317 -0.391 -0.802
1.322 -0.379 -0.805
1.324 -0.367 -0.805
1.317 -0.352 -0.800
1.323 -0.340 -0.803
0.289 -0.040 -0.174
0.327 0.040 -0.197
0.324 0.043 -0.195
0.319 0.045 -0.192
0.312 0.047 -0.188
0.297 0.048 -0.179
0.306 0.052 -0.185
0.203 -0.139 -0.131
0.207 -0.139 -0.133
0.208 -0.137 -0.133
1.461 -0.930 -0.930
1.437 -0.897 -0.911
1.414 -0.865 -0.894
1.372 -0.791 -0.861
1.362 -0.769 -0.852
1.364 -0.755 -0.852
1.369 -0.742 -0.852
1.355 -0.719 -0.842
1.353 -0.702 -0.839
1.363 -0.692 -0.843
1.359 -0.675 -0.839
1.355 -0.658 -0.834
1.346 -0.639 -0.827
1.353 -0.627 -0.830
1.357 -0.614 -0.831
1.358 -0.600 -0.830
1.358 -0.571 -0.827
1.345 -0.551 -0.817
1.341 -0.536 -0.814
1.348 -0.524 -0.816
1.348 -0.510 -0.815
1.350 -0.497 -0.815
1.339 -0.479 -0.807
1.336 -0.464 -0.805
1.319 -0.444 -0.793
1.319 -0.431 -0.792
1.319 -0.418 -0.791
1.313 -0.402 -0.786
1.325 -0.393 -0.793
1.334 -0.382 -0.797
1.330 -0.367 -0.794
1.323 -0.352 -0.789
1.331 -0.341 -0.792
0.283 -0.053 -0.167
0.301 0.028 -0.178
0.304 0.031 -0.179
0.307 0.034 -0.181
0.317 0.039 -0.188
0.326 0.043 -0.193
0.317 0.045 -0.188
0.305 0.049 -0.181
0.314 0.053 -0.186
0.207 -0.142 -0.131
0.209 -0.140 -0.131
0.209 -0.137 -0.131
0.208 -0.135 -0.130
1.495 -0.948 -0.933
1.410 -0.827 -0.870
1.397 -0.803 -0.860
1.359 -0.765 -0.834
1.359 -0.750 -0.833
1.374 -0.742 -0.840
1.385 -0.733 -0.844
1.355 -0.701 -0.824
1.357 -0.687 -0.824
1.359 -0.674 -0.823
1.355 -0.656 -0.819
1.347 -0.638 -0.812
1.342 -0.621 -0.808
1.353 -0.611 -0.813
1.358 -0.599 -0.814
1.359 -0.585 -0.813
1.365 -0.573 -0.816
1.356 -0.526 -0.806
1.356 -0.512 -0.805
1.350 -0.496 -0.800
1.341 -0.479 -0.794
1.338 -0.463 -0.790
1.352 -0.455 -0.798
1.324 -0.432 -0.780
1.307 -0.413 -0.769
1.317 -0.403 -0.774
1.316 -0.389 -0.772
1.319 -0.377 -0.773
1.318 -0.363 -0.772
1.319 -0.350 -0.772
1.328 -0.340 -0.776
0.353 -0.039 -0.204
0.306 0.022 -0.177
0.304 0.025 -0.176
0.302 0.028 -0.175
0.307 0.031 -0.178
0.300 0.033 -0.174
0.306 0.037 -0.178
0.313 0.041 -0.181
0.313 0.044 -0.182
0.318 0.048 -0.185
0.325 0.052 -0.189
0.327 0.056 -0.190
0.301 0.057 -0.175
0.209 -0.143 -0.129
0.209 -0.140 -0.129
0.209 -0.137 -0.129
0.209 -0.135 -0.128
1.366 -0.767 -0.822
1.388 -0.748 -0.832
1.381 -0.729 -0.826
1.367 -0.706 -0.815
1.354 -0.684 -0.806
1.360 -0.672 -0.808
1.358 -0.656 -0.805
1.350 -0.638 -0.799
1.347 -0.592 -0.792
1.355 -0.582 -0.795
0.243 -0.096 -0.142
1.367 -0.529 -0.797
1.357 -0.511 -0.790
1.348 -0.494 -0.783
1.335 -0.475 -0.775
1.331 -0.460 -0.771
1.327 -0.445 -0.768
1.322 -0.430 -0.764
1.321 -0.416 -0.763
1.302 -0.397 -0.751
1.311 -0.387 -0.755
1.317 -0.375 -0.758
1.324 -0.364 -0.761
1.317 -0.349 -0.756
1.312 -0.335 -0.752
0.290 -0.051 -0.165
0.311 -0.043 -0.177
0.340 -0.034 -0.193
0.309 -0.025 -0.175
0.297 0.013 -0.168
0.290 0.015 -0.164
0.292 0.018 -0.166
0.298 0.022 -0.169
0.295 0.024 -0.167
0.309 0.031 -0.176
0.301 0.033 -0.171
0.298 0.036 -0.170
0.306 0.040 -0.174
0.315 0.044 -0.179
0.327 0.049 -0.186
0.324 0.052 -0.185
0.308 0.055 -0.176
0.299 0.057 -0.171
0.151 -0.107 -0.092
0.153 -0.106 -0.093
0.209 -0.142 -0.127
0.210 -0.140 -0.127
0.210 -0.137 -0.126
0.210 -0.135 -0.126
0.201 -0.127 -0.120
1.406 -0.804 -0.832
1.385 -0.776 -0.818
1.376 -0.756 -0.811
1.368 -0.735 -0.804
1.375 -0.723 -0.806
1.361 -0.701 -0.796
1.357 -0.684 -0.792
1.354 -0.668 -0.789
1.356 -0.654 -0.788
1.356 -0.580 -0.780
0.241 -0.098 -0.138
0.246 -0.098 -0.141
1.358 -0.510 -0.775
1.343 -0.491 -0.766
1.329 -0.472 -0.756
1.313 -0.453 -0.747
1.313 -0.439 -0.745
1.320 -0.428 -0.748
1.315 -0.413 -0.744
1.313 -0.400 -0.742
1.314 -0.387 -0.742
1.330 -0.378 -0.750
1.333 -0.366 -0.751
1.319 -0.349 -0.742
1.298 -0.330 -0.730
0.307 -0.033 -0.171
0.298 -0.027 -0.166
0.298 -0.024 -0.166
0.297 -0.021 -0.165
0.299 -0.018 -0.166
0.292 0.013 -0.162
0.298 0.016 -0.166
0.298 0.019 -0.166
0.296 0.021 -0.165
0.297 0.024 -0.165
0.298 0.027 -0.166
0.303 0.031 -0.169
0.302 0.034 -0.169
0.299 0.036 -0.167
0.314 0.041 -0.175
0.307 0.043 -0.171
0.301 0.045 -0.168
0.304 0.054 -0.170
0.206 -0.140 -0.122
0.209 -0.139 -0.124
0.210 -0.137 -0.124
0.211 -0.136 -0.125
0.204 -0.128 -0.120
1.433 -0.851 -0.836
1.430 -0.832 -0.832
1.415 -0.807 -0.821
1.394 -0.779 -0.807
1.374 -0.752 -0.793
1.349 -0.723 -0.777
1.360 -0.714 -0.781
1.369 -0.703 -0.785
1.354 -0.666 -0.773
1.362 -0.655 -0.776
1.350 -0.591 -0.763
1.358 -0.580 -0.767
0.249 -0.101 -0.140
0.249 -0.099 -0.140
1.348 -0.505 -0.755
1.341 -0.489 -0.749
1.317 -0.467 -0.735
1.314 -0.452 -0.732
1.317 -0.440 -0.733
1.319 -0.427 -0.733
1.322 -0.415 -0.734
1.321 -0.401 -0.732
1.325 -0.389 -0.734
1.318 -0.374 -0.729
1.322 -0.362 -0.730
1.313 -0.346 -0.725
1.307 -0.332 -0.721
0.286 -0.053 -0.157
0.308 -0.051 -0.168
0.320 -0.050 -0.175
0.319 -0.047 -0.175
0.303 -0.039 -0.166
0.300 -0.033 -0.164
0.291 -0.026 -0.159
0.297 -0.024 -0.162
0.298 0.016 -0.163
0.302 0.019 -0.165
0.300 0.022 -0.164
0.299 0.024 -0.163
0.300 0.027 -0.164
0.304 0.031 -0.166
0.308 0.034 -0.169
0.312 0.038 -0.171
0.307 0.040 -0.168
0.302 0.042 -0.165
0.297 0.044 -0.163
0.305 0.048 -0.168
0.315 0.053 -0.173
0.314 0.056 -0.173
0.151 -0.106 -0.089
0.145 -0.100 -0.085
0.197 -0.134 -0.115
0.208 -0.138 -0.121
0.210 -0.137 -0.122
0.208 -0.133 -0.120
0.205 -0.129 -0.118
1.419 -0.807 -0.807
1.405 -0.783 -0.797
1.388 -0.758 -0.785
1.366 -0.731 -0.771
1.363 -0.714 -0.768
1.385 -0.710 -0.778
1.392 -0.698 -0.781
1.360 -0.667 -0.761
1.349 -0.589 -0.748
1.354 -0.577 -0.749
0.259 -0.105 -0.143
0.252 -0.099 -0.138
1.342 -0.502 -0.736
1.331 -0.484 -0.729
1.325 -0.468 -0.725
1.322 -0.454 -0.722
1.322 -0.440 -0.721
1.325 -0.428 -0.722
1.331 -0.417 -0.724
1.326 -0.402 -0.721
1.319 -0.387 -0.716
1.319 -0.373 -0.715
1.312 -0.358 -0.711
1.315 -0.346 -0.712
1.322 -0.335 -0.715
0.287 -0.050 -0.154
0.297 -0.049 -0.159
0.319 -0.035 -0.171
0.308 -0.030 -0.165
0.300 -0.027 -0.160
0.304 -0.024 -0.163
0.307 -0.022 -0.164
0.306 -0.019 -0.164
0.315 -0.016 -0.169
0.305 0.016 -0.163
0.300 0.019 -0.161
0.302 0.022 -0.162
0.298 0.024 -0.159
0.305 0.028 -0.163
0.307 0.031 -0.165
0.308 0.034 -0.165
0.304 0.036 -0.163
0.304 0.039 -0.163
0.299 0.042 -0.161
0.306 0.045 -0.164
0.316 0.053 -0.170
0.314 0.056 -0.169
0.151 -0.104 -0.086
0.206 -0.137 -0.118
0.208 -0.135 -0.118
0.208 -0.132 -0.118
0.207 -0.130 -0.117
1.448 -0.873 -0.813
1.424 -0.792 -0.791
1.392 -0.727 -0.769
1.332 -0.497 -0.716
1.328 -0.482 -0.713
1.332 -0.470 -0.714
1.334 -0.457 -0.714
1.325 -0.441 -0.709
1.331 -0.429 -0.711
1.340 -0.419 -0.715
1.327 -0.401 -0.707
1.325 -0.387 -0.705
1.319 -0.373 -0.701
1.312 -0.358 -0.696
1.311 -0.345 -0.695
1.329 -0.336 -0.704
0.289 -0.053 -0.152
0.291 -0.051 -0.153
0.287 -0.048 -0.151
0.307 -0.042 -0.161
0.307 -0.039 -0.161
0.319 -0.032 -0.167
0.306 -0.024 -0.160
0.313 0.017 -0.164
0.315 0.020 -0.165
0.304 0.022 -0.160
0.304 0.025 -0.159
0.295 0.027 -0.155
0.308 0.031 -0.162
0.305 0.034 -0.160
0.307 0.037 -0.162
0.313 0.040 -0.164
0.315 0.044 -0.166
0.315 0.047 -0.166
0.318 0.053 -0.168
0.314 0.056 -0.166
0.331 0.081 -0.176
0.190 0.239 -0.130
0.152 -0.104 -0.085
0.208 -0.137 -0.116
0.208 -0.135 -0.116
0.209 -0.133 -0.116
0.209 -0.131 -0.116
1.436 -0.780 -0.780
1.411 -0.735 -0.763
1.369 -0.581 -0.727
1.328 -0.494 -0.699
1.318 -0.477 -0.693
1.327 -0.467 -0.697
1.337 -0.457 -0.702
1.332 -0.442 -0.698
1.328 -0.427 -0.695
1.335 -0.416 -0.698
1.335 -0.403 -0.697
1.324 -0.386 -0.690
1.317 -0.371 -0.686
1.304 -0.355 -0.679
1.297 -0.340 -0.674
1.310 -0.331 -0.680
0.296 -0.055 -0.153
0.298 -0.052 -0.154
0.290 -0.048 -0.149
0.307 -0.045 -0.158
0.312 -0.043 -0.161
0.306 -0.039 -0.158
0.302 -0.036 -0.155
0.315 -0.034 -0.162
0.305 -0.027 -0.157
0.301 -0.024 -0.155
0.301 -0.021 -0.154
0.308 -0.019 -0.158
0.317 -0.016 -0.163
0.318 -0.013 -0.163
0.314 0.020 -0.161
0.308 0.022 -0.158
0.305 0.025 -0.157
0.302 0.027 -0.156
0.301 0.030 -0.155
0.303 0.033 -0.156
0.305 0.036 -0.157
0.312 0.040 -0.161
0.311 0.043 -0.161
0.316 0.047 -0.163
0.315 0.050 -0.163
0.318 0.053 -0.164
0.315 0.056 -0.163
0.316 0.062 -0.164
0.372 0.160 -0.199
0.186 0.229 -0.123
0.186 0.232 -0.124
1.542 -1.455 -0.909
0.146 -0.100 -0.080
0.208 -0.137 -0.113
0.209 -0.135 -0.114
0.210 -0.133 -0.114
0.212 -0.132 -0.115
0.322 -0.164 -0.170
0.328 -0.163 -0.173
0.331 -0.161 -0.174
0.336 -0.160 -0.176
0.337 -0.157 -0.177
0.339 -0.154 -0.177
0.343 -0.152 -0.179
1.332 -0.495 -0.687
1.318 -0.476 -0.679
1.326 -0.466 -0.682
1.347 -0.460 -0.692
1.337 -0.442 -0.686
1.329 -0.427 -0.681
1.329 -0.413 -0.680
1.321 -0.398 -0.675
1.321 -0.385 -0.675
1.315 -0.370 -0.671
1.296 -0.352 -0.660
1.298 -0.340 -0.661
1.301 -0.328 -0.661
0.307 -0.057 -0.155
0.311 -0.054 -0.157
0.304 -0.050 -0.153
0.302 -0.047 -0.153
0.317 -0.046 -0.160
0.323 -0.044 -0.163
0.294 -0.037 -0.148
0.290 -0.034 -0.146
0.306 -0.027 -0.154
0.305 -0.024 -0.154
0.317 -0.022 -0.160
0.317 -0.019 -0.160
0.318 -0.016 -0.160
0.314 -0.013 -0.158
0.302 0.016 -0.152
0.306 0.019 -0.154
0.310 0.022 -0.156
0.306 0.025 -0.154
0.305 0.028 -0.154
0.308 0.031 -0.155
0.310 0.034 -0.156
0.308 0.037 -0.155
0.307 0.039 -0.155
0.311 0.043 -0.157
0.304 0.045 -0.154
0.314 0.049 -0.159
0.326 0.054 -0.165
0.325 0.061 -0.165
0.307 0.093 -0.158
0.368 0.158 -0.193
0.186 0.212 -0.118
0.178 0.206 -0.114
0.174 0.205 -0.112
0.171 0.205 -0.111
0.181 0.219 -0.117
0.184 0.226 -0.120
0.184 0.230 -0.120
0.178 0.225 -0.117
0.142 -0.097 -0.076
0.207 -0.136 -0.111
0.208 -0.134 -0.111
0.210 -0.133 -0.112
0.210 -0.130 -0.111
0.216 -0.132 -0.114
0.315 -0.178 -0.165
0.319 -0.176 -0.167
0.322 -0.174 -0.167
0.329 -0.174 -0.171
0.331 -0.172 -0.172
0.326 -0.166 -0.169
0.328 -0.163 -0.169
0.332 -0.162 -0.171
0.332 -0.158 -0.170
0.334 -0.155 -0.171
0.336 -0.153 -0.172
0.336 -0.149 -0.172
0.249 -0.100 -0.126
1.331 -0.493 -0.672
1.341 -0.484 -0.676
1.349 -0.473 -0.680
1.340 -0.456 -0.674
1.336 -0.441 -0.671
1.330 -0.426 -0.668
1.319 -0.410 -0.661
1.316 -0.395 -0.659
1.318 -0.383 -0.659
1.316 -0.370 -0.657
1.306 -0.354 -0.652
1.303 -0.340 -0.650
1.308 -0.329 -0.651
0.307 -0.054 -0.152
0.316 -0.052 -0.156
0.307 -0.048 -0.152
0.320 -0.047 -0.158
0.317 -0.043 -0.157
0.284 -0.033 -0.140
0.293 -0.032 -0.144
0.308 -0.030 -0.152
0.309 -0.027 -0.152
0.308 -0.024 -0.151
0.311 -0.022 -0.153
0.314 -0.019 -0.155
0.306 -0.016 -0.151
0.305 -0.013 -0.150
0.316 -0.010 -0.155
0.305 0.016 -0.150
0.310 0.022 -0.153
0.303 0.024 -0.150
0.312 0.028 -0.154
0.320 0.032 -0.158
0.324 0.035 -0.160
0.330 0.039 -0.163
0.325 0.042 -0.161
0.307 0.042 -0.152
0.315 0.046 -0.156
0.321 0.056 -0.159
0.304 0.083 -0.153
0.218 0.228 -0.132
0.188 0.213 -0.117
0.181 0.210 -0.113
0.181 0.212 -0.113
0.177 0.211 -0.112
0.177 0.214 -0.112
0.187 0.229 -0.119
0.186 0.232 -0.119
0.145 -0.098 -0.076
0.135 -0.090 -0.071
0.207 -0.136 -0.108
0.207 -0.133 -0.108
0.208 -0.132 -0.108
0.210 -0.130 -0.109
0.225 -0.137 -0.117
0.319 -0.191 -0.165
0.319 -0.187 -0.164
0.319 -0.183 -0.164
0.318 -0.179 -0.163
0.320 -0.176 -0.163
0.323 -0.174 -0.164
0.325 -0.172 -0.165
0.330 -0.171 -0.167
0.325 -0.165 -0.164
0.325 -0.161 -0.164
0.325 -0.158 -0.164
0.327 -0.155 -0.165
0.331 -0.154 -0.166
0.336 -0.152 -0.169
0.338 -0.150 -0.169
1.361 -0.504 -0.673
1.356 -0.488 -0.670
1.352 -0.473 -0.667
1.345 -0.457 -0.662
1.339 -0.441 -0.658
1.333 -0.426 -0.655
1.323 -0.410 -0.649
1.321 -0.396 -0.648
1.318 -0.382 -0.645
1.313 -0.368 -0.642
1.309 -0.354 -0.639
1.308 -0.341 -0.638
0.291 -0.053 -0.141
0.281 -0.049 -0.136
0.313 -0.051 -0.152
0.323 -0.050 -0.157
0.313 -0.043 -0.151
0.305 -0.039 -0.148
0.293 -0.034 -0.142
0.293 -0.032 -0.141
0.322 -0.032 -0.156
0.312 -0.028 -0.150
0.295 -0.023 -0.142
0.297 -0.021 -0.143
0.314 -0.019 -0.152
0.312 -0.016 -0.150
0.308 -0.013 -0.148
0.310 -0.010 -0.150
0.314 -0.007 -0.151
0.293 -0.004 -0.141
0.302 0.016 -0.146
0.316 0.028 -0.153
0.332 0.033 -0.160
0.343 0.037 -0.166
0.346 0.041 -0.167
0.334 0.043 -0.161
0.321 0.044 -0.156
0.325 0.048 -0.158
0.312 0.055 -0.152
0.319 0.075 -0.156
0.320 0.078 -0.156
0.322 0.088 -0.158
0.340 0.110 -0.168
0.235 0.226 -0.136
0.218 0.217 -0.127
0.206 0.209 -0.121
0.222 0.228 -0.131
0.210 0.220 -0.125
0.199 0.222 -0.120
0.191 0.216 -0.116
0.188 0.217 -0.115
0.186 0.218 -0.115
0.182 0.216 -0.112
0.176 0.213 -0.109
0.177 0.217 -0.110
0.187 0.232 -0.117
0.185 0.233 -0.116
0.179 0.229 -0.113
0.214 -0.140 -0.109
0.207 -0.133 -0.106
0.209 -0.131 -0.106
0.210 -0.130 -0.106
0.220 -0.134 -0.111
0.320 -0.190 -0.161
0.321 -0.188 -0.162
0.320 -0.183 -0.161
0.317 -0.178 -0.159
0.318 -0.175 -0.159
0.321 -0.173 -0.160
0.320 -0.169 -0.159
0.319 -0.165 -0.158
0.321 -0.162 -0.159
0.322 -0.159 -0.159
0.323 -0.156 -0.159
0.325 -0.154 -0.160
0.329 -0.152 -0.162
0.333 -0.151 -0.163
0.337 -0.149 -0.165
1.356 -0.501 -0.656
1.356 -0.487 -0.655
1.343 -0.469 -0.648
1.345 -0.456 -0.648
1.340 -0.441 -0.645
1.334 -0.426 -0.641
1.331 -0.412 -0.639
1.326 -0.397 -0.636
1.318 -0.382 -0.631
1.308 -0.366 -0.626
1.305 -0.352 -0.624
1.306 -0.340 -0.624
0.293 -0.054 -0.139
0.293 -0.051 -0.139
0.308 -0.051 -0.146
0.281 -0.041 -0.133
0.283 -0.038 -0.134
0.302 -0.038 -0.143
0.307 -0.036 -0.145
0.306 -0.033 -0.144
0.312 -0.031 -0.147
0.318 -0.028 -0.150
0.323 -0.020 -0.152
0.329 -0.017 -0.155
0.314 -0.013 -0.148
0.305 -0.010 -0.144
0.296 -0.007 -0.140
0.299 -0.004 -0.141
0.302 -0.001 -0.142
0.310 0.002 -0.146
0.315 0.005 -0.149
0.315 0.008 -0.149
0.292 0.012 -0.138
0.342 0.037 -0.162
0.348 0.041 -0.165
0.307 0.054 -0.146
0.320 0.065 -0.153
0.323 0.069 -0.154
0.322 0.072 -0.154
0.321 0.075 -0.154
0.297 0.075 -0.142
0.332 0.091 -0.159
0.313 0.088 -0.150
0.225 0.197 -0.124
0.222 0.198 -0.123
0.221 0.201 -0.123
0.225 0.208 -0.126
0.226 0.213 -0.127
0.227 0.217 -0.128
0.222 0.216 -0.126
0.215 0.213 -0.123
0.215 0.216 -0.123
0.209 0.214 -0.121
0.207 0.216 -0.120
0.191 0.209 -0.112
0.191 0.213 -0.113
0.197 0.223 -0.117
0.197 0.226 -0.118
0.193 0.225 -0.116
0.186 0.220 -0.112
0.175 0.211 -0.106
0.173 0.212 -0.106
0.185 0.229 -0.113
0.184 0.231 -0.113
0.181 0.231 -0.112
0.308 -0.224 -0.157
0.313 -0.224 -0.159
0.318 -0.223 -0.161
0.313 -0.216 -0.158
0.208 -0.133 -0.104
0.209 -0.131 -0.104
0.210 -0.129 -0.104
0.216 -0.131 -0.107
0.314 -0.187 -0.155
0.321 -0.187 -0.158
0.313 -0.179 -0.154
0.315 -0.176 -0.154
0.317 -0.174 -0.155
0.317 -0.170 -0.154
0.317 -0.167 -0.154
0.317 -0.164 -0.154
0.317 -0.160 -0.154
0.320 -0.158 -0.154
0.322 -0.156 -0.155
0.326 -0.154 -0.157
0.328 -0.151 -0.158
0.331 -0.150 -0.159
0.334 -0.147 -0.160
0.364 -0.138 -0.172
0.363 -0.134 -0.172
1.343 -0.481 -0.635
1.338 -0.466 -0.632
1.330 -0.450 -0.627
1.331 -0.437 -0.627
1.330 -0.424 -0.626
1.327 -0.410 -0.623
1.328 -0.397 -0.623
1.326 -0.383 -0.621
1.319 -0.368 -0.617
1.300 -0.350 -0.608
1.299 -0.337 -0.607
0.298 -0.055 -0.138
0.295 -0.051 -0.137
0.304 -0.050 -0.141
0.303 -0.044 -0.140
0.285 -0.039 -0.132
0.291 -0.037 -0.134
0.300 -0.035 -0.139
0.311 -0.033 -0.144
0.290 -0.028 -0.134
0.298 -0.026 -0.138
0.298 -0.024 -0.138
0.306 -0.021 -0.141
0.332 -0.020 -0.153
0.332 -0.017 -0.153
0.324 -0.013 -0.150
0.310 -0.010 -0.143
0.300 -0.007 -0.138
0.310 -0.004 -0.143
0.312 -0.001 -0.144
0.317 0.002 -0.146
0.300 0.004 -0.138
0.303 0.007 -0.140
0.317 0.025 -0.147
0.339 0.040 -0.157
0.305 0.053 -0.142
0.344 0.094 -0.162
0.329 0.096 -0.155
0.339 0.102 -0.160
0.344 0.107 -0.162
0.304 0.129 -0.146
0.255 0.204 -0.134
0.220 0.186 -0.117
0.219 0.189 -0.118
0.220 0.192 -0.118
0.221 0.197 -0.120
0.219 0.198 -0.119
0.221 0.204 -0.121
0.222 0.208 -0.122
0.221 0.211 -0.122
0.221 0.215 -0.123
0.223 0.221 -0.125
0.216 0.217 -0.121
0.213 0.217 -0.120
0.212 0.220 -0.120
0.206 0.217 -0.117
0.195 0.210 -0.112
0.195 0.213 -0.112
0.222 0.250 -0.129
0.184 0.227 -0.110
0.184 0.231 -0.111
0.182 0.232 -0.110
0.180 0.233 -0.110
0.320 -0.253 -0.162
0.322 -0.250 -0.162
0.321 -0.246 -0.162
0.323 -0.243 -0.162
0.321 -0.237 -0.160
0.321 -0.233 -0.160
0.322 -0.230 -0.160
0.322 -0.225 -0.159
0.319 -0.219 -0.157
0.209 -0.134 -0.102
0.209 -0.131 -0.101
0.209 -0.129 -0.101
0.212 -0.128 -0.102
0.311 -0.181 -0.150
0.315 -0.180 -0.151
0.314 -0.176 -0.150
0.313 -0.172 -0.150
0.314 -0.169 -0.150
0.315 -0.165 -0.150
0.317 -0.163 -0.150
0.318 -0.160 -0.150
0.320 -0.158 -0.151
0.323 -0.156 -0.152
0.326 -0.154 -0.153
0.329 -0.151 -0.154
0.332 -0.149 -0.156
0.334 -0.147 -0.156
0.357 -0.135 -0.166
0.362 -0.133 -0.167
0.360 -0.129 -0.166
1.315 -0.444 -0.606
1.325 -0.434 -0.610
1.325 -0.421 -0.609
1.315 -0.405 -0.604
1.315 -0.392 -0.603
1.336 -0.385 -0.612
1.326 -0.370 -0.607
1.294 -0.348 -0.592
1.289 -0.334 -0.589
0.292 -0.053 -0.133
0.293 -0.051 -0.133
0.299 -0.049 -0.136
0.295 -0.043 -0.134
0.292 -0.039 -0.132
0.289 -0.036 -0.131
0.295 -0.034 -0.133
0.298 -0.032 -0.135
0.298 -0.029 -0.135
0.298 -0.026 -0.135
0.304 -0.024 -0.137
0.307 -0.021 -0.139
0.310 -0.019 -0.140
0.322 -0.016 -0.145
0.320 -0.013 -0.144
0.322 -0.010 -0.145
0.325 -0.007 -0.147
0.312 -0.004 -0.141
0.316 -0.001 -0.142
0.308 0.002 -0.139
0.302 0.004 -0.136
0.295 0.007 -0.133
0.309 0.036 -0.140
0.310 0.045 -0.141
0.308 0.054 -0.140
0.294 0.054 -0.134
0.319 0.065 -0.145
0.313 0.070 -0.143
0.324 0.075 -0.148
0.324 0.078 -0.148
0.304 0.080 -0.140
0.319 0.087 -0.147
0.319 0.090 -0.147
0.306 0.089 -0.141
0.317 0.112 -0.147
0.320 0.136 -0.150
0.317 0.138 -0.149
0.266 0.202 -0.135
0.266 0.205 -0.136
0.264 0.208 -0.136
0.249 0.199 -0.128
0.245 0.200 -0.127
0.221 0.183 -0.115
0.221 0.186 -0.115
0.219 0.187 -0.115
0.220 0.192 -0.116
0.219 0.194 -0.116
0.217 0.196 -0.116
0.219 0.201 -0.117
0.222 0.208 -0.119
0.226 0.215 -0.122
0.229 0.221 -0.124
0.225 0.221 -0.123
0.220 0.221 -0.121
0.212 0.223 -0.118
0.215 0.238 -0.121
0.220 0.247 -0.125
0.193 0.239 -0.113
0.187 0.234 -0.110
0.180 0.229 -0.107
0.182 0.235 -0.108
0.323 -0.277 -0.163
0.320 -0.266 -0.160
0.331 -0.270 -0.165
0.333 -0.267 -0.165
0.330 -0.260 -0.163
0.325 -0.252 -0.161
0.324 -0.247 -0.159
0.326 -0.245 -0.160
0.326 -0.240 -0.159
0.322 -0.233 -0.157
0.324 -0.231 -0.157
0.323 -0.226 -0.156
0.317 -0.218 -0.153
0.211 -0.135 -0.100
0.209 -0.131 -0.099
0.210 -0.129 -0.100
0.212 -0.128 -0.100
0.306 -0.178 -0.144
0.310 -0.177 -0.146
0.310 -0.173 -0.145
0.311 -0.170 -0.145
0.312 -0.167 -0.145
0.313 -0.164 -0.145
0.315 -0.162 -0.146
0.319 -0.160 -0.148
0.322 -0.158 -0.149
0.324 -0.156 -0.150
0.328 -0.155 -0.151
0.332 -0.153 -0.152
0.334 -0.150 -0.153
0.337 -0.148 -0.154
0.357 -0.135 -0.162
0.364 -0.134 -0.165
0.371 -0.133 -0.168
0.378 -0.131 -0.171
1.330 -0.435 -0.599
1.313 -0.404 -0.590
1.323 -0.394 -0.593
1.328 -0.382 -0.595
1.313 -0.365 -0.588
1.297 -0.348 -0.580
1.289 -0.334 -0.576
0.297 -0.054 -0.132
0.293 -0.051 -0.130
0.297 -0.049 -0.132
0.284 -0.044 -0.126
0.292 -0.042 -0.129
0.295 -0.040 -0.130
0.299 -0.038 -0.132
0.301 -0.035 -0.133
0.303 -0.032 -0.134
0.295 -0.029 -0.130
0.302 -0.027 -0.134
0.310 -0.024 -0.137
0.310 -0.022 -0.137
0.304 -0.018 -0.134
0.301 -0.015 -0.133
0.310 -0.013 -0.137
0.321 -0.010 -0.142
0.328 -0.008 -0.145
0.326 -0.004 -0.144
0.301 -0.001 -0.133
0.305 0.002 -0.134
0.302 0.004 -0.133
0.299 0.007 -0.132
0.301 0.010 -0.133
0.316 0.013 -0.139
0.304 0.021 -0.134
0.329 0.029 -0.145
0.309 0.042 -0.137
0.307 0.051 -0.136
0.289 0.053 -0.129
0.324 0.069 -0.144
0.318 0.071 -0.142
0.331 0.077 -0.148
0.332 0.080 -0.148
0.315 0.079 -0.141
0.308 0.083 -0.138
0.307 0.086 -0.138
0.304 0.089 -0.137
0.305 0.095 -0.138
0.320 0.109 -0.145
0.347 0.125 -0.158
0.350 0.152 -0.161
0.257 0.174 -0.125
0.257 0.177 -0.125
0.253 0.177 -0.124
0.250 0.179 -0.123
0.248 0.180 -0.122
0.246 0.183 -0.122
0.255 0.193 -0.127
0.262 0.202 -0.131
0.257 0.201 -0.129
0.252 0.201 -0.127
0.237 0.192 -0.119
0.233 0.192 -0.118
0.220 0.185 -0.112
0.219 0.187 -0.112
0.218 0.190 -0.112
0.217 0.192 -0.112
0.216 0.195 -0.112
0.217 0.199 -0.113
0.223 0.208 -0.117
0.228 0.216 -0.120
0.224 0.216 -0.118
0.225 0.221 -0.120
0.223 0.222 -0.119
0.223 0.226 -0.120
0.213 0.231 -0.117
0.213 0.235 -0.117
0.210 0.236 -0.117
0.193 0.223 -0.108
0.229 0.273 -0.130
0.179 0.224 -0.103
0.179 0.227 -0.103
0.186 0.240 -0.108
0.321 -0.284 -0.159
0.328 -0.285 -0.162
0.332 -0.284 -0.164
0.334 -0.281 -0.164
0.332 -0.275 -0.162
0.330 -0.269 -0.161
0.332 -0.266 -0.161
0.332 -0.261 -0.161
0.328 -0.254 -0.158
0.328 -0.249 -0.157
0.326 -0.244 -0.156
0.327 -0.240 -0.156
0.321 -0.232 -0.152
0.322 -0.228 -0.152
0.323 -0.225 -0.152
0.313 -0.215 -0.147
0.213 -0.136 -0.099
0.210 -0.131 -0.097
0.210 -0.129 -0.097
0.212 -0.128 -0.098
0.303 -0.176 -0.139
0.304 -0.173 -0.139
0.305 -0.170 -0.139
0.308 -0.168 -0.141
0.309 -0.165 -0.141
0.310 -0.162 -0.141
0.314 -0.161 -0.142
0.318 -0.160 -0.144
0.321 -0.158 -0.145
0.323 -0.155 -0.145
0.330 -0.155 -0.148
0.333 -0.153 -0.150
0.335 -0.150 -0.150
0.336 -0.147 -0.150
0.363 -0.137 -0.161
0.368 -0.135 -0.163
0.375 -0.134 -0.165
0.378 -0.131 -0.167
0.381 -0.128 -0.168
0.391 -0.128 -0.172
1.325 -0.407 -0.581
1.320 -0.392 -0.578
1.320 -0.379 -0.578
1.310 -0.364 -0.573
1.302 -0.349 -0.569
1.311 -0.339 -0.572
0.344 -0.069 -0.149
0.305 -0.055 -0.132
0.296 -0.051 -0.128
0.289 -0.047 -0.125
0.285 -0.044 -0.124
0.290 -0.042 -0.126
0.298 -0.040 -0.129
0.302 -0.038 -0.130
0.300 -0.035 -0.130
0.297 -0.032 -0.128
0.292 -0.028 -0.126
0.299 -0.026 -0.129
0.308 -0.024 -0.133
0.312 -0.022 -0.134
0.302 -0.018 -0.130
0.299 -0.015 -0.129
0.301 -0.013 -0.130
0.308 -0.010 -0.133
0.320 -0.007 -0.138
0.315 -0.004 -0.136
0.304 -0.001 -0.131
0.302 0.002 -0.130
0.304 0.004 -0.131
0.296 0.007 -0.127
0.297 0.010 -0.128
0.310 0.013 -0.134
0.309 0.016 -0.133
0.303 0.050 -0.131
0.296 0.057 -0.129
0.312 0.066 -0.136
0.316 0.070 -0.138
0.327 0.076 -0.143
0.333 0.080 -0.146
0.327 0.082 -0.143
0.322 0.084 -0.141
0.318 0.086 -0.140
0.312 0.088 -0.137
0.314 0.091 -0.138
0.307 0.095 -0.135
0.293 0.094 -0.129
0.360 0.156 -0.162
0.269 0.172 -0.127
0.262 0.170 -0.124
0.255 0.169 -0.121
0.252 0.170 -0.120
0.251 0.173 -0.120
0.253 0.177 -0.121
0.248 0.177 -0.119
0.245 0.178 -0.118
0.244 0.181 -0.118
0.258 0.195 -0.125
0.267 0.205 -0.130
0.263 0.205 -0.129
0.248 0.197 -0.122
0.242 0.196 -0.120
0.235 0.194 -0.117
0.223 0.187 -0.111
0.220 0.188 -0.110
0.219 0.190 -0.110
0.220 0.194 -0.111
0.218 0.196 -0.110
0.215 0.197 -0.110
0.223 0.207 -0.114
0.219 0.208 -0.113
0.222 0.214 -0.115
0.221 0.217 -0.115
0.224 0.223 -0.117
0.224 0.226 -0.117
0.220 0.227 -0.116
0.219 0.230 -0.116
0.211 0.228 -0.113
0.219 0.246 -0.119
0.225 0.256 -0.123
0.201 0.233 -0.110
0.206 0.241 -0.113
0.182 0.228 -0.102
0.188 0.239 -0.106
0.191 0.246 -0.109
0.192 0.250 -0.109
0.323 -0.308 -0.160
0.324 -0.300 -0.159
0.328 -0.299 -0.160
0.331 -0.297 -0.161
0.331 -0.292 -0.160
0.332 -0.288 -0.161
0.330 -0.282 -0.159
0.331 -0.278 -0.158
0.329 -0.272 -0.157
0.330 -0.268 -0.157
0.330 -0.263 -0.156
0.329 -0.258 -0.155
0.329 -0.254 -0.155
0.327 -0.248 -0.153
0.324 -0.241 -0.151
0.319 -0.234 -0.149
0.320 -0.231 -0.149
0.320 -0.227 -0.148
0.315 -0.219 -0.145
0.313 -0.214 -0.144
0.309 -0.207 -0.142
0.214 -0.136 -0.097
0.210 -0.131 -0.095
0.210 -0.128 -0.095
0.210 -0.126 -0.095
0.302 -0.175 -0.136
0.302 -0.171 -0.135
0.304 -0.169 -0.136
0.305 -0.166 -0.136
0.307 -0.164 -0.136
0.310 -0.162 -0.137
0.313 -0.160 -0.138
0.317 -0.159 -0.140
0.320 -0.157 -0.141
0.321 -0.154 -0.141
0.323 -0.151 -0.142
0.331 -0.152 -0.145
0.335 -0.150 -0.147
0.338 -0.148 -0.148
0.364 -0.137 -0.157
0.368 -0.135 -0.159
0.374 -0.133 -0.161
0.378 -0.131 -0.163
0.378 -0.127 -0.163
0.380 -0.124 -0.163
1.306 -0.400 -0.560
1.308 -0.388 -0.560
1.311 -0.376 -0.561
1.318 -0.365 -0.563
1.310 -0.351 -0.559
1.298 -0.335 -0.553
0.380 -0.076 -0.161
0.296 -0.054 -0.125
0.302 -0.052 -0.128
0.298 -0.049 -0.126
0.291 -0.045 -0.123
0.293 -0.042 -0.124
0.293 -0.040 -0.124
0.297 -0.037 -0.125
0.296 -0.034 -0.125
0.295 -0.031 -0.124
0.295 -0.029 -0.124
0.297 -0.026 -0.125
0.301 -0.024 -0.127
0.307 -0.021 -0.130
0.308 -0.019 -0.130
0.308 -0.016 -0.130
0.304 -0.013 -0.128
0.302 -0.010 -0.127
0.304 -0.007 -0.128
0.310 -0.004 -0.131
0.309 -0.001 -0.130
0.313 0.002 -0.132
0.311 0.004 -0.131
0.303 0.007 -0.128
0.294 0.010 -0.124
0.300 0.013 -0.127
0.306 0.016 -0.129
0.304 0.018 -0.128
0.304 0.021 -0.128
0.318 0.031 -0.134
0.334 0.045 -0.142
0.326 0.050 -0.138
0.330 0.054 -0.140
0.330 0.057 -0.140
0.311 0.063 -0.132
0.311 0.066 -0.132
0.326 0.075 -0.139
0.328 0.079 -0.140
0.321 0.080 -0.137
0.326 0.088 -0.140
0.331 0.102 -0.143
0.336 0.114 -0.145
0.357 0.154 -0.157
0.280 0.161 -0.127
0.271 0.159 -0.123
0.271 0.163 -0.124
0.274 0.168 -0.125
0.270 0.169 -0.124
0.268 0.171 -0.123
0.263 0.170 -0.121
0.261 0.173 -0.121
0.261 0.176 -0.121
0.260 0.178 -0.121
0.257 0.180 -0.120
0.253 0.180 -0.118
0.250 0.181 -0.117
0.246 0.182 -0.116
0.278 0.213 -0.132
0.275 0.214 -0.131
0.257 0.204 -0.123
0.248 0.200 -0.119
0.240 0.197 -0.116
0.229 0.192 -0.111
0.225 0.191 -0.110
0.223 0.193 -0.109
0.223 0.196 -0.110
0.227 0.203 -0.112
0.224 0.204 -0.111
0.218 0.202 -0.109
0.214 0.202 -0.108
0.214 0.205 -0.108
0.218 0.213 -0.111
0.224 0.222 -0.114
0.225 0.227 -0.115
0.217 0.222 -0.112
0.210 0.219 -0.109
0.214 0.227 -0.111
0.208 0.239 -0.111
0.322 -0.332 -0.159
0.329 -0.334 -0.162
0.333 -0.333 -0.163
0.336 -0.331 -0.164
0.330 -0.320 -0.160
0.333 -0.317 -0.161
0.336 -0.315 -0.162
0.326 -0.301 -0.156
0.327 -0.297 -0.156
0.330 -0.295 -0.157
0.334 -0.294 -0.158
0.332 -0.287 -0.156
0.327 -0.278 -0.153
0.328 -0.274 -0.153
0.330 -0.272 -0.154
0.329 -0.267 -0.153
0.328 -0.261 -0.151
0.326 -0.256 -0.150
0.326 -0.251 -0.150
0.324 -0.246 -0.148
0.320 -0.239 -0.146
0.321 -0.235 -0.146
0.317 -0.228 -0.144
0.313 -0.221 -0.141
0.311 -0.216 -0.140
0.313 -0.214 -0.141
0.312 -0.209 -0.139
0.220 -0.139 -0.098
0.209 -0.130 -0.092
0.209 -0.128 -0.092
0.212 -0.127 -0.093
0.301 -0.174 -0.132
0.302 -0.171 -0.132
0.301 -0.167 -0.131
0.303 -0.165 -0.132
0.306 -0.163 -0.133
0.309 -0.161 -0.134
0.313 -0.160 -0.135
0.317 -0.158 -0.136
0.320 -0.156 -0.138
0.321 -0.154 -0.138
0.324 -0.151 -0.139
0.328 -0.150 -0.140
0.333 -0.149 -0.142
0.340 -0.148 -0.145
0.290 -0.121 -0.123
0.360 -0.135 -0.152
0.366 -0.134 -0.154
0.371 -0.132 -0.156
0.377 -0.130 -0.159
0.381 -0.128 -0.160
0.384 -0.125 -0.161
0.388 -0.123 -0.163
0.404 -0.124 -0.169
1.287 -0.381 -0.538
1.315 -0.377 -0.549
1.312 -0.363 -0.547
1.311 -0.350 -0.546
1.317 -0.339 -0.548
0.382 -0.077 -0.158
0.314 -0.057 -0.130
0.302 -0.052 -0.125
0.302 -0.049 -0.125
0.295 -0.045 -0.122
0.288 -0.041 -0.119
0.286 -0.038 -0.118
0.292 -0.036 -0.120
0.294 -0.034 -0.121
0.302 -0.032 -0.124
0.304 -0.030 -0.125
0.301 -0.026 -0.124
0.292 -0.023 -0.120
0.300 -0.021 -0.123
0.311 -0.019 -0.128
0.316 -0.016 -0.130
0.314 -0.013 -0.129
0.306 -0.010 -0.126
0.309 -0.007 -0.127
0.320 -0.004 -0.131
0.314 -0.001 -0.129
0.314 0.002 -0.129
0.323 0.005 -0.133
0.319 0.007 -0.131
0.305 0.010 -0.126
0.301 0.013 -0.124
0.307 0.016 -0.126
0.313 0.019 -0.129
0.320 0.022 -0.132
0.326 0.026 -0.134
0.318 0.031 -0.131
0.305 0.036 -0.126
0.318 0.040 -0.131
0.317 0.046 -0.131
0.320 0.049 -0.132
0.318 0.058 -0.132
0.302 0.058 -0.125
0.320 0.068 -0.133
0.322 0.071 -0.134
0.332 0.077 -0.138
0.331 0.080 -0.138
0.323 0.081 -0.135
0.320 0.083 -0.134
0.322 0.087 -0.135
0.296 0.083 -0.124
0.293 0.085 -0.123
0.328 0.101 -0.138
0.313 0.100 -0.132
0.318 0.104 -0.134
0.307 0.107 -0.130
0.303 0.112 -0.129
0.360 0.155 -0.154
0.349 0.155 -0.150
0.302 0.156 -0.132
0.300 0.159 -0.131
0.296 0.160 -0.130
0.297 0.164 -0.130
0.289 0.163 -0.127
0.282 0.163 -0.125
0.273 0.160 -0.121
0.270 0.162 -0.120
0.271 0.166 -0.121
0.273 0.170 -0.122
0.270 0.171 -0.121
0.277 0.179 -0.124
0.273 0.180 -0.123
0.265 0.178 -0.120
0.265 0.181 -0.120
0.262 0.182 -0.119
0.258 0.183 -0.118
0.257 0.186 -0.118
0.254 0.187 -0.117
0.266 0.200 -0.123
0.274 0.209 -0.127
0.272 0.212 -0.127
0.265 0.210 -0.124
0.260 0.209 -0.122
0.259 0.213 -0.122
0.233 0.195 -0.111
0.227 0.193 -0.108
0.225 0.194 -0.108
0.229 0.201 -0.110
0.235 0.210 -0.113
0.231 0.210 -0.112
0.224 0.207 -0.109
0.217 0.204 -0.106
0.218 0.209 -0.107
0.225 0.219 -0.111
0.233 0.230 -0.116
0.229 0.231 -0.114
0.228 0.234 -0.115
0.326 -0.368 -0.162
0.334 -0.360 -0.163
0.331 -0.351 -0.161
0.335 -0.350 -0.162
0.335 -0.345 -0.161
0.334 -0.338 -0.160
0.336 -0.335 -0.161
0.336 -0.330 -0.160
0.330 -0.319 -0.156
0.331 -0.314 -0.156
0.332 -0.311 -0.156
0.328 -0.302 -0.153
0.325 -0.295 -0.151
0.327 -0.292 -0.152
0.330 -0.289 -0.152
0.325 -0.280 -0.149
0.324 -0.275 -0.148
0.327 -0.274 -0.149
0.330 -0.271 -0.150
0.330 -0.267 -0.149
0.321 -0.256 -0.145
0.321 -0.251 -0.144
0.321 -0.247 -0.144
0.320 -0.242 -0.143
0.321 -0.238 -0.143
0.316 -0.231 -0.140
0.313 -0.225 -0.138
0.312 -0.220 -0.137
0.312 -0.216 -0.137
0.309 -0.211 -0.135
0.312 -0.209 -0.136
0.209 -0.130 -0.090
0.209 -0.128 -0.090
0.209 -0.125 -0.090
0.221 -0.130 -0.094
0.291 -0.167 -0.124
0.299 -0.169 -0.127
0.300 -0.166 -0.127
0.302 -0.164 -0.128
0.305 -0.162 -0.129
0.308 -0.161 -0.130
0.313 -0.159 -0.132
0.317 -0.158 -0.133
0.318 -0.155 -0.134
0.319 -0.152 -0.134
0.324 -0.151 -0.136
0.328 -0.150 -0.137
0.334 -0.149 -0.139
0.336 -0.147 -0.140
0.306 -0.127 -0.127
0.356 -0.133 -0.146
0.362 -0.132 -0.149
0.369 -0.131 -0.151
0.375 -0.129 -0.154
0.386 -0.130 -0.158
0.391 -0.127 -0.160
0.396 -0.125 -0.162
0.404 -0.123 -0.165
0.407 -0.120 -0.166
1.297 -0.371 -0.528
1.309 -0.362 -0.533
1.308 -0.349 -0.532
1.309 -0.337 -0.532
0.374 -0.078 -0.151
0.372 -0.074 -0.150
0.307 -0.056 -0.124
0.305 -0.052 -0.123
0.306 -0.050 -0.123
0.297 -0.045 -0.120
0.294 -0.042 -0.118
0.292 -0.039 -0.118
0.295 -0.037 -0.119
0.300 -0.035 -0.121
0.305 -0.032 -0.122
0.308 -0.030 -0.124
0.306 -0.027 -0.123
0.295 -0.023 -0.118
0.294 -0.020 -0.118
0.301 -0.018 -0.121
0.308 -0.016 -0.124
0.314 -0.013 -0.126
0.310 -0.010 -0.124
0.319 -0.007 -0.128
0.318 -0.004 -0.128
0.314 -0.001 -0.126
0.307 0.001 -0.123
0.315 0.004 -0.126
0.315 0.007 -0.127
0.309 0.010 -0.124
0.311 0.016 -0.125
0.318 0.019 -0.128
0.330 0.023 -0.133
0.336 0.027 -0.135
0.336 0.030 -0.135
0.308 0.036 -0.124
0.316 0.040 -0.127
0.328 0.054 -0.132
0.314 0.057 -0.127
0.292 0.059 -0.118
0.309 0.065 -0.125
0.323 0.071 -0.131
0.326 0.075 -0.132
0.329 0.079 -0.134
0.329 0.082 -0.134
0.325 0.084 -0.133
0.316 0.085 -0.129
0.304 0.085 -0.124
0.302 0.090 -0.124
0.307 0.095 -0.126
0.310 0.102 -0.127
0.336 0.120 -0.139
0.330 0.125 -0.137
0.312 0.138 -0.131
0.302 0.136 -0.127
0.297 0.137 -0.125
0.301 0.143 -0.127
0.313 0.152 -0.132
0.307 0.155 -0.130
0.304 0.157 -0.129
0.298 0.157 -0.127
0.293 0.158 -0.125
0.293 0.162 -0.126
0.288 0.162 -0.124
0.284 0.163 -0.122
0.277 0.162 -0.120
0.278 0.166 -0.121
0.279 0.170 -0.121
0.276 0.172 -0.120
0.277 0.176 -0.121
0.279 0.180 -0.122
0.271 0.178 -0.119
0.274 0.184 -0.121
0.267 0.183 -0.118
0.264 0.184 -0.117
0.269 0.190 -0.120
0.265 0.191 -0.118
0.268 0.197 -0.120
0.267 0.200 -0.120
0.242 0.212 -0.113
0.249 0.222 -0.117
0.349 -0.410 -0.171
0.352 -0.408 -0.172
0.328 -0.369 -0.159
0.328 -0.363 -0.158
0.338 -0.369 -0.162
0.333 -0.358 -0.159
0.336 -0.356 -0.159
0.338 -0.353 -0.160
0.338 -0.346 -0.159
0.336 -0.339 -0.157
0.336 -0.334 -0.156
0.328 -0.322 -0.152
0.326 -0.315 -0.151
0.328 -0.312 -0.151
0.331 -0.309 -0.151
0.328 -0.302 -0.149
0.325 -0.294 -0.147
0.326 -0.290 -0.147
0.324 -0.283 -0.146
0.321 -0.277 -0.144
0.321 -0.272 -0.143
0.324 -0.270 -0.144
0.326 -0.268 -0.144
0.323 -0.261 -0.143
0.318 -0.253 -0.140
0.318 -0.248 -0.139
0.318 -0.244 -0.139
0.316 -0.238 -0.137
0.315 -0.233 -0.136
0.312 -0.227 -0.135
0.311 -0.223 -0.134
0.310 -0.218 -0.133
0.310 -0.214 -0.133
0.309 -0.210 -0.132
0.303 -0.202 -0.129
0.293 -0.192 -0.124
0.212 -0.132 -0.089
0.209 -0.127 -0.088
0.210 -0.125 -0.088
0.211 -0.124 -0.088
0.254 -0.140 -0.105
0.260 -0.141 -0.108
0.301 -0.160 -0.124
0.305 -0.159 -0.126
0.312 -0.159 -0.128
0.315 -0.157 -0.129
0.316 -0.154 -0.129
0.318 -0.152 -0.130
0.321 -0.150 -0.131
0.327 -0.149 -0.133
0.331 -0.148 -0.135
0.333 -0.145 -0.135
0.291 -0.118 -0.118
0.353 -0.132 -0.142
0.360 -0.131 -0.145
0.369 -0.131 -0.148
0.375 -0.129 -0.150
0.380 -0.127 -0.152
0.393 -0.128 -0.157
0.401 -0.126 -0.160
0.403 -0.123 -0.160
0.404 -0.119 -0.161
0.402 -0.115 -0.160
1.290 -0.356 -0.512
1.298 -0.346 -0.515
1.301 -0.334 -0.515
0.382 -0.076 -0.150
0.373 -0.071 -0.147
0.300 -0.054 -0.118
0.297 -0.051 -0.117
0.302 -0.049 -0.119
0.302 -0.046 -0.119
0.301 -0.043 -0.118
0.302 -0.040 -0.118
0.302 -0.038 -0.118
0.302 -0.035 -0.118
0.303 -0.032 -0.119
0.304 -0.029 -0.119
0.303 -0.027 -0.119
0.299 -0.023 -0.117
0.299 -0.021 -0.117
0.298 -0.018 -0.117
0.306 -0.015 -0.120
0.306 -0.013 -0.120
0.311 -0.010 -0.122
0.308 -0.007 -0.121
0.319 -0.004 -0.125
0.316 -0.001 -0.124
0.318 0.002 -0.125
0.308 0.004 -0.120
0.305 0.007 -0.119
0.306 0.010 -0.120
0.320 0.022 -0.125
0.326 0.029 -0.128
0.316 0.031 -0.124
0.307 0.033 -0.121
0.305 0.038 -0.120
0.301 0.041 -0.118
0.301 0.044 -0.119
0.310 0.056 -0.122
0.315 0.060 -0.125
0.301 0.063 -0.119
0.312 0.069 -0.124
0.323 0.074 -0.128
0.320 0.077 -0.127
0.314 0.078 -0.125
0.341 0.088 -0.136
0.342 0.092 -0.136
0.302 0.087 -0.120
0.307 0.091 -0.123
0.307 0.098 -0.123
0.304 0.100 -0.122
0.328 0.114 -0.132
0.345 0.123 -0.139
0.352 0.130 -0.142
0.313 0.122 -0.127
0.321 0.128 -0.130
0.322 0.132 -0.131
0.323 0.136 -0.132
0.321 0.138 -0.131
0.318 0.140 -0.130
0.310 0.140 -0.127
0.304 0.140 -0.125
0.307 0.145 -0.126
0.300 0.145 -0.124
0.302 0.149 -0.125
0.303 0.153 -0.125
0.300 0.155 -0.124
0.294 0.155 -0.122
0.293 0.158 -0.122
0.291 0.160 -0.122
0.292 0.164 -0.122
0.289 0.166 -0.122
0.290 0.170 -0.122
0.284 0.169 -0.120
0.286 0.174 -0.121
0.289 0.183 -0.123
0.279 0.180 -0.119
0.285 0.187 -0.122
0.332 -0.407 -0.161
0.332 -0.400 -0.160
0.339 -0.404 -0.163
0.348 -0.408 -0.166
0.342 -0.396 -0.163
0.335 -0.382 -0.159
0.332 -0.372 -0.156
0.336 -0.372 -0.157
0.338 -0.368 -0.158
0.334 -0.359 -0.155
0.335 -0.354 -0.155
0.339 -0.352 -0.156
0.334 -0.342 -0.153
0.329 -0.331 -0.150
0.328 -0.326 -0.149
0.332 -0.324 -0.150
0.325 -0.312 -0.146
0.326 -0.309 -0.146
0.327 -0.305 -0.146
0.324 -0.297 -0.144
0.322 -0.290 -0.142
0.323 -0.287 -0.142
0.320 -0.280 -0.140
0.318 -0.274 -0.139
0.315 -0.266 -0.137
0.318 -0.265 -0.138
0.321 -0.263 -0.139
0.316 -0.255 -0.136
0.314 -0.249 -0.134
0.315 -0.246 -0.135
0.315 -0.241 -0.134
0.313 -0.236 -0.133
0.312 -0.231 -0.132
0.311 -0.226 -0.131
0.307 -0.220 -0.129
0.307 -0.216 -0.128
0.306 -0.211 -0.128
0.307 -0.208 -0.128
0.302 -0.201 -0.125
0.299 -0.196 -0.124
0.215 -0.133 -0.088
0.208 -0.127 -0.085
0.209 -0.125 -0.085
0.212 -0.124 -0.086
0.257 -0.145 -0.104
0.248 -0.137 -0.100
0.251 -0.136 -0.101
0.257 -0.136 -0.103
0.302 -0.157 -0.121
0.306 -0.156 -0.123
0.311 -0.155 -0.124
0.316 -0.154 -0.126
0.318 -0.151 -0.127
0.322 -0.150 -0.128
0.325 -0.148 -0.129
0.327 -0.146 -0.130
0.333 -0.145 -0.132
0.353 -0.132 -0.138
0.358 -0.130 -0.140
0.369 -0.131 -0.144
0.373 -0.128 -0.146
0.374 -0.125 -0.146
0.375 -0.122 -0.146
0.387 -0.122 -0.150
0.399 -0.122 -0.155
0.400 -0.118 -0.155
0.399 -0.114 -0.155
1.280 -0.340 -0.495
1.308 -0.335 -0.505
0.383 -0.076 -0.147
0.373 -0.071 -0.143
0.290 -0.052 -0.111
0.286 -0.049 -0.110
0.298 -0.048 -0.114
0.307 -0.047 -0.118
0.311 -0.045 -0.119
0.311 -0.042 -0.119
0.305 -0.038 -0.117
0.304 -0.035 -0.116
0.299 -0.032 -0.114
0.296 -0.029 -0.113
0.292 -0.026 -0.112
0.294 -0.023 -0.112
0.296 -0.020 -0.113
0.302 -0.018 -0.116
0.310 -0.016 -0.118
0.315 -0.013 -0.120
0.298 -0.010 -0.114
0.302 -0.007 -0.115
0.315 -0.004 -0.120
0.336 -0.001 -0.128
0.317 0.004 -0.121
0.308 0.007 -0.118
0.301 0.010 -0.115
0.302 0.013 -0.115
0.308 0.016 -0.118
0.313 0.019 -0.120
0.313 0.022 -0.120
0.313 0.025 -0.120
0.314 0.028 -0.120
0.318 0.031 -0.122
0.313 0.033 -0.120
0.309 0.036 -0.118
0.295 0.037 -0.113
0.313 0.045 -0.120
0.343 0.056 -0.132
0.324 0.065 -0.125
0.312 0.066 -0.120
0.325 0.074 -0.125
0.321 0.077 -0.124
0.315 0.078 -0.122
0.307 0.079 -0.119
0.335 0.090 -0.130
0.327 0.091 -0.127
0.319 0.092 -0.124
0.322 0.096 -0.125
0.335 0.103 -0.131
0.328 0.104 -0.128
0.332 0.109 -0.130
0.337 0.117 -0.132
0.355 0.127 -0.140
0.326 0.123 -0.128
0.312 0.121 -0.123
0.326 0.130 -0.129
0.329 0.134 -0.130
0.322 0.135 -0.128
0.319 0.137 -0.127
0.319 0.140 -0.127
0.314 0.142 -0.125
0.304 0.140 -0.121
0.303 0.143 -0.122
0.305 0.147 -0.123
0.304 0.150 -0.122
0.304 0.153 -0.122
0.297 0.153 -0.120
0.296 0.156 -0.120
0.293 0.158 -0.119
0.294 0.161 -0.120
0.298 0.167 -0.122
0.337 -0.418 -0.159
0.334 -0.408 -0.157
0.335 -0.404 -0.157
0.337 -0.400 -0.157
0.339 -0.397 -0.157
0.342 -0.395 -0.158
0.334 -0.380 -0.154
0.334 -0.374 -0.153
0.337 -0.372 -0.154
0.339 -0.368 -0.154
0.333 -0.357 -0.151
0.330 -0.348 -0.148
0.328 -0.341 -0.147
0.327 -0.334 -0.146
0.329 -0.331 -0.146
0.330 -0.327 -0.146
0.324 -0.316 -0.142
0.324 -0.311 -0.142
0.324 -0.306 -0.141
0.321 -0.299 -0.139
0.319 -0.292 -0.138
0.320 -0.288 -0.138
0.321 -0.284 -0.137
0.320 -0.279 -0.137
0.317 -0.272 -0.135
0.321 -0.271 -0.136
0.317 -0.263 -0.134
0.316 -0.258 -0.133
0.316 -0.254 -0.132
0.313 -0.248 -0.131
0.313 -0.243 -0.130
0.313 -0.239 -0.130
0.311 -0.233 -0.128
0.310 -0.229 -0.128
0.309 -0.224 -0.127
0.308 -0.220 -0.126
0.307 -0.215 -0.125
0.307 -0.212 -0.125
0.303 -0.205 -0.123
0.303 -0.201 -0.122
0.300 -0.196 -0.121
0.219 -0.136 -0.088
0.208 -0.126 -0.083
0.209 -0.125 -0.083
0.209 -0.122 -0.083
0.218 -0.125 -0.086
0.251 -0.141 -0.099
0.246 -0.136 -0.097
0.247 -0.133 -0.097
0.253 -0.134 -0.099
0.295 -0.153 -0.115
0.304 -0.154 -0.119
0.309 -0.154 -0.120
0.315 -0.153 -0.122
0.318 -0.151 -0.124
0.321 -0.149 -0.124
0.325 -0.148 -0.126
0.326 -0.145 -0.126
0.336 -0.146 -0.129
0.304 -0.126 -0.117
0.357 -0.133 -0.136
0.360 -0.131 -0.137
0.364 -0.128 -0.138
0.370 -0.127 -0.140
0.373 -0.124 -0.142
0.378 -0.122 -0.143
0.384 -0.121 -0.146
0.391 -0.119 -0.148
0.399 -0.118 -0.151
0.399 -0.114 -0.151
0.404 -0.111 -0.152
0.386 -0.080 -0.145
0.375 -0.075 -0.141
0.290 -0.052 -0.109
0.288 -0.049 -0.108
0.291 -0.047 -0.109
0.309 -0.047 -0.115
0.313 -0.045 -0.117
0.311 -0.042 -0.116
0.308 -0.038 -0.115
0.305 -0.035 -0.114
0.297 -0.031 -0.111
0.292 -0.028 -0.109
0.290 -0.025 -0.108
0.289 -0.023 -0.108
0.290 -0.020 -0.108
0.296 -0.018 -0.110
0.313 -0.016 -0.117
0.309 -0.013 -0.115
0.304 -0.010 -0.113
0.300 -0.007 -0.112
0.338 -0.002 -0.126
0.340 0.002 -0.127
0.320 0.004 -0.119
0.314 0.007 -0.117
0.301 0.010 -0.112
0.301 0.013 -0.112
0.304 0.016 -0.113
0.320 0.019 -0.119
0.316 0.022 -0.118
0.310 0.024 -0.116
0.308 0.027 -0.115
0.312 0.030 -0.116
0.314 0.033 -0.117
0.313 0.036 -0.117
0.304 0.038 -0.113
0.302 0.041 -0.113
0.341 0.052 -0.128
0.340 0.055 -0.127
0.319 0.055 -0.120
0.310 0.056 -0.116
0.347 0.066 -0.130
0.332 0.067 -0.125
0.340 0.075 -0.128
0.321 0.077 -0.121
0.321 0.080 -0.121
0.316 0.081 -0.119
0.319 0.085 -0.121
0.319 0.089 -0.121
0.319 0.092 -0.121
0.323 0.096 -0.122
0.340 0.104 -0.129
0.337 0.110 -0.128
0.334 0.112 -0.127
0.320 0.111 -0.122
0.351 0.125 -0.134
0.343 0.126 -0.132
0.317 0.120 -0.122
0.311 0.121 -0.120
0.327 0.130 -0.126
0.332 0.135 -0.128
0.326 0.136 -0.126
0.322 0.138 -0.125
0.320 0.140 -0.124
0.315 0.142 -0.123
0.313 0.144 -0.122
0.309 0.145 -0.121
0.308 0.148 -0.120
0.306 0.151 -0.120
0.299 0.150 -0.117
0.310 0.159 -0.122
0.304 0.163 -0.120
0.305 0.167 -0.121
0.321 -0.429 -0.151
0.329 -0.435 -0.154
0.335 -0.437 -0.157
0.330 -0.420 -0.153
0.333 -0.417 -0.154
0.333 -0.411 -0.153
0.335 -0.408 -0.153
0.334 -0.402 -0.153
0.337 -0.400 -0.153
0.340 -0.397 -0.154
0.335 -0.385 -0.151
0.331 -0.375 -0.148
0.332 -0.371 -0.148
0.336 -0.370 -0.149
0.332 -0.360 -0.147
0.327 -0.349 -0.144
0.326 -0.343 -0.143
0.325 -0.337 -0.142
0.326 -0.333 -0.141
0.328 -0.330 -0.142
0.327 -0.323 -0.140
0.321 -0.313 -0.137
0.323 -0.309 -0.137
0.325 -0.306 -0.138
0.319 -0.296 -0.135
0.320 -0.292 -0.134
0.319 -0.287 -0.134
0.319 -0.282 -0.133
0.320 -0.279 -0.133
0.323 -0.277 -0.134
0.311 -0.262 -0.128
0.313 -0.259 -0.128
0.312 -0.254 -0.128
0.313 -0.251 -0.128
0.314 -0.247 -0.127
0.313 -0.243 -0.127
0.311 -0.237 -0.125
0.310 -0.233 -0.125
0.308 -0.227 -0.123
0.307 -0.223 -0.123
0.307 -0.218 -0.122
0.307 -0.215 -0.122
0.304 -0.209 -0.120
0.303 -0.205 -0.119
0.302 -0.200 -0.119
0.300 -0.196 -0.118
0.210 -0.127 -0.081
0.208 -0.124 -0.081
0.209 -0.122 -0.081
0.216 -0.123 -0.083
0.250 -0.140 -0.096
0.245 -0.135 -0.094
0.245 -0.132 -0.094
0.246 -0.130 -0.094
0.260 -0.134 -0.099
0.304 -0.154 -0.116
0.310 -0.153 -0.117
0.314 -0.153 -0.119
0.317 -0.151 -0.120
0.321 -0.149 -0.121
0.325 -0.147 -0.122
0.328 -0.145 -0.123
0.326 -0.141 -0.122
0.359 -0.134 -0.134
0.361 -0.131 -0.134
0.365 -0.129 -0.135
0.371 -0.127 -0.137
0.374 -0.125 -0.138
0.379 -0.122 -0.140
0.386 -0.121 -0.142
0.397 -0.121 -0.146
0.403 -0.119 -0.148
0.408 -0.116 -0.150
0.412 -0.113 -0.151
0.387 -0.081 -0.141
0.306 -0.055 -0.111
0.290 -0.050 -0.106
0.297 -0.048 -0.108
0.302 -0.046 -0.110
0.301 -0.043 -0.109
0.306 -0.041 -0.111
0.308 -0.038 -0.112
0.301 -0.035 -0.109
0.292 -0.031 -0.106
0.290 -0.028 -0.105
0.289 -0.025 -0.105
0.289 -0.023 -0.105
0.283 -0.020 -0.103
0.286 -0.017 -0.104
0.305 -0.015 -0.111
0.314 -0.013 -0.114
0.314 -0.010 -0.114
0.321 -0.007 -0.116
0.318 -0.004 -0.115
0.313 0.001 -0.113
0.308 0.004 -0.111
0.307 0.007 -0.111
0.301 0.010 -0.109
0.305 0.013 -0.110
0.315 0.016 -0.114
0.328 0.020 -0.119
0.330 0.023 -0.120
0.319 0.025 -0.116
0.316 0.028 -0.115
0.310 0.030 -0.113
0.313 0.033 -0.114
0.320 0.037 -0.116
0.314 0.039 -0.114
0.309 0.041 -0.112
0.321 0.046 -0.117
0.335 0.051 -0.122
0.330 0.054 -0.120
0.319 0.055 -0.117
0.316 0.057 -0.115
0.316 0.063 -0.115
0.326 0.068 -0.119
0.342 0.075 -0.125
0.326 0.075 -0.120
0.328 0.078 -0.120
0.323 0.083 -0.119
0.316 0.084 -0.116
0.309 0.086 -0.114
0.310 0.089 -0.115
0.321 0.095 -0.119
0.334 0.102 -0.124
0.326 0.110 -0.121
0.333 0.115 -0.124
0.336 0.120 -0.125
0.316 0.119 -0.118
0.320 0.124 -0.120
0.325 0.129 -0.122
0.331 0.135 -0.125
0.331 0.138 -0.124
0.326 0.140 -0.123
0.319 0.140 -0.121
0.319 0.143 -0.121
0.325 0.149 -0.123
0.317 0.149 -0.121
0.300 0.144 -0.114
0.303 0.149 -0.116
0.329 -0.440 -0.151
0.327 -0.431 -0.149
0.328 -0.428 -0.150
0.326 -0.419 -0.148
0.331 -0.420 -0.150
0.330 -0.413 -0.148
0.334 -0.412 -0.149
0.334 -0.407 -0.149
0.336 -0.404 -0.149
0.339 -0.401 -0.150
0.340 -0.396 -0.149
0.332 -0.381 -0.145
0.328 -0.372 -0.143
0.328 -0.365 -0.142
0.321 -0.352 -0.138
0.328 -0.355 -0.141
0.326 -0.348 -0.140
0.325 -0.341 -0.138
0.325 -0.337 -0.138
0.325 -0.331 -0.137
0.325 -0.326 -0.136
0.321 -0.316 -0.134
0.322 -0.313 -0.134
0.323 -0.309 -0.134
0.321 -0.302 -0.132
0.319 -0.296 -0.131
0.320 -0.291 -0.131
0.319 -0.286 -0.130
0.318 -0.281 -0.129
0.319 -0.278 -0.129
0.321 -0.274 -0.129
0.313 -0.263 -0.125
0.311 -0.258 -0.124
0.311 -0.253 -0.124
0.310 -0.248 -0.123
0.312 -0.246 -0.123
0.310 -0.240 -0.122
0.309 -0.236 -0.121
0.309 -0.231 -0.121
0.307 -0.226 -0.120
0.304 -0.220 -0.118
0.302 -0.215 -0.117
0.301 -0.211 -0.116
0.300 -0.206 -0.116
0.301 -0.203 -0.116
0.297 -0.197 -0.114
0.293 -0.191 -0.112
0.287 -0.183 -0.109
0.210 -0.127 -0.079
0.208 -0.124 -0.078
0.209 -0.122 -0.079
0.213 -0.121 -0.080
0.247 -0.138 -0.092
0.244 -0.134 -0.091
0.244 -0.131 -0.091
0.244 -0.129 -0.091
0.252 -0.130 -0.093
0.305 -0.154 -0.113
0.309 -0.153 -0.114
0.314 -0.152 -0.116
0.318 -0.151 -0.117
0.322 -0.149 -0.118
0.324 -0.147 -0.119
0.328 -0.145 -0.120
0.329 -0.142 -0.120
0.327 -0.138 -0.119
0.355 -0.132 -0.128
0.359 -0.130 -0.130
0.363 -0.128 -0.131
0.372 -0.127 -0.134
0.374 -0.125 -0.135
0.378 -0.122 -0.136
0.392 -0.123 -0.141
0.401 -0.122 -0.144
0.409 -0.120 -0.146
0.414 -0.118 -0.148
0.433 -0.119 -0.155
0.445 -0.118 -0.159
0.455 -0.116 -0.162
0.380 -0.079 -0.135
0.375 -0.075 -0.133
0.291 -0.052 -0.103
0.289 -0.049 -0.102
0.294 -0.047 -0.104
0.293 -0.045 -0.104
0.294 -0.042 -0.104
0.300 -0.040 -0.106
0.302 -0.037 -0.107
0.297 -0.034 -0.105
0.290 -0.031 -0.103
0.290 -0.028 -0.103
0.291 -0.025 -0.103
0.293 -0.023 -0.103
0.290 -0.020 -0.102
0.296 -0.018 -0.105
0.308 -0.016 -0.109
0.326 -0.013 -0.115
0.332 -0.011 -0.117
0.325 -0.007 -0.115
0.324 -0.004 -0.114
0.310 -0.001 -0.109
0.299 0.001 -0.105
0.295 0.004 -0.104
0.302 0.007 -0.107
0.312 0.010 -0.110
0.322 0.013 -0.114
0.324 0.016 -0.114
0.329 0.020 -0.116
0.330 0.023 -0.117
0.329 0.026 -0.116
0.319 0.028 -0.113
0.309 0.030 -0.109
0.315 0.034 -0.112
0.324 0.037 -0.115
0.317 0.040 -0.112
0.315 0.042 -0.112
0.324 0.046 -0.115
0.332 0.051 -0.118
0.328 0.053 -0.116
0.321 0.055 -0.114
0.330 0.060 -0.117
0.320 0.061 -0.114
0.312 0.062 -0.111
0.323 0.068 -0.115
0.328 0.072 -0.117
0.315 0.072 -0.112
0.306 0.073 -0.109
0.321 0.083 -0.115
0.320 0.086 -0.115
0.305 0.084 -0.110
0.317 0.091 -0.114
0.324 0.096 -0.117
0.317 0.097 -0.114
0.290 0.092 -0.105
0.310 0.104 -0.112
0.320 0.111 -0.116
0.324 0.115 -0.117
0.315 0.118 -0.115
0.324 0.125 -0.118
3.109 1.232 -1.135
0.326 0.143 -0.120
0.321 0.144 -0.118
0.374 0.213 -0.141
0.335 -0.453 -0.150
0.330 -0.441 -0.147
0.327 -0.431 -0.145
0.325 -0.423 -0.144
0.332 -0.427 -0.147
0.329 -0.418 -0.145
0.333 -0.416 -0.146
0.331 -0.408 -0.144
0.334 -0.406 -0.145
0.333 -0.399 -0.144
0.334 -0.395 -0.144
0.333 -0.388 -0.143
0.329 -0.377 -0.140
0.326 -0.369 -0.138
0.324 -0.361 -0.137
0.325 -0.356 -0.136
0.324 -0.350 -0.135
0.326 -0.347 -0.136
