VERSION .7
FIELDS x y z
SIZE 4 4 4
TYPE F F F
COUNT 1 1 1
WIDTH     2586
HEIGHT 1
VIEWPOINT 0 0 0 1 0 0 0
POINTS     2586
DATA ascii
0.261 0.062 0.077
0.264 0.065 0.078
0.259 0.066 0.076
0.258 0.068 0.076
0.264 0.072 0.078
0.271 0.077 0.080
0.278 0.082 0.082
0.283 0.086 0.084
0.285 0.089 0.084
0.280 0.090 0.083
0.273 0.091 0.081
0.270 0.093 0.080
0.269 0.095 0.080
0.268 0.097 0.080
0.263 0.098 0.079
0.258 0.099 0.077
0.256 0.101 0.077
0.263 0.106 0.079
0.263 0.109 0.079
0.258 0.109 0.078
0.250 0.109 0.076
0.254 0.113 0.077
0.254 0.116 0.077
0.255 0.119 0.077
0.255 0.122 0.078
0.253 0.123 0.077
0.254 0.126 0.078
0.254 0.129 0.078
0.253 0.132 0.078
0.255 0.135 0.079
0.255 0.138 0.079
0.255 0.141 0.079
0.256 0.144 0.079
0.249 0.143 0.077
0.249 0.146 0.078
0.247 0.148 0.077
0.245 0.150 0.077
0.245 0.152 0.077
0.245 0.156 0.078
0.246 0.159 0.078
0.245 0.162 0.078
0.258 0.173 0.082
0.256 0.175 0.082
0.253 0.176 0.081
0.249 0.176 0.080
0.250 0.180 0.081
0.248 0.183 0.081
0.247 0.185 0.081
0.247 0.188 0.081
0.248 0.192 0.082
0.250 0.197 0.082
0.249 0.200 0.083
0.243 0.199 0.081
0.234 0.195 0.078
0.233 0.197 0.078
0.232 0.199 0.078
0.220 0.192 0.075
0.210 0.187 0.072
0.209 0.189 0.072
0.212 0.195 0.073
0.209 0.196 0.073
0.209 0.199 0.073
0.208 0.202 0.073
0.208 0.205 0.073
0.209 0.210 0.074
0.212 0.215 0.076
0.212 0.219 0.076
0.209 0.221 0.076
0.206 0.221 0.075
0.197 0.214 0.072
0.194 0.215 0.071
0.196 0.220 0.072
0.204 0.233 0.076
0.201 0.233 0.075
0.196 0.232 0.074
0.198 0.238 0.075
0.207 0.253 0.079
0.203 0.252 0.078
0.195 0.246 0.076
0.190 0.244 0.074
0.191 0.248 0.075
0.190 0.251 0.075
0.184 0.246 0.073
0.101 -0.136 0.040
0.102 -0.136 0.041
0.102 -0.134 0.040
0.104 -0.135 0.041
0.104 -0.134 0.041
0.104 -0.132 0.041
0.103 -0.129 0.040
0.104 -0.128 0.040
0.105 -0.128 0.040
0.105 -0.125 0.040
0.105 -0.124 0.040
0.105 -0.122 0.040
0.104 -0.119 0.039
0.109 -0.124 0.041
0.112 -0.125 0.042
0.106 -0.116 0.039
0.104 -0.112 0.038
0.101 -0.108 0.037
0.111 -0.116 0.041
0.123 -0.127 0.045
0.114 -0.116 0.041
0.116 -0.116 0.042
0.116 -0.114 0.042
0.247 -0.235 0.088
0.250 -0.234 0.088
0.253 -0.233 0.089
0.256 -0.232 0.089
0.258 -0.231 0.090
0.261 -0.229 0.090
0.259 -0.224 0.089
0.261 -0.222 0.090
0.261 -0.218 0.089
0.260 -0.214 0.089
0.255 -0.206 0.086
0.250 -0.199 0.084
0.244 -0.191 0.082
0.214 -0.165 0.072
0.206 -0.156 0.069
0.205 -0.153 0.068
0.205 -0.150 0.068
0.204 -0.147 0.067
0.203 -0.143 0.067
0.203 -0.141 0.067
0.205 -0.140 0.067
0.206 -0.138 0.067
0.204 -0.135 0.067
0.182 -0.118 0.059
0.177 -0.112 0.057
0.176 -0.110 0.057
0.198 -0.121 0.064
0.206 -0.124 0.066
0.211 -0.124 0.067
0.207 -0.120 0.066
0.215 -0.122 0.068
0.213 -0.119 0.068
0.209 -0.114 0.066
0.207 -0.111 0.065
0.207 -0.109 0.065
0.207 -0.106 0.065
0.208 -0.105 0.065
0.209 -0.103 0.066
0.210 -0.101 0.066
0.211 -0.100 0.066
0.210 -0.097 0.065
0.208 -0.094 0.065
0.208 -0.092 0.064
0.205 -0.088 0.064
0.211 -0.089 0.065
0.205 -0.084 0.063
0.207 -0.083 0.064
0.207 -0.081 0.064
0.207 -0.079 0.064
0.211 -0.078 0.065
0.213 -0.077 0.065
0.214 -0.075 0.065
0.218 -0.074 0.067
0.227 -0.075 0.069
0.229 -0.074 0.070
0.233 -0.072 0.071
0.235 -0.071 0.071
0.239 -0.070 0.073
0.244 -0.069 0.074
0.261 -0.071 0.079
0.274 -0.072 0.083
0.276 -0.070 0.084
0.275 -0.067 0.083
0.263 -0.062 0.079
0.213 -0.044 0.064
0.210 -0.042 0.063
0.209 -0.039 0.063
0.207 -0.037 0.062
0.206 -0.035 0.062
0.207 -0.033 0.062
0.210 -0.032 0.063
0.212 -0.030 0.063
0.212 -0.028 0.064
0.216 -0.027 0.065
0.221 -0.025 0.066
0.225 -0.024 0.067
0.260 -0.025 0.078
0.270 -0.024 0.081
0.272 -0.021 0.081
0.272 -0.019 0.081
0.272 -0.016 0.081
0.272 -0.014 0.081
0.273 -0.011 0.081
0.273 -0.009 0.082
0.274 -0.006 0.082
0.274 -0.004 0.082
0.274 -0.001 0.082
0.276 0.001 0.082
0.279 0.004 0.083
0.281 0.006 0.084
0.287 0.009 0.086
0.286 0.012 0.086
0.281 0.014 0.084
0.271 0.016 0.081
0.264 0.018 0.079
0.267 0.021 0.080
0.268 0.023 0.080
0.270 0.026 0.081
0.271 0.029 0.081
0.277 0.032 0.083
0.280 0.035 0.084
0.280 0.037 0.084
0.281 0.040 0.084
0.278 0.042 0.084
0.277 0.045 0.083
0.279 0.048 0.084
0.279 0.050 0.084
0.278 0.053 0.084
0.276 0.055 0.083
0.274 0.057 0.083
0.262 0.057 0.079
0.251 0.057 0.076
0.254 0.060 0.077
0.257 0.063 0.078
0.252 0.064 0.076
0.258 0.069 0.078
0.267 0.073 0.081
0.275 0.078 0.084
0.280 0.082 0.085
0.281 0.086 0.086
0.280 0.088 0.086
0.274 0.089 0.084
0.264 0.088 0.081
0.259 0.089 0.079
0.257 0.091 0.079
0.254 0.092 0.078
0.251 0.094 0.077
0.248 0.095 0.077
0.244 0.096 0.075
0.244 0.099 0.076
0.247 0.102 0.077
0.248 0.105 0.077
0.250 0.109 0.078
0.250 0.111 0.078
0.251 0.114 0.078
0.251 0.117 0.079
0.249 0.119 0.078
0.247 0.121 0.078
0.247 0.123 0.078
0.248 0.126 0.079
0.249 0.130 0.079
0.250 0.133 0.080
0.250 0.136 0.080
0.250 0.138 0.080
0.248 0.140 0.079
0.246 0.142 0.079
0.245 0.144 0.079
0.246 0.148 0.080
0.245 0.150 0.080
0.244 0.152 0.079
0.243 0.155 0.079
0.243 0.157 0.080
0.245 0.161 0.080
0.254 0.171 0.084
0.254 0.174 0.084
0.247 0.172 0.082
0.247 0.175 0.082
0.244 0.176 0.082
0.243 0.179 0.082
0.246 0.184 0.083
0.245 0.187 0.083
0.246 0.191 0.084
0.245 0.194 0.084
0.242 0.194 0.083
0.230 0.188 0.079
0.226 0.188 0.078
0.223 0.189 0.078
0.218 0.188 0.076
0.209 0.183 0.074
0.205 0.182 0.072
0.203 0.184 0.072
0.205 0.189 0.073
0.203 0.191 0.073
0.205 0.195 0.074
0.206 0.200 0.075
0.206 0.204 0.075
0.205 0.206 0.075
0.208 0.212 0.077
0.208 0.216 0.077
0.211 0.222 0.079
0.210 0.225 0.079
0.203 0.222 0.077
0.196 0.217 0.074
0.202 0.228 0.077
0.204 0.234 0.079
0.201 0.234 0.078
0.199 0.236 0.078
0.200 0.241 0.078
0.199 0.244 0.079
0.204 0.254 0.081
0.197 0.249 0.079
0.191 0.245 0.077
0.187 0.244 0.076
0.187 0.247 0.076
0.191 0.256 0.078
0.101 -0.137 0.042
0.102 -0.136 0.042
0.103 -0.136 0.042
0.103 -0.135 0.042
0.104 -0.134 0.042
0.105 -0.133 0.042
0.104 -0.130 0.042
0.104 -0.129 0.042
0.105 -0.128 0.042
0.105 -0.126 0.041
0.105 -0.124 0.041
0.103 -0.120 0.040
0.112 -0.129 0.044
0.118 -0.133 0.046
0.105 -0.117 0.041
0.104 -0.114 0.040
0.098 -0.106 0.037
0.099 -0.106 0.038
0.102 -0.107 0.038
0.111 -0.113 0.041
0.110 -0.110 0.041
0.111 -0.109 0.041
0.237 -0.226 0.087
0.245 -0.230 0.089
0.249 -0.230 0.090
0.251 -0.228 0.091
0.252 -0.226 0.091
0.253 -0.222 0.090
0.256 -0.222 0.091
0.255 -0.217 0.090
0.256 -0.214 0.090
0.256 -0.211 0.090
0.254 -0.206 0.089
0.248 -0.198 0.087
0.242 -0.190 0.084
0.205 -0.156 0.071
0.202 -0.151 0.069
0.203 -0.149 0.070
0.204 -0.147 0.070
0.203 -0.144 0.069
0.204 -0.142 0.069
0.204 -0.139 0.069
0.203 -0.136 0.068
0.192 -0.127 0.064
0.179 -0.116 0.060
0.180 -0.115 0.060
0.187 -0.117 0.062
0.205 -0.126 0.068
0.206 -0.124 0.068
0.208 -0.123 0.069
0.209 -0.121 0.069
0.210 -0.120 0.069
0.211 -0.118 0.069
0.211 -0.115 0.069
0.213 -0.114 0.069
0.210 -0.111 0.069
0.210 -0.108 0.068
0.208 -0.105 0.067
0.208 -0.102 0.067
0.208 -0.101 0.067
0.208 -0.098 0.067
0.208 -0.096 0.067
0.204 -0.092 0.066
0.207 -0.092 0.066
0.210 -0.091 0.067
0.201 -0.084 0.064
0.208 -0.085 0.066
0.205 -0.082 0.065
0.208 -0.081 0.066
0.212 -0.081 0.067
0.213 -0.079 0.067
0.215 -0.078 0.068
0.219 -0.077 0.069
0.223 -0.076 0.070
0.218 -0.072 0.069
0.233 -0.075 0.073
0.231 -0.072 0.073
0.235 -0.071 0.074
0.243 -0.071 0.076
0.252 -0.071 0.079
0.258 -0.070 0.080
0.265 -0.070 0.083
0.274 -0.070 0.085
0.274 -0.067 0.085
0.273 -0.064 0.085
0.268 -0.061 0.083
0.268 -0.058 0.083
0.264 -0.055 0.082
0.266 -0.053 0.083
0.267 -0.050 0.083
0.264 -0.047 0.082
0.261 -0.044 0.081
0.252 -0.041 0.078
0.243 -0.037 0.075
0.222 -0.032 0.069
0.218 -0.029 0.068
0.214 -0.027 0.066
0.214 -0.025 0.066
0.215 -0.023 0.066
0.219 -0.021 0.068
0.220 -0.019 0.068
0.268 -0.018 0.083
0.267 -0.016 0.082
0.265 -0.013 0.082
0.266 -0.011 0.082
0.269 -0.009 0.083
0.270 -0.006 0.083
0.270 -0.004 0.083
0.269 -0.001 0.083
0.271 0.001 0.083
0.281 0.004 0.087
0.289 0.007 0.089
0.287 0.009 0.089
0.282 0.012 0.087
0.280 0.014 0.086
0.260 0.016 0.080
0.261 0.018 0.081
0.265 0.021 0.082
0.269 0.023 0.083
0.267 0.026 0.083
0.273 0.029 0.085
0.272 0.031 0.084
0.275 0.034 0.085
0.278 0.037 0.086
0.279 0.040 0.086
0.276 0.042 0.086
0.275 0.044 0.085
0.275 0.047 0.085
0.276 0.050 0.086
0.275 0.052 0.085
0.275 0.055 0.086
0.269 0.056 0.084
0.257 0.056 0.080
0.242 0.055 0.076
0.240 0.057 0.075
0.247 0.061 0.077
0.244 0.063 0.076
0.248 0.066 0.078
0.270 0.074 0.085
0.279 0.079 0.088
0.281 0.083 0.088
0.280 0.085 0.088
0.276 0.087 0.087
0.269 0.087 0.085
0.261 0.087 0.083
0.252 0.087 0.080
0.249 0.088 0.079
0.244 0.089 0.078
0.243 0.091 0.077
0.242 0.093 0.077
0.242 0.095 0.077
0.242 0.098 0.077
0.244 0.101 0.078
0.246 0.105 0.079
0.248 0.108 0.080
0.248 0.111 0.080
0.245 0.112 0.079
0.246 0.115 0.080
0.244 0.117 0.079
0.244 0.119 0.079
0.245 0.122 0.080
0.243 0.124 0.080
0.243 0.127 0.080
0.242 0.129 0.080
0.244 0.133 0.080
0.243 0.135 0.080
0.245 0.139 0.081
0.244 0.141 0.081
0.242 0.143 0.081
0.243 0.146 0.081
0.244 0.149 0.082
0.244 0.152 0.082
0.242 0.154 0.082
0.240 0.155 0.081
0.243 0.161 0.083
0.250 0.169 0.085
0.248 0.170 0.085
0.241 0.168 0.083
0.241 0.172 0.083
0.242 0.176 0.084
0.244 0.180 0.085
0.246 0.184 0.086
0.246 0.188 0.086
0.242 0.188 0.085
0.238 0.188 0.084
0.215 0.176 0.077
0.217 0.181 0.078
0.217 0.184 0.078
0.208 0.180 0.075
0.204 0.179 0.074
0.204 0.182 0.074
0.206 0.187 0.076
0.205 0.189 0.076
0.204 0.191 0.075
0.203 0.194 0.075
0.205 0.199 0.077
0.205 0.203 0.077
0.206 0.208 0.078
0.202 0.206 0.077
0.203 0.211 0.078
0.205 0.217 0.079
0.207 0.223 0.080
0.202 0.221 0.079
0.201 0.223 0.079
0.200 0.226 0.079
0.201 0.231 0.080
0.201 0.235 0.081
0.201 0.238 0.081
0.200 0.241 0.081
0.202 0.248 0.083
0.201 0.250 0.082
0.197 0.249 0.081
0.193 0.248 0.080
0.188 0.245 0.079
0.192 0.254 0.080
0.199 0.267 0.084
0.101 -0.138 0.043
0.102 -0.137 0.043
0.103 -0.136 0.043
0.103 -0.135 0.043
0.104 -0.134 0.044
0.105 -0.133 0.044
0.104 -0.130 0.043
0.104 -0.129 0.043
0.105 -0.128 0.043
0.105 -0.126 0.043
0.105 -0.124 0.043
0.115 -0.135 0.047
0.115 -0.133 0.046
0.110 -0.125 0.044
0.104 -0.116 0.041
0.103 -0.113 0.041
0.099 -0.107 0.039
0.100 -0.107 0.039
0.100 -0.105 0.039
0.109 -0.111 0.042
0.109 -0.109 0.042
0.108 -0.107 0.041
0.118 -0.114 0.045
0.240 -0.225 0.090
0.245 -0.227 0.092
0.247 -0.225 0.092
0.246 -0.221 0.091
0.248 -0.219 0.092
0.250 -0.217 0.092
0.251 -0.214 0.092
0.251 -0.211 0.092
0.252 -0.208 0.091
0.252 -0.205 0.091
0.250 -0.200 0.090
0.237 -0.186 0.085
0.228 -0.176 0.081
0.199 -0.151 0.071
0.201 -0.150 0.071
0.203 -0.149 0.072
0.202 -0.146 0.071
0.202 -0.144 0.071
0.204 -0.142 0.071
0.210 -0.144 0.073
0.194 -0.131 0.067
0.189 -0.125 0.066
0.180 -0.117 0.062
0.186 -0.119 0.064
0.206 -0.129 0.071
0.207 -0.127 0.071
0.207 -0.125 0.071
0.204 -0.121 0.069
0.205 -0.119 0.070
0.211 -0.120 0.071
0.211 -0.118 0.071
0.214 -0.117 0.072
0.216 -0.116 0.073
0.215 -0.113 0.072
0.209 -0.108 0.070
0.209 -0.106 0.070
0.207 -0.102 0.069
0.207 -0.100 0.069
0.208 -0.099 0.069
0.206 -0.095 0.068
0.205 -0.093 0.068
0.206 -0.091 0.068
0.213 -0.092 0.070
0.211 -0.089 0.069
0.204 -0.084 0.067
0.205 -0.082 0.067
0.205 -0.080 0.067
0.210 -0.080 0.069
0.209 -0.078 0.068
0.210 -0.076 0.068
0.222 -0.078 0.072
0.212 -0.073 0.069
0.214 -0.071 0.069
0.227 -0.073 0.074
0.232 -0.072 0.075
0.238 -0.072 0.077
0.249 -0.073 0.081
0.254 -0.072 0.082
0.257 -0.070 0.083
0.262 -0.069 0.084
0.268 -0.068 0.086
0.269 -0.066 0.086
0.266 -0.063 0.085
0.267 -0.060 0.085
0.263 -0.057 0.084
0.259 -0.054 0.083
0.260 -0.052 0.083
0.263 -0.050 0.084
0.262 -0.047 0.084
0.259 -0.044 0.083
0.259 -0.042 0.083
0.259 -0.039 0.083
0.260 -0.037 0.083
0.258 -0.034 0.082
0.254 -0.031 0.081
0.249 -0.029 0.079
0.223 -0.023 0.071
0.219 -0.021 0.070
0.219 -0.019 0.070
0.220 -0.017 0.070
0.221 -0.015 0.070
0.253 -0.015 0.080
0.259 -0.013 0.082
0.261 -0.011 0.083
0.263 -0.008 0.083
0.265 -0.006 0.084
0.266 -0.004 0.084
0.267 -0.001 0.085
0.273 0.001 0.087
0.286 0.004 0.091
0.288 0.007 0.091
0.280 0.009 0.089
0.273 0.011 0.087
0.258 0.013 0.082
0.256 0.015 0.081
0.258 0.018 0.082
0.265 0.021 0.084
0.266 0.023 0.085
0.264 0.026 0.084
0.267 0.028 0.085
0.268 0.031 0.086
0.271 0.034 0.086
0.275 0.037 0.088
0.275 0.039 0.088
0.274 0.042 0.088
0.275 0.044 0.088
0.273 0.047 0.088
0.272 0.049 0.087
0.268 0.051 0.086
0.259 0.052 0.083
0.257 0.054 0.082
0.243 0.053 0.078
0.235 0.054 0.076
0.229 0.054 0.074
0.232 0.057 0.075
0.235 0.060 0.076
0.274 0.076 0.089
0.282 0.080 0.091
0.280 0.083 0.091
0.275 0.084 0.089
0.268 0.085 0.087
0.263 0.085 0.086
0.257 0.086 0.084
0.249 0.086 0.081
0.245 0.087 0.080
0.241 0.088 0.079
0.241 0.090 0.079
0.242 0.093 0.080
0.242 0.096 0.080
0.242 0.098 0.080
0.242 0.101 0.080
0.244 0.104 0.081
0.244 0.106 0.081
0.242 0.108 0.081
0.245 0.112 0.082
0.241 0.113 0.081
0.240 0.115 0.080
0.241 0.118 0.081
0.242 0.121 0.081
0.240 0.123 0.081
0.239 0.125 0.081
0.237 0.127 0.080
0.236 0.128 0.080
0.236 0.131 0.080
0.238 0.135 0.081
0.240 0.139 0.082
0.240 0.142 0.082
0.240 0.144 0.083
0.241 0.148 0.083
0.241 0.151 0.084
0.237 0.151 0.082
0.237 0.154 0.083
0.245 0.162 0.086
0.247 0.167 0.087
0.243 0.167 0.086
0.238 0.167 0.084
0.237 0.169 0.084
0.244 0.177 0.087
0.248 0.183 0.089
0.248 0.186 0.089
0.240 0.183 0.086
0.237 0.184 0.086
0.229 0.181 0.083
0.204 0.168 0.075
0.202 0.169 0.074
0.207 0.176 0.077
0.203 0.176 0.076
0.199 0.175 0.075
0.201 0.179 0.075
0.205 0.186 0.077
0.207 0.192 0.079
0.203 0.191 0.078
0.200 0.192 0.077
0.201 0.196 0.078
0.204 0.202 0.079
0.202 0.204 0.079
0.203 0.208 0.080
0.198 0.207 0.078
0.199 0.211 0.079
0.203 0.219 0.081
0.200 0.219 0.081
0.199 0.221 0.080
0.197 0.224 0.080
0.198 0.228 0.081
0.199 0.233 0.082
0.199 0.237 0.083
0.198 0.239 0.083
0.195 0.240 0.082
0.196 0.244 0.083
0.196 0.248 0.083
0.189 0.243 0.081
0.192 0.251 0.083
0.192 0.255 0.083
0.190 0.255 0.083
0.102 -0.137 0.045
0.103 -0.137 0.045
0.104 -0.136 0.045
0.104 -0.135 0.045
0.104 -0.133 0.045
0.104 -0.131 0.045
0.104 -0.129 0.044
0.105 -0.128 0.044
0.106 -0.127 0.044
0.123 -0.146 0.051
0.117 -0.137 0.049
0.111 -0.128 0.046
0.107 -0.121 0.044
0.103 -0.115 0.042
0.099 -0.109 0.040
0.099 -0.108 0.040
0.100 -0.107 0.040
0.101 -0.106 0.041
0.120 -0.124 0.048
0.109 -0.111 0.043
0.103 -0.104 0.041
0.104 -0.102 0.041
0.110 -0.107 0.043
0.236 -0.223 0.092
0.239 -0.221 0.092
0.244 -0.223 0.094
0.239 -0.215 0.091
0.241 -0.213 0.092
0.245 -0.213 0.093
0.245 -0.209 0.092
0.247 -0.208 0.093
0.247 -0.205 0.092
0.248 -0.202 0.092
0.236 -0.189 0.088
0.231 -0.182 0.085
0.226 -0.175 0.083
0.204 -0.155 0.075
0.202 -0.151 0.074
0.201 -0.148 0.073
0.199 -0.144 0.072
0.200 -0.142 0.072
0.206 -0.144 0.074
0.194 -0.133 0.070
0.188 -0.127 0.067
0.187 -0.124 0.067
0.188 -0.123 0.067
0.202 -0.129 0.072
0.205 -0.129 0.073
0.206 -0.127 0.073
0.205 -0.124 0.072
0.212 -0.126 0.075
0.216 -0.126 0.076
0.218 -0.124 0.076
0.212 -0.119 0.074
0.214 -0.118 0.074
0.218 -0.117 0.075
0.211 -0.111 0.073
0.210 -0.108 0.073
0.209 -0.105 0.072
0.208 -0.103 0.071
0.208 -0.101 0.071
0.208 -0.098 0.071
0.208 -0.096 0.071
0.206 -0.094 0.070
0.209 -0.093 0.071
0.210 -0.091 0.071
0.211 -0.089 0.072
0.206 -0.085 0.070
0.207 -0.083 0.070
0.207 -0.081 0.070
0.205 -0.078 0.069
0.207 -0.077 0.070
0.208 -0.075 0.070
0.211 -0.074 0.071
0.212 -0.073 0.071
0.211 -0.070 0.070
0.221 -0.071 0.074
0.232 -0.073 0.078
0.245 -0.074 0.082
0.255 -0.075 0.085
0.249 -0.071 0.083
0.255 -0.070 0.085
0.261 -0.069 0.087
0.264 -0.067 0.088
0.264 -0.065 0.087
0.262 -0.062 0.087
0.260 -0.059 0.086
0.258 -0.056 0.085
0.255 -0.053 0.084
0.256 -0.051 0.084
0.258 -0.049 0.085
0.258 -0.046 0.085
0.257 -0.044 0.085
0.255 -0.041 0.084
0.255 -0.039 0.084
0.256 -0.037 0.084
0.256 -0.034 0.084
0.255 -0.032 0.084
0.255 -0.029 0.083
0.256 -0.027 0.084
0.256 -0.025 0.084
0.225 -0.020 0.074
0.219 -0.017 0.072
0.220 -0.015 0.072
0.221 -0.013 0.072
0.221 -0.011 0.072
0.255 -0.011 0.083
0.260 -0.008 0.085
0.260 -0.006 0.085
0.262 -0.004 0.086
0.275 -0.001 0.090
0.282 0.001 0.092
0.283 0.004 0.093
0.281 0.006 0.092
0.269 0.009 0.088
0.254 0.011 0.083
0.252 0.013 0.083
0.255 0.015 0.084
0.258 0.018 0.085
0.258 0.020 0.085
0.262 0.023 0.086
0.260 0.025 0.085
0.259 0.027 0.085
0.264 0.030 0.087
0.271 0.034 0.089
0.274 0.037 0.090
0.274 0.039 0.090
0.272 0.041 0.090
0.271 0.044 0.089
0.271 0.046 0.089
0.266 0.048 0.088
0.257 0.049 0.085
0.247 0.049 0.082
0.237 0.050 0.079
0.236 0.052 0.078
0.232 0.053 0.077
0.226 0.054 0.075
0.226 0.056 0.075
0.236 0.061 0.079
0.257 0.069 0.086
0.268 0.074 0.089
0.274 0.078 0.091
0.276 0.081 0.092
0.266 0.081 0.089
0.258 0.081 0.087
0.256 0.083 0.086
0.249 0.083 0.084
0.243 0.084 0.082
0.242 0.086 0.082
0.241 0.088 0.081
0.239 0.090 0.081
0.240 0.093 0.081
0.241 0.095 0.082
0.241 0.098 0.082
0.239 0.099 0.081
0.236 0.101 0.081
0.236 0.103 0.081
0.237 0.106 0.081
0.236 0.108 0.081
0.235 0.110 0.081
0.236 0.113 0.081
0.234 0.115 0.081
0.231 0.116 0.080
0.230 0.118 0.080
0.234 0.122 0.081
0.234 0.125 0.082
0.231 0.126 0.081
0.232 0.129 0.081
0.233 0.133 0.082
0.236 0.137 0.083
0.238 0.141 0.084
0.238 0.144 0.085
0.238 0.146 0.085
0.236 0.148 0.084
0.235 0.150 0.084
0.234 0.152 0.084
0.240 0.159 0.087
0.245 0.166 0.089
0.240 0.165 0.087
0.236 0.166 0.086
0.239 0.171 0.088
0.248 0.181 0.091
0.246 0.182 0.091
0.239 0.180 0.089
0.229 0.175 0.085
0.198 0.157 0.074
0.193 0.156 0.073
0.194 0.159 0.073
0.195 0.163 0.074
0.199 0.169 0.076
0.198 0.172 0.076
0.198 0.174 0.076
0.194 0.174 0.075
0.195 0.178 0.076
0.201 0.187 0.079
0.202 0.191 0.080
0.197 0.189 0.078
0.198 0.193 0.079
0.199 0.198 0.080
0.198 0.200 0.080
0.194 0.200 0.079
0.196 0.205 0.080
0.198 0.210 0.081
0.195 0.211 0.080
0.195 0.214 0.081
0.194 0.217 0.081
0.193 0.219 0.081
0.193 0.223 0.082
0.195 0.229 0.083
0.195 0.232 0.083
0.192 0.233 0.083
0.191 0.235 0.083
0.187 0.234 0.082
0.188 0.238 0.082
0.188 0.242 0.083
0.185 0.242 0.082
0.188 0.250 0.084
0.180 0.243 0.081
0.103 -0.138 0.046
0.104 -0.138 0.047
0.104 -0.137 0.047
0.104 -0.135 0.046
0.105 -0.133 0.046
0.104 -0.131 0.046
0.105 -0.130 0.046
0.118 -0.144 0.051
0.122 -0.147 0.053
0.122 -0.144 0.052
0.113 -0.132 0.048
0.102 -0.117 0.043
0.108 -0.123 0.046
0.097 -0.108 0.041
0.097 -0.107 0.041
0.099 -0.107 0.041
0.099 -0.105 0.041
0.103 -0.108 0.043
0.113 -0.117 0.046
0.110 -0.112 0.045
0.103 -0.103 0.042
0.104 -0.103 0.042
0.107 -0.104 0.043
0.115 -0.111 0.046
0.233 -0.217 0.093
0.233 -0.213 0.092
0.234 -0.210 0.092
0.235 -0.208 0.092
0.237 -0.206 0.092
0.238 -0.204 0.092
0.239 -0.202 0.093
0.242 -0.200 0.093
0.239 -0.195 0.092
0.232 -0.186 0.089
0.230 -0.182 0.088
0.224 -0.174 0.085
0.212 -0.162 0.080
0.205 -0.154 0.077
0.204 -0.151 0.077
0.201 -0.146 0.075
0.199 -0.142 0.074
0.195 -0.137 0.072
0.191 -0.131 0.071
0.187 -0.126 0.069
0.187 -0.124 0.069
0.204 -0.133 0.075
0.203 -0.130 0.074
0.201 -0.126 0.073
0.203 -0.125 0.074
0.204 -0.123 0.074
0.206 -0.123 0.075
0.213 -0.124 0.077
0.213 -0.122 0.076
0.208 -0.117 0.075
0.211 -0.116 0.076
0.214 -0.115 0.076
0.214 -0.113 0.076
0.211 -0.109 0.075
0.208 -0.105 0.074
0.208 -0.103 0.074
0.206 -0.100 0.073
0.207 -0.098 0.073
0.206 -0.096 0.073
0.206 -0.094 0.072
0.208 -0.092 0.073
0.211 -0.091 0.074
0.209 -0.088 0.073
0.205 -0.085 0.071
0.201 -0.081 0.070
0.210 -0.082 0.073
0.209 -0.080 0.072
0.208 -0.077 0.072
0.209 -0.076 0.072
0.212 -0.075 0.073
0.213 -0.073 0.074
0.216 -0.072 0.074
0.224 -0.072 0.077
0.227 -0.071 0.078
0.244 -0.074 0.084
0.240 -0.071 0.082
0.243 -0.069 0.083
0.246 -0.068 0.084
0.254 -0.067 0.087
0.260 -0.066 0.089
0.260 -0.064 0.089
0.258 -0.061 0.088
0.256 -0.058 0.087
0.254 -0.055 0.086
0.253 -0.053 0.086
0.251 -0.050 0.085
0.252 -0.048 0.086
0.253 -0.046 0.086
0.252 -0.043 0.085
0.249 -0.040 0.084
0.250 -0.038 0.084
0.251 -0.036 0.085
0.253 -0.034 0.086
0.255 -0.032 0.086
0.255 -0.029 0.086
0.253 -0.027 0.086
0.252 -0.024 0.085
0.252 -0.022 0.085
0.252 -0.020 0.085
0.224 -0.015 0.075
0.221 -0.013 0.074
0.219 -0.011 0.074
0.218 -0.009 0.073
0.233 -0.007 0.079
0.259 -0.006 0.087
0.274 -0.004 0.092
0.281 -0.001 0.095
0.279 0.001 0.094
0.272 0.004 0.092
0.265 0.006 0.089
0.259 0.008 0.087
0.248 0.010 0.084
0.245 0.012 0.083
0.252 0.015 0.085
0.255 0.018 0.086
0.250 0.020 0.084
0.250 0.022 0.085
0.255 0.025 0.086
0.259 0.028 0.088
0.262 0.030 0.088
0.268 0.033 0.091
0.271 0.036 0.092
0.271 0.039 0.092
0.271 0.041 0.092
0.268 0.043 0.091
0.262 0.045 0.089
0.256 0.046 0.087
0.247 0.047 0.084
0.235 0.047 0.080
0.226 0.047 0.077
0.226 0.050 0.077
0.231 0.053 0.079
0.230 0.055 0.079
0.233 0.058 0.080
0.248 0.064 0.085
0.259 0.069 0.089
0.263 0.073 0.090
0.264 0.075 0.091
0.262 0.078 0.090
0.256 0.078 0.088
0.253 0.080 0.087
0.246 0.080 0.085
0.239 0.080 0.083
0.237 0.082 0.082
0.238 0.085 0.083
0.237 0.087 0.082
0.235 0.088 0.082
0.233 0.090 0.081
0.231 0.092 0.081
0.236 0.096 0.083
0.234 0.098 0.082
0.231 0.099 0.081
0.229 0.100 0.081
0.229 0.103 0.081
0.231 0.106 0.082
0.228 0.107 0.081
0.228 0.109 0.081
0.229 0.112 0.082
0.228 0.114 0.081
0.225 0.115 0.080
0.226 0.119 0.081
0.227 0.122 0.082
0.228 0.125 0.082
0.229 0.128 0.083
0.230 0.131 0.084
0.232 0.134 0.084
0.235 0.139 0.086
0.235 0.142 0.086
0.233 0.144 0.086
0.232 0.146 0.085
0.232 0.148 0.086
0.232 0.151 0.086
0.233 0.155 0.087
0.243 0.165 0.091
0.240 0.165 0.090
0.233 0.164 0.088
0.246 0.176 0.093
0.250 0.182 0.094
0.238 0.177 0.090
0.229 0.173 0.087
0.219 0.168 0.084
0.205 0.161 0.079
0.190 0.151 0.073
0.187 0.151 0.073
0.188 0.155 0.073
0.191 0.160 0.075
0.194 0.165 0.076
0.195 0.170 0.077
0.196 0.173 0.078
0.195 0.175 0.078
0.193 0.176 0.077
0.194 0.180 0.078
0.196 0.186 0.080
0.194 0.187 0.079
0.194 0.190 0.080
0.195 0.194 0.080
0.195 0.197 0.081
0.191 0.197 0.080
0.190 0.199 0.080
0.192 0.205 0.081
0.190 0.206 0.081
0.189 0.209 0.081
0.188 0.211 0.081
0.189 0.215 0.082
0.189 0.219 0.082
0.188 0.221 0.082
0.185 0.221 0.082
0.183 0.223 0.081
0.185 0.228 0.083
0.184 0.230 0.082
0.183 0.232 0.083
0.181 0.234 0.082
0.181 0.237 0.083
0.180 0.239 0.083
0.184 0.248 0.085
0.103 -0.139 0.048
0.104 -0.139 0.048
0.104 -0.137 0.048
0.104 -0.135 0.048
0.106 -0.135 0.048
0.113 -0.143 0.051
0.117 -0.146 0.053
0.113 -0.138 0.050
0.112 -0.135 0.050
0.102 -0.121 0.045
0.101 -0.119 0.045
0.101 -0.116 0.044
0.097 -0.110 0.042
0.096 -0.108 0.042
0.097 -0.107 0.042
0.097 -0.106 0.042
0.102 -0.109 0.044
0.110 -0.116 0.047
0.107 -0.112 0.045
0.103 -0.106 0.043
0.100 -0.101 0.042
0.103 -0.103 0.043
0.107 -0.105 0.044
0.116 -0.111 0.048
0.227 -0.211 0.093
0.227 -0.208 0.092
0.228 -0.206 0.092
0.232 -0.205 0.093
0.233 -0.203 0.093
0.232 -0.199 0.093
0.234 -0.198 0.093
0.235 -0.195 0.093
0.233 -0.190 0.092
0.231 -0.186 0.091
0.227 -0.180 0.089
0.223 -0.173 0.087
0.212 -0.162 0.082
0.207 -0.156 0.080
0.205 -0.151 0.079
0.203 -0.147 0.078
0.195 -0.139 0.075
0.192 -0.135 0.073
0.190 -0.131 0.072
0.190 -0.129 0.072
0.203 -0.135 0.077
0.204 -0.133 0.077
0.205 -0.131 0.077
0.203 -0.128 0.076
0.202 -0.125 0.076
0.202 -0.123 0.075
0.203 -0.121 0.075
0.204 -0.119 0.076
0.203 -0.116 0.075
0.203 -0.114 0.075
0.205 -0.113 0.076
0.211 -0.114 0.077
0.213 -0.113 0.078
0.210 -0.109 0.077
0.206 -0.104 0.075
0.206 -0.102 0.075
0.210 -0.102 0.076
0.204 -0.097 0.074
0.205 -0.095 0.074
0.205 -0.093 0.074
0.207 -0.092 0.075
0.209 -0.090 0.075
0.214 -0.091 0.077
0.207 -0.085 0.074
0.200 -0.080 0.071
0.201 -0.079 0.072
0.210 -0.080 0.075
0.210 -0.078 0.075
0.209 -0.076 0.074
0.212 -0.075 0.075
0.213 -0.073 0.076
0.218 -0.073 0.077
0.227 -0.074 0.080
0.233 -0.073 0.082
0.236 -0.072 0.083
0.238 -0.070 0.084
0.239 -0.068 0.084
0.241 -0.066 0.085
0.249 -0.066 0.087
0.252 -0.064 0.088
0.254 -0.063 0.089
0.252 -0.060 0.088
0.251 -0.057 0.088
0.251 -0.055 0.088
0.249 -0.052 0.087
0.247 -0.049 0.086
0.246 -0.047 0.086
0.247 -0.045 0.086
0.246 -0.042 0.086
0.245 -0.040 0.085
0.246 -0.038 0.086
0.248 -0.035 0.086
0.250 -0.033 0.087
0.253 -0.031 0.088
0.250 -0.029 0.087
0.249 -0.026 0.086
0.248 -0.024 0.086
0.247 -0.022 0.086
0.247 -0.019 0.086
0.249 -0.017 0.086
0.251 -0.015 0.087
0.221 -0.011 0.077
0.217 -0.009 0.075
0.216 -0.007 0.075
0.270 -0.004 0.094
0.275 -0.001 0.095
0.264 0.001 0.092
0.255 0.004 0.088
0.253 0.006 0.088
0.250 0.008 0.087
0.247 0.010 0.086
0.245 0.012 0.085
0.245 0.015 0.085
0.249 0.017 0.086
0.247 0.019 0.086
0.248 0.022 0.086
0.252 0.024 0.088
0.258 0.027 0.090
0.260 0.030 0.090
0.263 0.033 0.092
0.263 0.035 0.092
0.266 0.038 0.093
0.266 0.041 0.093
0.265 0.043 0.092
0.250 0.043 0.087
0.239 0.043 0.084
0.235 0.045 0.082
0.222 0.044 0.078
0.213 0.045 0.075
0.218 0.048 0.076
0.227 0.052 0.080
0.236 0.056 0.083
0.247 0.061 0.087
0.255 0.066 0.090
0.262 0.070 0.092
0.261 0.072 0.092
0.262 0.075 0.093
0.257 0.076 0.091
0.256 0.078 0.091
0.246 0.078 0.087
0.236 0.077 0.084
0.232 0.078 0.083
0.230 0.080 0.082
0.231 0.082 0.082
0.230 0.084 0.082
0.226 0.085 0.081
0.226 0.087 0.081
0.229 0.091 0.082
0.230 0.093 0.083
0.229 0.096 0.083
0.227 0.097 0.082
0.224 0.098 0.081
0.224 0.101 0.081
0.224 0.103 0.082
0.224 0.105 0.082
0.223 0.107 0.081
0.222 0.109 0.082
0.221 0.111 0.081
0.221 0.114 0.081
0.221 0.116 0.082
0.221 0.119 0.082
0.224 0.123 0.083
0.225 0.126 0.084
0.226 0.129 0.084
0.228 0.133 0.085
0.228 0.136 0.086
0.227 0.137 0.085
0.228 0.141 0.086
0.229 0.144 0.087
0.228 0.146 0.087
0.229 0.150 0.087
0.233 0.155 0.089
0.239 0.162 0.092
0.240 0.166 0.093
0.243 0.171 0.094
0.249 0.178 0.097
0.242 0.177 0.094
0.232 0.173 0.091
0.223 0.168 0.087
0.214 0.165 0.084
0.197 0.155 0.078
0.189 0.151 0.075
0.185 0.150 0.074
0.188 0.155 0.075
0.190 0.160 0.077
0.192 0.164 0.078
0.193 0.168 0.078
0.197 0.174 0.081
0.195 0.176 0.080
0.194 0.178 0.080
0.191 0.178 0.079
0.192 0.182 0.080
0.191 0.184 0.080
0.191 0.187 0.081
0.190 0.189 0.081
0.190 0.193 0.081
0.188 0.194 0.081
0.187 0.196 0.081
0.186 0.198 0.081
0.188 0.204 0.082
0.186 0.205 0.082
0.185 0.207 0.082
0.186 0.212 0.083
0.185 0.215 0.083
0.184 0.217 0.083
0.182 0.218 0.083
0.181 0.221 0.083
0.181 0.223 0.083
0.181 0.228 0.084
0.180 0.229 0.083
0.177 0.230 0.083
0.176 0.231 0.083
0.178 0.237 0.084
0.104 -0.138 0.049
0.104 -0.136 0.049
0.108 -0.140 0.051
0.111 -0.142 0.052
0.111 -0.140 0.052
0.112 -0.139 0.052
0.105 -0.129 0.048
0.102 -0.123 0.047
0.099 -0.118 0.045
0.096 -0.113 0.044
0.096 -0.111 0.043
0.098 -0.112 0.044
0.099 -0.111 0.044
0.114 -0.127 0.051
0.104 -0.114 0.046
0.105 -0.113 0.046
0.105 -0.111 0.046
0.104 -0.109 0.045
0.099 -0.101 0.043
0.101 -0.102 0.043
0.103 -0.102 0.044
0.105 -0.103 0.045
0.108 -0.104 0.046
0.117 -0.111 0.049
0.219 -0.201 0.091
0.220 -0.198 0.092
0.227 -0.201 0.094
0.227 -0.198 0.094
0.228 -0.197 0.094
0.226 -0.191 0.093
0.226 -0.188 0.092
0.227 -0.186 0.092
0.225 -0.181 0.091
0.221 -0.175 0.089
0.216 -0.168 0.087
0.212 -0.162 0.085
0.205 -0.155 0.082
0.197 -0.146 0.078
0.194 -0.141 0.077
0.191 -0.137 0.075
0.192 -0.135 0.075
0.193 -0.133 0.076
0.199 -0.135 0.078
0.202 -0.134 0.078
0.203 -0.133 0.079
0.203 -0.130 0.079
0.203 -0.128 0.078
0.203 -0.125 0.078
0.201 -0.122 0.077
0.201 -0.120 0.077
0.199 -0.117 0.076
0.200 -0.115 0.076
0.201 -0.113 0.076
0.200 -0.111 0.076
0.203 -0.110 0.077
0.205 -0.108 0.077
0.198 -0.103 0.075
0.206 -0.104 0.077
0.204 -0.101 0.076
0.205 -0.100 0.077
0.209 -0.099 0.078
0.205 -0.096 0.076
0.207 -0.094 0.077
0.208 -0.092 0.077
0.209 -0.091 0.077
0.209 -0.089 0.077
0.209 -0.086 0.077
0.210 -0.085 0.077
0.209 -0.082 0.077
0.208 -0.080 0.076
0.209 -0.078 0.077
0.211 -0.077 0.077
0.210 -0.074 0.077
0.211 -0.072 0.077
0.215 -0.072 0.078
0.225 -0.073 0.082
0.231 -0.073 0.084
0.233 -0.071 0.084
0.235 -0.069 0.085
0.236 -0.067 0.085
0.242 -0.067 0.087
0.241 -0.064 0.087
0.248 -0.063 0.089
0.247 -0.061 0.089
0.245 -0.058 0.088
0.245 -0.056 0.088
0.246 -0.054 0.088
0.245 -0.051 0.088
0.243 -0.048 0.087
0.241 -0.046 0.086
0.241 -0.043 0.086
0.242 -0.041 0.087
0.242 -0.039 0.087
0.243 -0.037 0.087
0.246 -0.035 0.088
0.247 -0.033 0.088
0.245 -0.030 0.087
0.243 -0.028 0.087
0.243 -0.026 0.087
0.243 -0.023 0.087
0.241 -0.021 0.086
0.244 -0.019 0.087
0.245 -0.017 0.087
0.246 -0.015 0.088
0.252 -0.013 0.090
0.249 -0.006 0.089
0.252 -0.003 0.090
0.255 -0.001 0.091
0.250 0.001 0.089
0.247 0.003 0.088
0.243 0.006 0.087
0.236 0.008 0.084
0.242 0.010 0.086
0.245 0.012 0.087
0.244 0.015 0.087
0.243 0.017 0.087
0.244 0.019 0.087
0.250 0.022 0.089
0.253 0.025 0.091
0.259 0.028 0.093
0.259 0.030 0.093
0.260 0.033 0.093
0.259 0.035 0.093
0.259 0.037 0.093
0.256 0.039 0.092
0.246 0.040 0.088
0.230 0.040 0.083
0.222 0.040 0.080
0.198 0.040 0.071
0.202 0.042 0.073
0.207 0.046 0.075
0.218 0.050 0.079
0.233 0.056 0.084
0.245 0.061 0.089
0.257 0.066 0.093
0.262 0.070 0.095
0.260 0.072 0.094
0.244 0.070 0.089
0.258 0.077 0.094
0.248 0.076 0.090
0.233 0.074 0.085
0.226 0.074 0.083
0.226 0.076 0.083
0.226 0.078 0.083
0.225 0.080 0.083
0.224 0.082 0.082
0.222 0.084 0.082
0.223 0.086 0.082
0.224 0.089 0.083
0.226 0.092 0.084
0.226 0.094 0.084
0.222 0.095 0.082
0.220 0.097 0.082
0.218 0.098 0.082
0.219 0.101 0.082
0.219 0.103 0.082
0.218 0.105 0.082
0.217 0.107 0.082
0.218 0.110 0.082
0.217 0.112 0.082
0.218 0.114 0.083
0.218 0.117 0.083
0.217 0.119 0.083
0.221 0.124 0.084
0.219 0.125 0.084
0.217 0.127 0.084
0.219 0.130 0.085
0.220 0.133 0.085
0.217 0.134 0.084
0.221 0.139 0.086
0.224 0.144 0.088
0.226 0.148 0.089
0.230 0.154 0.091
0.233 0.158 0.092
0.233 0.161 0.092
0.242 0.171 0.096
0.244 0.175 0.097
0.236 0.173 0.095
0.225 0.168 0.091
0.218 0.165 0.088
0.207 0.160 0.084
0.189 0.148 0.077
0.186 0.149 0.076
0.186 0.151 0.076
0.186 0.154 0.077
0.191 0.161 0.079
0.193 0.165 0.080
0.192 0.168 0.081
0.193 0.171 0.081
0.195 0.176 0.083
0.190 0.174 0.081
0.189 0.176 0.081
0.189 0.180 0.081
0.190 0.183 0.082
0.187 0.184 0.081
0.187 0.187 0.082
0.186 0.189 0.082
0.185 0.191 0.082
0.184 0.194 0.082
0.184 0.196 0.082
0.182 0.198 0.082
0.183 0.203 0.083
0.182 0.205 0.083
0.181 0.207 0.083
0.181 0.211 0.084
0.179 0.212 0.083
0.180 0.216 0.084
0.181 0.220 0.085
0.179 0.222 0.085
0.179 0.225 0.085
0.178 0.228 0.085
0.175 0.226 0.084
0.173 0.228 0.084
0.173 0.231 0.084
0.111 -0.148 0.054
0.111 -0.146 0.054
0.111 -0.144 0.053
0.108 -0.139 0.052
0.102 -0.129 0.049
0.101 -0.126 0.048
0.101 -0.124 0.048
0.098 -0.118 0.046
0.095 -0.113 0.044
0.094 -0.110 0.044
0.097 -0.113 0.045
0.106 -0.121 0.049
0.105 -0.118 0.048
0.103 -0.114 0.047
0.103 -0.113 0.047
0.104 -0.112 0.047
0.102 -0.108 0.046
0.096 -0.100 0.043
0.100 -0.102 0.044
0.101 -0.102 0.045
0.102 -0.102 0.045
0.105 -0.103 0.046
0.106 -0.103 0.046
0.110 -0.105 0.048
0.212 -0.195 0.091
0.215 -0.194 0.092
0.218 -0.194 0.093
0.223 -0.195 0.095
0.224 -0.193 0.095
0.222 -0.188 0.093
0.220 -0.184 0.092
0.220 -0.181 0.092
0.221 -0.178 0.092
0.217 -0.173 0.090
0.211 -0.165 0.087
0.201 -0.154 0.083
0.196 -0.148 0.080
0.195 -0.145 0.080
0.193 -0.141 0.078
0.193 -0.138 0.078
0.198 -0.139 0.080
0.201 -0.139 0.081
0.197 -0.134 0.079
0.200 -0.133 0.080
0.201 -0.132 0.080
0.199 -0.128 0.079
0.201 -0.127 0.080
0.203 -0.126 0.080
0.199 -0.121 0.078
0.201 -0.120 0.079
0.204 -0.120 0.080
0.199 -0.114 0.078
0.201 -0.113 0.079
0.202 -0.112 0.079
0.200 -0.108 0.078
0.205 -0.109 0.079
0.206 -0.107 0.080
0.205 -0.104 0.079
0.206 -0.103 0.079
0.209 -0.102 0.080
0.206 -0.098 0.079
0.206 -0.096 0.079
0.205 -0.094 0.078
0.207 -0.092 0.079
0.206 -0.090 0.078
0.206 -0.088 0.078
0.207 -0.086 0.078
0.207 -0.084 0.078
0.201 -0.079 0.076
0.206 -0.079 0.078
0.208 -0.078 0.078
0.209 -0.076 0.079
0.209 -0.074 0.079
0.209 -0.072 0.078
0.213 -0.071 0.080
0.222 -0.072 0.083
0.227 -0.071 0.085
0.227 -0.069 0.085
0.230 -0.068 0.085
0.231 -0.066 0.086
0.233 -0.064 0.086
0.241 -0.064 0.089
0.240 -0.062 0.089
0.239 -0.059 0.088
0.241 -0.057 0.089
0.241 -0.055 0.089
0.240 -0.052 0.089
0.239 -0.050 0.088
0.237 -0.047 0.088
0.237 -0.045 0.087
0.238 -0.043 0.088
0.239 -0.041 0.088
0.239 -0.039 0.088
0.241 -0.037 0.088
0.242 -0.035 0.089
0.241 -0.032 0.088
0.239 -0.030 0.088
0.239 -0.028 0.088
0.239 -0.025 0.088
0.236 -0.023 0.087
0.239 -0.021 0.088
0.239 -0.019 0.087
0.240 -0.017 0.088
0.249 -0.015 0.091
0.261 -0.013 0.095
0.266 -0.011 0.097
0.254 -0.008 0.093
0.239 -0.005 0.088
0.242 -0.003 0.089
0.241 -0.001 0.088
0.239 0.001 0.088
0.236 0.003 0.086
0.231 0.005 0.085
0.229 0.007 0.084
0.225 0.009 0.082
0.248 0.013 0.091
0.247 0.015 0.091
0.245 0.017 0.090
0.246 0.019 0.090
0.247 0.022 0.091
0.253 0.025 0.093
0.256 0.027 0.094
0.255 0.030 0.094
0.251 0.031 0.092
0.254 0.034 0.093
0.250 0.036 0.092
0.239 0.037 0.088
0.231 0.038 0.085
0.219 0.038 0.081
0.209 0.038 0.077
0.191 0.037 0.071
0.199 0.040 0.073
0.200 0.042 0.074
0.205 0.045 0.076
0.214 0.049 0.080
0.226 0.054 0.084
0.241 0.060 0.089
0.258 0.067 0.096
0.259 0.070 0.097
0.251 0.070 0.094
0.242 0.070 0.090
0.233 0.069 0.087
0.230 0.071 0.086
0.223 0.071 0.084
0.221 0.072 0.083
0.220 0.074 0.083
0.220 0.076 0.083
0.220 0.079 0.083
0.220 0.081 0.083
0.219 0.083 0.083
0.219 0.085 0.083
0.220 0.088 0.084
0.219 0.090 0.083
0.221 0.093 0.084
0.218 0.094 0.083
0.215 0.095 0.082
0.214 0.096 0.082
0.212 0.098 0.082
0.212 0.100 0.082
0.213 0.103 0.082
0.213 0.105 0.082
0.211 0.107 0.082
0.206 0.106 0.080
0.210 0.111 0.082
0.215 0.116 0.084
0.217 0.119 0.085
0.212 0.119 0.083
0.214 0.123 0.085
0.214 0.125 0.085
0.208 0.124 0.083
0.209 0.127 0.083
0.211 0.131 0.084
0.209 0.132 0.084
0.212 0.136 0.085
0.211 0.138 0.085
0.213 0.143 0.086
0.213 0.145 0.086
0.206 0.143 0.084
0.233 0.165 0.095
0.240 0.173 0.099
0.228 0.167 0.094
0.219 0.163 0.091
0.213 0.162 0.089
0.203 0.157 0.085
0.188 0.148 0.079
0.185 0.148 0.078
0.184 0.150 0.078
0.184 0.153 0.078
0.186 0.157 0.079
0.190 0.163 0.082
0.191 0.167 0.082
0.190 0.169 0.082
0.187 0.169 0.081
0.185 0.170 0.081
0.184 0.173 0.081
0.186 0.177 0.082
0.184 0.178 0.082
0.184 0.182 0.082
0.183 0.183 0.082
0.182 0.186 0.083
0.183 0.190 0.083
0.182 0.192 0.083
0.180 0.193 0.083
0.180 0.197 0.083
0.178 0.198 0.083
0.178 0.201 0.084
0.179 0.205 0.084
0.178 0.207 0.084
0.177 0.210 0.085
0.177 0.213 0.085
0.177 0.216 0.086
0.177 0.220 0.086
0.177 0.223 0.086
0.175 0.224 0.086
0.172 0.224 0.085
0.171 0.226 0.085
0.171 0.229 0.085
0.113 -0.151 0.056
0.110 -0.145 0.055
0.102 -0.133 0.051
0.100 -0.128 0.049
0.100 -0.126 0.049
0.097 -0.121 0.047
0.095 -0.118 0.046
0.092 -0.111 0.044
0.102 -0.122 0.049
0.105 -0.124 0.050
0.105 -0.123 0.050
0.104 -0.120 0.050
0.103 -0.116 0.049
0.103 -0.115 0.048
0.102 -0.112 0.048
0.102 -0.110 0.047
0.106 -0.113 0.049
0.106 -0.111 0.049
0.100 -0.103 0.046
0.101 -0.103 0.046
0.102 -0.102 0.046
0.104 -0.102 0.047
0.107 -0.104 0.048
0.109 -0.104 0.049
0.117 -0.110 0.052
0.211 -0.191 0.093
0.214 -0.191 0.094
0.216 -0.190 0.094
0.210 -0.182 0.091
0.203 -0.173 0.088
0.204 -0.170 0.088
0.202 -0.166 0.087
0.200 -0.162 0.085
0.200 -0.159 0.085
0.198 -0.155 0.084
0.197 -0.151 0.083
0.195 -0.148 0.082
0.196 -0.145 0.082
0.199 -0.145 0.083
0.208 -0.149 0.086
0.207 -0.146 0.086
0.205 -0.142 0.085
0.201 -0.137 0.083
0.200 -0.134 0.082
0.201 -0.132 0.082
0.201 -0.130 0.082
0.201 -0.127 0.082
0.204 -0.126 0.083
0.205 -0.125 0.083
0.204 -0.122 0.083
0.206 -0.121 0.083
0.206 -0.119 0.083
0.204 -0.115 0.082
0.203 -0.113 0.081
0.203 -0.110 0.081
0.203 -0.108 0.081
0.205 -0.107 0.081
0.204 -0.104 0.081
0.206 -0.103 0.081
0.205 -0.100 0.081
0.203 -0.097 0.080
0.203 -0.095 0.080
0.202 -0.092 0.079
0.204 -0.091 0.080
0.204 -0.089 0.080
0.203 -0.086 0.079
0.207 -0.086 0.080
0.204 -0.083 0.079
0.206 -0.081 0.080
0.200 -0.077 0.078
0.203 -0.076 0.079
0.209 -0.076 0.081
0.207 -0.074 0.080
0.208 -0.072 0.080
0.214 -0.072 0.082
0.221 -0.072 0.085
0.223 -0.070 0.086
0.224 -0.068 0.086
0.225 -0.066 0.086
0.227 -0.065 0.087
0.230 -0.063 0.088
0.231 -0.062 0.088
0.233 -0.060 0.089
0.235 -0.058 0.089
0.237 -0.056 0.090
0.237 -0.054 0.090
0.236 -0.052 0.089
0.234 -0.049 0.089
0.234 -0.047 0.089
0.233 -0.044 0.088
0.234 -0.042 0.088
0.234 -0.040 0.089
0.235 -0.038 0.089
0.236 -0.036 0.089
0.235 -0.034 0.089
0.235 -0.032 0.089
0.234 -0.029 0.088
0.234 -0.027 0.088
0.233 -0.025 0.088
0.232 -0.023 0.087
0.235 -0.021 0.088
0.239 -0.019 0.090
0.255 -0.018 0.096
0.254 -0.015 0.095
0.253 -0.013 0.095
0.260 -0.011 0.098
0.254 -0.008 0.095
0.241 -0.006 0.091
0.231 -0.003 0.087
0.230 -0.001 0.086
0.230 0.001 0.087
0.229 0.003 0.086
0.222 0.005 0.084
0.218 0.007 0.082
0.234 0.010 0.088
0.244 0.012 0.092
0.246 0.015 0.092
0.243 0.017 0.092
0.244 0.019 0.092
0.245 0.022 0.092
0.240 0.023 0.090
0.247 0.026 0.093
0.245 0.028 0.092
0.244 0.031 0.092
0.240 0.032 0.091
0.235 0.034 0.089
0.225 0.035 0.085
0.218 0.036 0.083
0.211 0.036 0.080
0.196 0.036 0.074
0.187 0.036 0.071
0.191 0.038 0.072
0.200 0.042 0.076
0.206 0.045 0.078
0.215 0.049 0.082
0.230 0.055 0.088
0.255 0.064 0.098
0.257 0.067 0.098
0.256 0.069 0.098
0.249 0.069 0.095
0.238 0.069 0.091
0.227 0.068 0.087
0.219 0.067 0.084
0.217 0.069 0.084
0.217 0.071 0.084
0.215 0.073 0.083
0.214 0.074 0.083
0.216 0.077 0.084
0.215 0.079 0.083
0.215 0.081 0.084
0.214 0.083 0.083
0.211 0.084 0.082
0.215 0.088 0.084
0.216 0.091 0.084
0.212 0.091 0.083
0.209 0.092 0.082
0.208 0.094 0.082
0.206 0.095 0.082
0.203 0.096 0.080
0.197 0.096 0.078
0.186 0.092 0.074
0.189 0.095 0.075
0.184 0.095 0.074
0.179 0.095 0.072
0.177 0.095 0.071
0.182 0.105 0.074
0.190 0.111 0.077
0.197 0.117 0.080
0.195 0.118 0.080
0.197 0.122 0.081
0.203 0.129 0.084
0.205 0.132 0.085
0.206 0.135 0.085
0.205 0.137 0.085
0.205 0.140 0.086
0.203 0.142 0.085
0.230 0.163 0.097
0.230 0.166 0.097
0.215 0.158 0.091
0.211 0.157 0.089
0.211 0.160 0.090
0.207 0.161 0.089
0.193 0.152 0.083
0.183 0.147 0.079
0.182 0.149 0.079
0.183 0.152 0.080
0.185 0.156 0.081
0.187 0.161 0.082
0.188 0.165 0.083
0.186 0.166 0.083
0.184 0.167 0.082
0.183 0.169 0.082
0.181 0.170 0.082
0.180 0.172 0.082
0.181 0.176 0.083
0.181 0.179 0.083
0.180 0.181 0.083
0.179 0.183 0.083
0.180 0.187 0.084
0.179 0.189 0.084
0.178 0.192 0.084
0.176 0.192 0.084
0.175 0.195 0.084
0.176 0.199 0.085
0.176 0.202 0.085
0.176 0.205 0.086
0.175 0.208 0.086
0.175 0.211 0.086
0.175 0.214 0.087
0.174 0.217 0.087
0.173 0.218 0.087
0.170 0.218 0.086
0.169 0.221 0.086
0.169 0.223 0.086
0.103 -0.136 0.053
0.100 -0.130 0.051
0.099 -0.127 0.050
0.099 -0.125 0.050
0.097 -0.122 0.049
0.102 -0.126 0.051
0.109 -0.132 0.054
0.103 -0.124 0.051
0.104 -0.123 0.051
0.104 -0.121 0.051
0.102 -0.117 0.049
0.103 -0.117 0.050
0.106 -0.119 0.051
0.117 -0.128 0.056
0.116 -0.126 0.055
0.109 -0.116 0.052
0.106 -0.112 0.050
0.101 -0.104 0.047
0.101 -0.103 0.047
0.103 -0.103 0.048
0.104 -0.103 0.048
0.108 -0.104 0.050
0.110 -0.105 0.050
0.117 -0.109 0.053
0.196 -0.175 0.088
0.195 -0.171 0.087
0.196 -0.170 0.087
0.197 -0.168 0.087
0.198 -0.166 0.088
0.198 -0.164 0.087
0.198 -0.161 0.087
0.198 -0.158 0.086
0.201 -0.157 0.087
0.199 -0.154 0.086
0.202 -0.153 0.087
0.204 -0.152 0.088
0.206 -0.150 0.088
0.205 -0.147 0.087
0.203 -0.144 0.087
0.207 -0.144 0.088
0.209 -0.143 0.088
0.204 -0.137 0.086
0.202 -0.133 0.085
0.202 -0.130 0.085
0.202 -0.128 0.084
0.205 -0.128 0.086
0.205 -0.125 0.085
0.206 -0.123 0.085
0.206 -0.121 0.085
0.207 -0.120 0.086
0.207 -0.117 0.085
0.205 -0.114 0.084
0.205 -0.111 0.084
0.206 -0.110 0.084
0.209 -0.109 0.085
0.208 -0.106 0.085
0.205 -0.103 0.083
0.204 -0.100 0.083
0.204 -0.098 0.082
0.204 -0.095 0.082
0.204 -0.093 0.082
0.205 -0.092 0.082
0.208 -0.091 0.083
0.209 -0.089 0.084
0.208 -0.087 0.083
0.207 -0.084 0.083
0.205 -0.081 0.082
0.205 -0.079 0.081
0.204 -0.076 0.081
0.205 -0.075 0.081
0.205 -0.073 0.081
0.207 -0.071 0.082
0.214 -0.072 0.084
0.220 -0.072 0.087
0.221 -0.070 0.087
0.221 -0.068 0.087
0.222 -0.066 0.087
0.223 -0.064 0.088
0.227 -0.063 0.089
0.228 -0.061 0.089
0.230 -0.059 0.090
0.231 -0.057 0.090
0.232 -0.055 0.090
0.232 -0.053 0.090
0.230 -0.050 0.089
0.228 -0.048 0.089
0.229 -0.046 0.089
0.227 -0.043 0.088
0.227 -0.041 0.088
0.229 -0.039 0.089
0.229 -0.037 0.089
0.229 -0.035 0.089
0.229 -0.033 0.089
0.228 -0.031 0.088
0.227 -0.028 0.088
0.228 -0.026 0.088
0.230 -0.024 0.089
0.231 -0.022 0.089
0.234 -0.021 0.090
0.245 -0.019 0.094
0.246 -0.017 0.095
0.246 -0.015 0.095
0.244 -0.012 0.094
0.239 -0.010 0.092
0.242 -0.008 0.093
0.238 -0.005 0.092
0.228 -0.003 0.088
0.221 -0.001 0.085
0.218 0.001 0.084
0.223 0.003 0.086
0.219 0.005 0.085
0.217 0.007 0.084
0.225 0.009 0.087
0.239 0.012 0.092
0.240 0.015 0.093
0.229 0.016 0.088
0.241 0.019 0.093
0.243 0.021 0.094
0.240 0.023 0.093
0.235 0.025 0.091
0.239 0.028 0.093
0.238 0.030 0.092
0.233 0.032 0.090
0.223 0.032 0.086
0.215 0.033 0.083
0.208 0.034 0.081
0.205 0.035 0.080
0.198 0.036 0.077
0.184 0.035 0.072
0.179 0.036 0.070
0.196 0.041 0.076
0.210 0.046 0.082
0.243 0.058 0.095
0.253 0.063 0.099
0.254 0.066 0.100
0.250 0.067 0.098
0.248 0.069 0.097
0.230 0.066 0.091
0.219 0.065 0.086
0.212 0.065 0.084
0.211 0.067 0.083
0.212 0.070 0.084
0.209 0.071 0.083
0.208 0.073 0.083
0.209 0.075 0.083
0.209 0.077 0.083
0.207 0.079 0.083
0.206 0.080 0.082
0.203 0.081 0.081
0.200 0.082 0.080
0.196 0.082 0.079
0.203 0.087 0.082
0.201 0.089 0.081
0.198 0.090 0.080
0.196 0.091 0.080
0.187 0.088 0.076
0.183 0.089 0.075
0.181 0.090 0.074
0.185 0.094 0.076
0.189 0.098 0.078
0.190 0.100 0.078
0.189 0.102 0.078
0.189 0.104 0.078
0.191 0.108 0.079
0.192 0.111 0.080
0.200 0.117 0.084
0.198 0.118 0.083
0.199 0.121 0.083
0.203 0.126 0.085
0.202 0.128 0.085
0.206 0.133 0.087
0.202 0.133 0.086
0.201 0.135 0.086
0.202 0.138 0.086
0.201 0.140 0.086
0.225 0.160 0.097
0.220 0.159 0.095
0.199 0.147 0.087
0.197 0.148 0.086
0.207 0.158 0.091
0.209 0.163 0.092
0.205 0.162 0.091
0.185 0.149 0.082
0.180 0.148 0.080
0.183 0.153 0.082
0.183 0.155 0.082
0.184 0.159 0.083
0.184 0.162 0.084
0.183 0.164 0.084
0.182 0.165 0.084
0.181 0.167 0.083
0.180 0.169 0.083
0.178 0.170 0.083
0.178 0.173 0.084
0.177 0.176 0.084
0.177 0.179 0.084
0.178 0.183 0.085
0.177 0.185 0.085
0.176 0.187 0.085
0.174 0.188 0.085
0.174 0.191 0.085
0.173 0.193 0.085
0.173 0.196 0.085
0.171 0.197 0.085
0.171 0.201 0.086
0.172 0.205 0.087
0.173 0.209 0.088
0.172 0.212 0.088
0.171 0.213 0.088
0.168 0.213 0.087
0.166 0.213 0.086
0.165 0.215 0.086
0.166 0.220 0.087
0.098 -0.130 0.051
0.095 -0.124 0.050
0.096 -0.124 0.050
0.098 -0.125 0.051
0.100 -0.126 0.052
0.102 -0.126 0.052
0.102 -0.124 0.052
0.103 -0.124 0.052
0.103 -0.122 0.052
0.104 -0.122 0.052
0.122 -0.141 0.061
0.119 -0.136 0.059
0.117 -0.131 0.058
0.118 -0.130 0.058
0.119 -0.129 0.058
0.113 -0.121 0.055
0.110 -0.116 0.053
0.103 -0.107 0.050
0.101 -0.103 0.049
0.104 -0.104 0.050
0.106 -0.104 0.050
0.107 -0.104 0.050
0.112 -0.107 0.052
0.115 -0.109 0.054
0.193 -0.173 0.089
0.194 -0.171 0.089
0.196 -0.170 0.090
0.197 -0.168 0.090
0.198 -0.166 0.090
0.199 -0.164 0.090
0.202 -0.164 0.091
0.203 -0.162 0.091
0.203 -0.159 0.091
0.203 -0.156 0.090
0.203 -0.154 0.090
0.203 -0.151 0.089
0.201 -0.148 0.089
0.199 -0.144 0.087
0.201 -0.142 0.088
0.201 -0.140 0.087
0.202 -0.138 0.088
0.202 -0.135 0.087
0.200 -0.132 0.087
0.201 -0.130 0.086
0.202 -0.128 0.086
0.203 -0.126 0.087
0.203 -0.124 0.087
0.203 -0.122 0.086
0.203 -0.120 0.086
0.204 -0.118 0.086
0.205 -0.116 0.087
0.204 -0.114 0.086
0.203 -0.111 0.085
0.205 -0.109 0.086
0.207 -0.108 0.087
0.207 -0.106 0.086
0.204 -0.102 0.085
0.203 -0.099 0.084
0.204 -0.098 0.085
0.206 -0.097 0.085
0.206 -0.095 0.085
0.208 -0.093 0.086
0.212 -0.093 0.087
0.213 -0.091 0.087
0.211 -0.088 0.086
0.209 -0.085 0.085
0.209 -0.083 0.085
0.207 -0.080 0.084
0.205 -0.077 0.083
0.204 -0.075 0.083
0.204 -0.072 0.083
0.206 -0.071 0.084
0.212 -0.071 0.086
0.215 -0.070 0.087
0.219 -0.069 0.088
0.219 -0.067 0.088
0.218 -0.065 0.088
0.220 -0.063 0.088
0.222 -0.062 0.089
0.224 -0.060 0.090
0.226 -0.058 0.091
0.228 -0.056 0.091
0.228 -0.054 0.091
0.225 -0.051 0.090
0.223 -0.049 0.089
0.223 -0.047 0.089
0.223 -0.045 0.089
0.221 -0.042 0.088
0.223 -0.040 0.089
0.224 -0.039 0.089
0.224 -0.036 0.089
0.225 -0.034 0.089
0.225 -0.032 0.089
0.223 -0.030 0.089
0.223 -0.028 0.089
0.224 -0.026 0.089
0.228 -0.024 0.090
0.237 -0.023 0.094
0.245 -0.022 0.097
0.243 -0.019 0.096
0.239 -0.017 0.095
0.234 -0.014 0.093
0.231 -0.012 0.092
0.229 -0.010 0.091
0.226 -0.007 0.090
0.230 -0.005 0.091
0.224 -0.003 0.089
0.210 -0.001 0.083
0.198 0.001 0.079
0.207 0.003 0.082
0.209 0.005 0.083
0.213 0.007 0.084
0.218 0.009 0.086
0.225 0.012 0.089
0.213 0.015 0.084
0.227 0.018 0.090
0.239 0.021 0.095
0.234 0.023 0.093
0.228 0.024 0.091
0.228 0.027 0.091
0.232 0.029 0.092
0.220 0.030 0.087
0.213 0.031 0.085
0.210 0.032 0.084
0.200 0.033 0.080
0.197 0.034 0.079
0.195 0.036 0.078
0.182 0.035 0.073
0.179 0.036 0.072
0.198 0.042 0.079
0.210 0.047 0.084
0.232 0.053 0.093
0.239 0.057 0.096
0.244 0.061 0.098
0.244 0.063 0.098
0.241 0.065 0.097
0.230 0.064 0.093
0.222 0.064 0.090
0.211 0.063 0.085
0.207 0.064 0.084
0.207 0.066 0.084
0.206 0.068 0.084
0.203 0.069 0.083
0.201 0.070 0.082
0.200 0.072 0.082
0.201 0.074 0.082
0.201 0.076 0.082
0.200 0.078 0.082
0.198 0.079 0.081
0.196 0.081 0.081
0.198 0.084 0.082
0.198 0.086 0.082
0.196 0.087 0.081
0.195 0.088 0.081
0.193 0.089 0.080
0.190 0.090 0.079
0.192 0.093 0.080
0.194 0.096 0.081
0.195 0.099 0.082
0.198 0.103 0.084
0.196 0.104 0.083
0.193 0.104 0.082
0.193 0.107 0.082
0.195 0.110 0.083
0.197 0.114 0.084
0.206 0.121 0.088
0.201 0.120 0.086
0.190 0.116 0.082
0.184 0.115 0.080
0.181 0.115 0.079
0.189 0.122 0.082
0.197 0.130 0.086
0.196 0.132 0.086
0.197 0.135 0.086
0.197 0.138 0.087
0.221 0.157 0.098
0.212 0.154 0.094
0.198 0.146 0.088
0.192 0.144 0.086
0.198 0.151 0.089
0.207 0.161 0.094
0.207 0.164 0.094
0.190 0.154 0.087
0.181 0.149 0.083
0.179 0.149 0.082
0.180 0.153 0.083
0.179 0.155 0.083
0.178 0.157 0.083
0.180 0.161 0.084
0.179 0.163 0.084
0.179 0.166 0.085
0.178 0.168 0.085
0.176 0.169 0.084
0.174 0.170 0.084
0.174 0.173 0.085
0.175 0.176 0.085
0.177 0.182 0.087
0.172 0.180 0.085
0.173 0.184 0.086
0.172 0.186 0.086
0.170 0.187 0.085
0.171 0.191 0.086
0.170 0.193 0.086
0.169 0.195 0.086
0.168 0.198 0.087
0.168 0.201 0.087
0.167 0.203 0.087
0.167 0.206 0.087
0.166 0.208 0.087
0.165 0.209 0.087
0.163 0.210 0.087
0.162 0.212 0.087
0.099 -0.129 0.053
0.100 -0.128 0.053
0.100 -0.127 0.053
0.100 -0.125 0.053
0.101 -0.125 0.053
0.103 -0.126 0.054
0.100 -0.121 0.052
0.106 -0.126 0.055
0.115 -0.134 0.059
0.120 -0.139 0.062
0.122 -0.139 0.062
0.120 -0.135 0.061
0.121 -0.133 0.061
0.121 -0.132 0.061
0.120 -0.128 0.060
0.114 -0.120 0.057
0.108 -0.112 0.053
0.103 -0.105 0.051
0.104 -0.104 0.051
0.105 -0.104 0.051
0.107 -0.104 0.052
0.110 -0.106 0.053
0.115 -0.109 0.055
0.126 -0.117 0.060
0.192 -0.173 0.091
0.194 -0.172 0.092
0.196 -0.170 0.092
0.197 -0.168 0.092
0.198 -0.166 0.092
0.199 -0.165 0.092
0.199 -0.162 0.092
0.200 -0.160 0.092
0.201 -0.159 0.092
0.201 -0.155 0.092
0.199 -0.152 0.091
0.199 -0.149 0.090
0.199 -0.146 0.090
0.199 -0.144 0.090
0.199 -0.141 0.089
0.201 -0.140 0.090
0.200 -0.137 0.089
0.199 -0.134 0.088
0.199 -0.131 0.088
0.200 -0.130 0.088
0.200 -0.127 0.088
0.199 -0.125 0.087
0.199 -0.122 0.087
0.199 -0.120 0.087
0.200 -0.118 0.087
0.201 -0.116 0.087
0.200 -0.113 0.087
0.200 -0.111 0.086
0.199 -0.108 0.086
0.199 -0.107 0.086
0.201 -0.105 0.086
0.201 -0.103 0.086
0.200 -0.100 0.085
0.199 -0.098 0.085
0.204 -0.098 0.087
0.205 -0.096 0.087
0.205 -0.094 0.087
0.206 -0.092 0.087
0.208 -0.091 0.088
0.212 -0.091 0.089
0.209 -0.087 0.088
0.207 -0.084 0.087
0.208 -0.083 0.087
0.209 -0.081 0.087
0.204 -0.077 0.085
0.204 -0.075 0.085
0.205 -0.073 0.085
0.207 -0.072 0.086
0.210 -0.071 0.087
0.210 -0.068 0.087
0.213 -0.067 0.088
0.212 -0.065 0.088
0.215 -0.064 0.089
0.216 -0.062 0.089
0.217 -0.060 0.089
0.218 -0.058 0.090
0.219 -0.057 0.090
0.224 -0.056 0.092
0.223 -0.053 0.091
0.221 -0.051 0.090
0.219 -0.048 0.090
0.219 -0.046 0.089
0.218 -0.044 0.089
0.218 -0.042 0.089
0.218 -0.040 0.089
0.220 -0.038 0.090
0.219 -0.036 0.089
0.218 -0.033 0.089
0.218 -0.031 0.089
0.220 -0.030 0.090
0.221 -0.028 0.090
0.225 -0.026 0.091
0.236 -0.025 0.096
0.243 -0.024 0.099
0.243 -0.021 0.099
0.241 -0.019 0.098
0.228 -0.016 0.093
0.220 -0.013 0.089
0.217 -0.011 0.088
0.214 -0.009 0.087
0.218 -0.007 0.089
0.216 -0.005 0.087
0.198 -0.001 0.080
0.198 0.001 0.080
0.193 0.003 0.078
0.197 0.005 0.080
0.204 0.007 0.083
0.208 0.009 0.084
0.198 0.012 0.081
0.196 0.014 0.080
0.191 0.015 0.078
0.194 0.017 0.079
0.186 0.023 0.076
0.196 0.029 0.080
0.190 0.031 0.078
0.190 0.033 0.078
0.186 0.034 0.076
0.182 0.035 0.075
0.187 0.038 0.077
0.199 0.042 0.082
0.223 0.049 0.091
0.231 0.053 0.095
0.236 0.057 0.097
0.234 0.059 0.096
