VERSION .7
FIELDS x y z
SIZE 4 4 4
TYPE F F F
COUNT 1 1 1
WIDTH     2435
HEIGHT 1
VIEWPOINT 0 0 0 1 0 0 0
POINTS     2435
DATA ascii
0.308 0.001 -0.062
0.311 0.004 -0.063
0.312 0.007 -0.063
0.313 0.010 -0.063
0.315 0.013 -0.064
0.316 0.016 -0.064
0.318 0.019 -0.064
0.319 0.022 -0.065
0.319 0.025 -0.065
0.318 0.027 -0.064
0.319 0.030 -0.065
0.320 0.033 -0.065
0.321 0.036 -0.065
0.321 0.039 -0.065
0.322 0.042 -0.065
0.323 0.045 -0.066
0.323 0.048 -0.066
0.321 0.051 -0.065
0.321 0.054 -0.065
0.321 0.057 -0.065
0.320 0.060 -0.065
0.319 0.063 -0.065
0.318 0.065 -0.065
0.317 0.068 -0.065
0.316 0.071 -0.065
0.316 0.074 -0.065
0.315 0.077 -0.065
0.314 0.079 -0.065
0.313 0.082 -0.064
0.319 0.087 -0.066
0.320 0.090 -0.066
0.320 0.093 -0.066
0.328 0.098 -0.068
0.327 0.101 -0.068
0.318 0.101 -0.066
0.310 0.102 -0.064
0.328 0.111 -0.068
0.356 0.128 -0.074
0.340 0.129 -0.071
0.332 0.129 -0.069
0.361 0.166 -0.076
0.353 0.185 -0.076
0.369 0.197 -0.079
0.380 0.207 -0.082
0.368 0.205 -0.079
0.348 0.202 -0.075
0.351 0.208 -0.076
0.351 0.211 -0.076
0.365 0.224 -0.080
0.361 0.226 -0.079
0.362 0.230 -0.079
0.355 0.230 -0.078
0.369 0.253 -0.082
0.380 0.265 -0.085
0.376 0.272 -0.084
0.287 -0.397 -0.073
0.297 -0.390 -0.074
0.303 -0.393 -0.075
0.302 -0.387 -0.075
0.305 -0.384 -0.075
0.303 -0.376 -0.074
0.304 -0.373 -0.074
0.306 -0.369 -0.074
0.305 -0.364 -0.074
0.306 -0.359 -0.073
0.305 -0.353 -0.073
0.305 -0.347 -0.073
0.304 -0.341 -0.072
0.304 -0.336 -0.072
0.304 -0.331 -0.071
0.303 -0.325 -0.071
0.303 -0.320 -0.070
0.303 -0.315 -0.070
0.303 -0.310 -0.070
0.303 -0.305 -0.069
0.301 -0.299 -0.069
0.303 -0.297 -0.069
0.305 -0.293 -0.069
0.299 -0.283 -0.067
0.302 -0.281 -0.068
0.304 -0.279 -0.068
0.304 -0.275 -0.068
0.305 -0.271 -0.067
0.307 -0.269 -0.068
0.308 -0.266 -0.068
0.308 -0.261 -0.067
0.308 -0.257 -0.067
0.306 -0.251 -0.067
0.308 -0.249 -0.067
0.310 -0.246 -0.067
0.256 -0.191 -0.055
0.249 -0.182 -0.053
0.237 -0.171 -0.050
0.231 -0.164 -0.049
0.235 -0.164 -0.050
0.242 -0.165 -0.051
0.241 -0.162 -0.050
0.242 -0.160 -0.051
0.236 -0.153 -0.049
0.227 -0.145 -0.047
0.224 -0.140 -0.046
0.209 -0.128 -0.043
0.206 -0.124 -0.043
0.207 -0.123 -0.043
0.207 -0.121 -0.043
0.215 -0.123 -0.044
0.215 -0.121 -0.044
0.206 -0.113 -0.042
0.207 -0.111 -0.042
0.208 -0.110 -0.042
0.226 -0.117 -0.046
0.239 -0.121 -0.048
0.243 -0.121 -0.049
0.243 -0.118 -0.049
0.242 -0.115 -0.049
0.247 -0.115 -0.050
0.314 -0.143 -0.063
0.314 -0.140 -0.063
0.318 -0.138 -0.064
0.314 -0.133 -0.063
0.300 -0.124 -0.060
0.284 -0.115 -0.056
0.274 -0.108 -0.054
0.265 -0.102 -0.053
0.265 -0.099 -0.052
0.358 -0.124 -0.071
0.361 -0.121 -0.071
0.366 -0.120 -0.072
0.372 -0.118 -0.073
0.377 -0.116 -0.074
0.387 -0.115 -0.076
0.392 -0.113 -0.077
0.400 -0.112 -0.078
0.407 -0.110 -0.080
0.417 -0.109 -0.081
0.425 -0.107 -0.083
0.433 -0.105 -0.085
0.442 -0.103 -0.086
0.438 -0.098 -0.085
0.416 -0.089 -0.081
0.402 -0.082 -0.078
0.395 -0.077 -0.077
0.290 -0.051 -0.056
0.288 -0.048 -0.056
0.283 -0.045 -0.055
0.300 -0.045 -0.058
0.304 -0.043 -0.059
0.300 -0.039 -0.058
0.296 -0.036 -0.057
0.296 -0.034 -0.057
0.302 -0.032 -0.058
0.324 -0.031 -0.063
0.337 -0.029 -0.065
0.333 -0.026 -0.064
0.314 -0.021 -0.061
0.313 -0.018 -0.060
0.315 -0.016 -0.061
0.316 -0.013 -0.061
0.301 -0.010 -0.058
0.302 -0.007 -0.058
0.305 -0.004 -0.059
0.307 -0.001 -0.059
0.309 0.001 -0.060
0.311 0.004 -0.060
0.313 0.007 -0.060
0.314 0.010 -0.061
0.315 0.013 -0.061
0.321 0.016 -0.062
0.319 0.019 -0.062
0.320 0.022 -0.062
0.326 0.025 -0.063
0.327 0.028 -0.063
0.320 0.030 -0.062
0.320 0.033 -0.062
0.323 0.037 -0.063
0.325 0.040 -0.063
0.339 0.045 -0.066
0.322 0.045 -0.063
0.321 0.048 -0.062
0.322 0.051 -0.062
0.322 0.054 -0.063
0.322 0.057 -0.063
0.321 0.060 -0.062
0.320 0.063 -0.062
0.319 0.066 -0.062
0.319 0.068 -0.062
0.318 0.071 -0.062
0.317 0.074 -0.062
0.316 0.077 -0.062
0.315 0.080 -0.062
0.313 0.082 -0.061
0.320 0.087 -0.063
0.319 0.090 -0.063
0.318 0.092 -0.063
0.319 0.096 -0.063
0.325 0.101 -0.064
0.322 0.103 -0.064
0.307 0.101 -0.061
0.312 0.106 -0.062
0.324 0.113 -0.064
0.353 0.130 -0.070
0.344 0.130 -0.068
0.364 0.167 -0.074
0.366 0.172 -0.074
0.354 0.186 -0.072
0.368 0.196 -0.075
0.364 0.203 -0.075
0.354 0.201 -0.073
0.353 0.204 -0.073
0.354 0.209 -0.073
0.357 0.215 -0.074
0.346 0.216 -0.072
0.355 0.226 -0.074
0.363 0.248 -0.077
0.398 0.298 -0.086
0.386 0.294 -0.084
0.380 0.294 -0.083
0.243 -0.336 -0.059
0.271 -0.370 -0.065
0.254 -0.333 -0.060
0.288 -0.363 -0.067
0.293 -0.364 -0.068
0.297 -0.363 -0.069
0.301 -0.363 -0.069
0.305 -0.363 -0.070
0.303 -0.355 -0.069
0.303 -0.350 -0.069
0.301 -0.343 -0.068
0.301 -0.338 -0.068
0.304 -0.335 -0.068
0.305 -0.332 -0.068
0.301 -0.323 -0.067
0.304 -0.320 -0.067
0.304 -0.316 -0.067
0.304 -0.311 -0.067
0.303 -0.305 -0.066
0.302 -0.300 -0.066
0.304 -0.297 -0.066
0.306 -0.294 -0.066
0.306 -0.290 -0.066
0.306 -0.285 -0.065
0.308 -0.282 -0.065
0.308 -0.279 -0.065
0.309 -0.275 -0.065
0.310 -0.271 -0.065
0.311 -0.268 -0.065
0.310 -0.263 -0.065
0.310 -0.259 -0.065
0.312 -0.256 -0.065
0.312 -0.252 -0.064
0.314 -0.249 -0.065
0.316 -0.247 -0.065
0.314 -0.242 -0.064
0.253 -0.185 -0.051
0.241 -0.174 -0.049
0.233 -0.165 -0.047
0.228 -0.159 -0.046
0.236 -0.161 -0.047
0.240 -0.161 -0.048
0.235 -0.155 -0.047
0.226 -0.147 -0.045
0.218 -0.139 -0.043
0.213 -0.134 -0.042
0.204 -0.126 -0.040
0.207 -0.125 -0.041
0.204 -0.121 -0.040
0.205 -0.119 -0.040
0.209 -0.119 -0.041
0.217 -0.121 -0.042
0.206 -0.113 -0.040
0.207 -0.111 -0.040
0.207 -0.109 -0.040
0.214 -0.111 -0.041
0.240 -0.122 -0.046
0.244 -0.121 -0.047
0.251 -0.122 -0.048
0.243 -0.115 -0.047
0.246 -0.115 -0.047
0.313 -0.142 -0.060
0.314 -0.140 -0.060
0.314 -0.136 -0.060
0.252 -0.095 -0.048
0.246 -0.090 -0.046
0.359 -0.124 -0.067
0.363 -0.122 -0.068
0.368 -0.120 -0.069
0.372 -0.118 -0.070
0.377 -0.116 -0.071
0.384 -0.115 -0.072
0.393 -0.114 -0.073
0.399 -0.111 -0.074
0.408 -0.110 -0.076
0.415 -0.108 -0.077
0.421 -0.106 -0.078
0.430 -0.104 -0.080
0.439 -0.102 -0.081
0.435 -0.097 -0.081
0.419 -0.090 -0.078
0.403 -0.083 -0.075
0.386 -0.076 -0.072
0.374 -0.070 -0.069
0.288 -0.051 -0.053
0.287 -0.048 -0.053
0.285 -0.045 -0.053
0.300 -0.045 -0.055
0.303 -0.043 -0.056
0.296 -0.039 -0.055
0.292 -0.036 -0.054
0.298 -0.034 -0.055
0.309 -0.032 -0.057
0.330 -0.031 -0.061
0.333 -0.029 -0.061
0.325 -0.025 -0.060
0.318 -0.022 -0.058
0.315 -0.019 -0.058
0.319 -0.016 -0.059
0.316 -0.013 -0.058
0.301 -0.010 -0.055
0.303 -0.007 -0.056
0.304 -0.004 -0.056
0.308 -0.001 -0.057
0.311 0.001 -0.057
0.313 0.004 -0.058
0.313 0.007 -0.058
0.314 0.010 -0.058
0.317 0.013 -0.058
0.318 0.016 -0.059
0.322 0.019 -0.059
0.323 0.022 -0.059
0.319 0.024 -0.059
0.320 0.027 -0.059
0.320 0.030 -0.059
0.320 0.033 -0.059
0.321 0.036 -0.059
0.325 0.040 -0.060
0.322 0.042 -0.060
0.321 0.045 -0.059
0.335 0.050 -0.062
0.322 0.051 -0.060
0.323 0.054 -0.060
0.322 0.057 -0.060
0.321 0.060 -0.060
0.321 0.063 -0.060
0.321 0.066 -0.060
0.320 0.069 -0.060
0.319 0.071 -0.059
0.317 0.074 -0.059
0.316 0.077 -0.059
0.316 0.080 -0.059
0.314 0.082 -0.059
0.316 0.086 -0.059
0.321 0.090 -0.060
0.317 0.092 -0.059
0.320 0.096 -0.060
0.328 0.102 -0.062
0.328 0.105 -0.062
0.306 0.101 -0.058
0.307 0.104 -0.058
0.315 0.110 -0.059
0.325 0.116 -0.062
0.332 0.126 -0.063
0.334 0.154 -0.064
0.342 0.161 -0.066
0.344 0.169 -0.066
0.355 0.186 -0.069
0.358 0.191 -0.070
0.360 0.196 -0.070
0.351 0.195 -0.069
0.351 0.199 -0.069
0.349 0.202 -0.069
0.364 0.214 -0.072
0.368 0.221 -0.073
0.355 0.217 -0.070
0.346 0.216 -0.069
0.340 0.216 -0.068
0.354 0.242 -0.071
0.343 0.239 -0.070
0.335 0.237 -0.068
0.342 0.247 -0.070
0.387 0.289 -0.079
0.240 -0.332 -0.055
0.265 -0.361 -0.060
0.262 -0.354 -0.060
0.255 -0.340 -0.058
0.252 -0.331 -0.057
0.249 -0.323 -0.056
0.255 -0.325 -0.057
0.279 -0.352 -0.062
0.271 -0.336 -0.060
0.281 -0.344 -0.062
0.290 -0.350 -0.064
0.297 -0.328 -0.063
0.304 -0.330 -0.064
0.302 -0.323 -0.064
0.305 -0.321 -0.064
0.306 -0.318 -0.064
0.306 -0.313 -0.064
0.307 -0.309 -0.064
0.308 -0.305 -0.063
0.307 -0.299 -0.063
0.309 -0.297 -0.063
0.309 -0.292 -0.063
0.310 -0.288 -0.063
0.310 -0.284 -0.063
0.311 -0.281 -0.063
0.312 -0.278 -0.063
0.314 -0.274 -0.063
0.314 -0.270 -0.062
0.313 -0.265 -0.062
0.314 -0.262 -0.062
0.314 -0.258 -0.062
0.312 -0.252 -0.061
0.311 -0.247 -0.061
0.315 -0.246 -0.061
0.306 -0.235 -0.059
0.302 -0.228 -0.058
0.244 -0.175 -0.047
0.232 -0.164 -0.044
0.226 -0.157 -0.043
0.221 -0.151 -0.042
0.228 -0.153 -0.043
0.211 -0.139 -0.040
0.201 -0.130 -0.038
0.203 -0.129 -0.038
0.204 -0.127 -0.038
0.204 -0.125 -0.038
0.205 -0.123 -0.038
0.204 -0.121 -0.038
0.203 -0.118 -0.038
0.209 -0.119 -0.039
0.217 -0.121 -0.040
0.207 -0.113 -0.038
0.204 -0.110 -0.037
0.207 -0.109 -0.038
0.208 -0.108 -0.038
0.231 -0.117 -0.042
0.245 -0.121 -0.045
0.250 -0.121 -0.046
0.251 -0.119 -0.046
0.245 -0.114 -0.045
0.231 -0.098 -0.042
0.237 -0.098 -0.043
0.217 -0.086 -0.039
0.217 -0.083 -0.039
0.225 -0.084 -0.040
0.269 -0.098 -0.048
0.277 -0.098 -0.050
0.355 -0.123 -0.063
0.361 -0.121 -0.064
0.367 -0.120 -0.065
0.372 -0.118 -0.066
0.378 -0.116 -0.067
0.388 -0.116 -0.069
0.390 -0.113 -0.069
0.396 -0.111 -0.070
0.405 -0.109 -0.072
0.415 -0.108 -0.073
0.421 -0.106 -0.074
0.427 -0.103 -0.075
0.439 -0.102 -0.077
0.432 -0.096 -0.076
0.394 -0.081 -0.069
0.382 -0.075 -0.067
0.367 -0.068 -0.064
0.289 -0.051 -0.051
0.286 -0.048 -0.050
0.289 -0.046 -0.051
0.298 -0.045 -0.052
0.302 -0.042 -0.053
0.295 -0.039 -0.052
0.289 -0.035 -0.051
0.297 -0.034 -0.052
0.319 -0.033 -0.056
0.328 -0.031 -0.057
0.327 -0.028 -0.057
0.321 -0.025 -0.056
0.311 -0.021 -0.054
0.304 -0.018 -0.053
0.316 -0.016 -0.055
0.313 -0.013 -0.055
0.303 -0.010 -0.053
0.303 -0.007 -0.053
0.306 -0.004 -0.053
0.309 -0.001 -0.054
0.313 0.001 -0.055
0.314 0.004 -0.055
0.315 0.007 -0.055
0.315 0.010 -0.055
0.318 0.013 -0.056
0.321 0.016 -0.056
0.320 0.019 -0.056
0.319 0.022 -0.056
0.319 0.024 -0.056
0.320 0.027 -0.056
0.320 0.030 -0.056
0.320 0.033 -0.056
0.320 0.036 -0.056
0.322 0.039 -0.057
0.324 0.043 -0.057
0.322 0.045 -0.057
0.322 0.048 -0.057
0.327 0.052 -0.058
0.323 0.054 -0.057
0.324 0.057 -0.057
0.323 0.060 -0.057
0.322 0.063 -0.057
0.322 0.066 -0.057
0.321 0.069 -0.057
0.319 0.071 -0.057
0.318 0.074 -0.056
0.317 0.077 -0.056
0.316 0.080 -0.056
0.316 0.083 -0.056
0.313 0.085 -0.056
0.326 0.091 -0.058
0.323 0.094 -0.058
0.319 0.096 -0.057
0.329 0.102 -0.059
0.332 0.106 -0.059
0.323 0.106 -0.058
0.307 0.104 -0.055
0.321 0.112 -0.058
0.307 0.113 -0.055
0.308 0.116 -0.056
0.314 0.122 -0.057
0.336 0.154 -0.061
0.356 0.167 -0.065
0.352 0.184 -0.065
0.356 0.190 -0.066
0.356 0.194 -0.066
0.355 0.197 -0.066
0.351 0.199 -0.065
0.347 0.200 -0.065
0.348 0.205 -0.065
0.366 0.220 -0.069
0.373 0.229 -0.070
0.349 0.218 -0.066
0.344 0.218 -0.065
0.349 0.239 -0.067
0.343 0.239 -0.066
0.353 0.255 -0.068
0.375 0.280 -0.073
0.370 0.286 -0.073
0.371 0.291 -0.073
0.375 0.305 -0.074
0.336 0.297 -0.068
0.350 0.337 -0.073
0.246 -0.340 -0.053
0.257 -0.350 -0.055
0.258 -0.348 -0.055
0.258 -0.344 -0.055
0.257 -0.337 -0.055
0.253 -0.327 -0.054
0.257 -0.328 -0.054
0.261 -0.328 -0.055
0.267 -0.331 -0.056
0.273 -0.334 -0.057
0.279 -0.336 -0.058
0.277 -0.329 -0.057
0.271 -0.317 -0.056
0.259 -0.294 -0.053
0.292 -0.312 -0.058
0.300 -0.316 -0.060
0.302 -0.314 -0.060
0.304 -0.311 -0.060
0.307 -0.309 -0.060
0.308 -0.305 -0.060
0.307 -0.300 -0.060
0.308 -0.296 -0.060
0.311 -0.294 -0.060
0.311 -0.290 -0.060
0.312 -0.286 -0.060
0.312 -0.281 -0.059
0.314 -0.278 -0.060
0.316 -0.276 -0.060
0.317 -0.273 -0.060
0.317 -0.268 -0.059
0.316 -0.264 -0.059
0.316 -0.259 -0.059
0.312 -0.251 -0.058
0.308 -0.244 -0.057
0.307 -0.240 -0.057
0.312 -0.240 -0.057
0.301 -0.227 -0.055
0.290 -0.216 -0.053
0.242 -0.174 -0.044
0.232 -0.164 -0.042
0.226 -0.157 -0.041
0.212 -0.145 -0.038
0.220 -0.148 -0.040
0.224 -0.148 -0.040
0.203 -0.131 -0.036
0.203 -0.129 -0.036
0.204 -0.128 -0.036
0.205 -0.126 -0.036
0.218 -0.131 -0.039
0.223 -0.132 -0.039
0.216 -0.125 -0.038
0.220 -0.125 -0.039
0.222 -0.124 -0.039
0.241 -0.132 -0.042
0.243 -0.130 -0.042
0.240 -0.126 -0.042
0.233 -0.121 -0.041
0.229 -0.116 -0.040
0.232 -0.115 -0.040
0.241 -0.117 -0.042
0.238 -0.113 -0.041
0.231 -0.107 -0.040
0.226 -0.103 -0.039
0.217 -0.096 -0.037
0.219 -0.095 -0.038
0.223 -0.095 -0.038
0.227 -0.094 -0.039
0.217 -0.088 -0.037
0.213 -0.084 -0.036
0.214 -0.082 -0.036
0.221 -0.083 -0.037
0.354 -0.119 -0.060
0.362 -0.118 -0.061
0.370 -0.117 -0.062
0.377 -0.116 -0.063
0.382 -0.114 -0.064
0.391 -0.113 -0.066
0.393 -0.110 -0.066
0.403 -0.109 -0.068
0.414 -0.108 -0.069
0.421 -0.106 -0.071
0.428 -0.103 -0.072
0.437 -0.102 -0.073
0.437 -0.097 -0.073
0.411 -0.088 -0.069
0.397 -0.081 -0.066
0.382 -0.075 -0.064
0.288 -0.051 -0.048
0.288 -0.048 -0.048
0.288 -0.046 -0.048
0.294 -0.044 -0.049
0.294 -0.041 -0.049
0.288 -0.038 -0.048
0.289 -0.035 -0.048
0.299 -0.034 -0.050
0.314 -0.027 -0.052
0.314 -0.024 -0.052
0.309 -0.021 -0.051
0.311 -0.018 -0.052
0.328 -0.016 -0.054
0.304 -0.012 -0.050
0.303 -0.010 -0.050
0.304 -0.007 -0.050
0.306 -0.004 -0.051
0.310 -0.001 -0.051
0.312 0.001 -0.052
0.316 0.004 -0.052
0.316 0.007 -0.052
0.316 0.010 -0.052
0.316 0.013 -0.052
0.323 0.016 -0.054
0.319 0.019 -0.053
0.319 0.022 -0.053
0.319 0.024 -0.053
0.318 0.027 -0.053
0.318 0.030 -0.053
0.318 0.033 -0.053
0.317 0.036 -0.053
0.319 0.039 -0.053
0.322 0.042 -0.054
0.324 0.046 -0.054
0.324 0.048 -0.054
0.323 0.051 -0.054
0.327 0.055 -0.054
0.323 0.057 -0.054
0.324 0.060 -0.054
0.324 0.063 -0.054
0.323 0.066 -0.054
0.321 0.069 -0.054
0.319 0.071 -0.053
0.319 0.074 -0.053
0.318 0.077 -0.053
0.316 0.080 -0.053
0.315 0.082 -0.053
0.314 0.085 -0.053
0.322 0.090 -0.054
0.323 0.094 -0.054
0.321 0.096 -0.054
0.326 0.101 -0.055
0.336 0.107 -0.057
0.329 0.108 -0.056
0.313 0.106 -0.053
0.318 0.111 -0.054
0.315 0.113 -0.054
0.325 0.126 -0.056
0.343 0.157 -0.059
0.353 0.166 -0.061
0.364 0.174 -0.063
0.369 0.243 -0.067
0.358 0.245 -0.065
0.350 0.244 -0.064
0.360 0.260 -0.066
0.335 0.291 -0.064
0.278 -0.384 -0.057
0.252 -0.344 -0.051
0.256 -0.345 -0.052
0.264 -0.350 -0.053
0.264 -0.346 -0.053
0.263 -0.340 -0.053
0.256 -0.327 -0.051
0.262 -0.329 -0.052
0.270 -0.335 -0.053
0.276 -0.337 -0.054
0.273 -0.328 -0.053
0.267 -0.317 -0.052
0.266 -0.310 -0.052
0.252 -0.286 -0.048
0.281 -0.301 -0.053
0.292 -0.303 -0.055
0.299 -0.305 -0.056
0.303 -0.304 -0.056
0.305 -0.301 -0.056
0.303 -0.295 -0.056
0.302 -0.290 -0.055
0.304 -0.287 -0.055
0.311 -0.289 -0.056
0.315 -0.288 -0.057
0.312 -0.281 -0.056
0.312 -0.277 -0.056
0.317 -0.277 -0.057
0.319 -0.274 -0.057
0.318 -0.269 -0.056
0.319 -0.265 -0.056
0.319 -0.261 -0.056
0.307 -0.239 -0.053
0.306 -0.235 -0.053
0.244 -0.178 -0.042
0.230 -0.165 -0.039
0.226 -0.160 -0.039
0.221 -0.154 -0.038
0.217 -0.148 -0.037
0.217 -0.146 -0.037
0.223 -0.147 -0.038
0.225 -0.146 -0.038
0.228 -0.145 -0.038
0.228 -0.143 -0.038
0.220 -0.135 -0.037
0.224 -0.135 -0.037
0.224 -0.133 -0.037
0.224 -0.130 -0.037
0.225 -0.128 -0.037
0.229 -0.128 -0.038
0.234 -0.128 -0.039
0.239 -0.128 -0.039
0.236 -0.124 -0.039
0.232 -0.120 -0.038
0.225 -0.114 -0.037
0.226 -0.112 -0.037
0.227 -0.110 -0.037
0.225 -0.107 -0.037
0.224 -0.104 -0.036
0.218 -0.099 -0.035
0.219 -0.097 -0.036
0.218 -0.095 -0.035
0.222 -0.094 -0.036
0.219 -0.091 -0.035
0.217 -0.088 -0.035
0.221 -0.087 -0.036
0.216 -0.083 -0.035
0.220 -0.082 -0.035
0.279 -0.099 -0.045
0.287 -0.099 -0.046
0.349 -0.114 -0.056
0.367 -0.116 -0.058
0.374 -0.115 -0.059
0.376 -0.112 -0.060
0.384 -0.111 -0.061
0.399 -0.111 -0.063
0.401 -0.108 -0.064
0.412 -0.107 -0.065
0.420 -0.105 -0.066
0.435 -0.105 -0.069
0.440 -0.102 -0.070
0.434 -0.097 -0.069
0.392 -0.080 -0.062
0.383 -0.075 -0.060
0.286 -0.051 -0.045
0.286 -0.048 -0.045
0.287 -0.046 -0.045
0.290 -0.043 -0.046
0.289 -0.041 -0.045
0.288 -0.038 -0.045
0.287 -0.035 -0.045
0.303 -0.034 -0.048
0.329 -0.034 -0.052
0.324 -0.031 -0.051
0.317 -0.027 -0.050
0.314 -0.024 -0.049
0.310 -0.021 -0.049
0.317 -0.019 -0.050
0.333 -0.017 -0.052
0.302 -0.012 -0.047
0.302 -0.010 -0.047
0.305 -0.007 -0.048
0.309 -0.004 -0.048
0.310 -0.001 -0.049
0.311 0.001 -0.049
0.313 0.004 -0.049
0.316 0.007 -0.050
0.315 0.010 -0.049
0.323 0.013 -0.051
0.318 0.016 -0.050
0.319 0.019 -0.050
0.318 0.021 -0.050
0.317 0.024 -0.050
0.316 0.027 -0.050
0.316 0.030 -0.050
0.316 0.033 -0.050
0.316 0.036 -0.050
0.316 0.039 -0.050
0.318 0.042 -0.050
0.322 0.045 -0.051
0.324 0.048 -0.051
0.323 0.051 -0.051
0.322 0.054 -0.051
0.325 0.058 -0.051
0.325 0.060 -0.051
0.324 0.063 -0.051
0.323 0.066 -0.051
0.321 0.069 -0.051
0.319 0.071 -0.051
0.318 0.074 -0.050
0.318 0.077 -0.051
0.319 0.080 -0.051
0.316 0.083 -0.050
0.316 0.085 -0.050
0.317 0.089 -0.050
0.322 0.093 -0.051
0.318 0.095 -0.051
0.326 0.101 -0.052
0.336 0.107 -0.054
0.339 0.111 -0.054
0.314 0.106 -0.050
0.316 0.110 -0.051
0.322 0.115 -0.052
0.332 0.122 -0.053
0.337 0.154 -0.055
0.335 0.157 -0.055
0.323 0.161 -0.053
0.255 -0.352 -0.049
0.254 -0.346 -0.049
0.257 -0.346 -0.049
0.264 -0.350 -0.050
0.270 -0.353 -0.051
0.267 -0.345 -0.050
0.264 -0.336 -0.050
0.265 -0.333 -0.050
0.283 -0.351 -0.053
0.280 -0.342 -0.052
0.268 -0.323 -0.049
0.265 -0.314 -0.049
0.288 -0.298 -0.051
0.294 -0.300 -0.052
0.299 -0.300 -0.052
0.302 -0.299 -0.052
0.300 -0.292 -0.052
0.296 -0.284 -0.051
0.296 -0.279 -0.051
0.305 -0.283 -0.052
0.314 -0.287 -0.053
0.314 -0.283 -0.053
0.310 -0.275 -0.052
0.311 -0.271 -0.052
0.314 -0.269 -0.053
0.315 -0.266 -0.053
0.321 -0.267 -0.053
0.322 -0.264 -0.053
0.234 -0.183 -0.038
0.222 -0.170 -0.036
0.217 -0.164 -0.035
0.218 -0.162 -0.035
0.215 -0.157 -0.035
0.218 -0.157 -0.035
0.219 -0.155 -0.035
0.220 -0.153 -0.035
0.217 -0.148 -0.035
0.221 -0.148 -0.035
0.226 -0.149 -0.036
0.229 -0.148 -0.036
0.226 -0.144 -0.036
0.223 -0.139 -0.035
0.222 -0.136 -0.035
0.219 -0.132 -0.034
0.219 -0.129 -0.034
0.219 -0.127 -0.034
0.218 -0.124 -0.034
0.226 -0.126 -0.035
0.227 -0.124 -0.035
0.225 -0.120 -0.035
0.222 -0.117 -0.034
0.219 -0.113 -0.034
0.226 -0.114 -0.035
0.222 -0.110 -0.034
0.223 -0.108 -0.034
0.227 -0.107 -0.035
0.221 -0.103 -0.034
0.224 -0.102 -0.034
0.224 -0.099 -0.034
0.225 -0.098 -0.034
0.218 -0.092 -0.033
0.217 -0.090 -0.033
0.220 -0.089 -0.033
0.222 -0.087 -0.034
0.223 -0.086 -0.034
0.222 -0.083 -0.034
0.255 -0.093 -0.038
0.272 -0.097 -0.041
0.274 -0.095 -0.041
0.282 -0.095 -0.042
0.377 -0.112 -0.056
0.386 -0.111 -0.058
0.395 -0.110 -0.059
0.404 -0.109 -0.060
0.408 -0.106 -0.061
0.416 -0.104 -0.062
0.431 -0.104 -0.064
0.438 -0.102 -0.065
0.424 -0.094 -0.063
0.402 -0.086 -0.060
0.396 -0.081 -0.059
0.383 -0.075 -0.057
0.282 -0.050 -0.042
0.284 -0.048 -0.042
0.287 -0.045 -0.042
0.288 -0.043 -0.043
0.288 -0.040 -0.043
0.288 -0.038 -0.043
0.289 -0.035 -0.043
0.296 -0.033 -0.044
0.308 -0.032 -0.046
0.313 -0.030 -0.046
0.313 -0.027 -0.046
0.314 -0.024 -0.046
0.308 -0.021 -0.045
0.316 -0.019 -0.047
0.323 -0.016 -0.048
0.301 -0.012 -0.044
0.302 -0.010 -0.044
0.306 -0.007 -0.045
0.308 -0.004 -0.045
0.309 -0.001 -0.046
0.311 0.001 -0.046
0.314 0.004 -0.046
0.315 0.007 -0.047
0.316 0.010 -0.047
0.323 0.013 -0.048
0.317 0.016 -0.047
0.317 0.019 -0.047
0.317 0.021 -0.047
0.316 0.024 -0.047
0.315 0.027 -0.047
0.314 0.030 -0.047
0.313 0.033 -0.046
0.315 0.035 -0.047
0.316 0.038 -0.047
0.317 0.042 -0.047
0.318 0.045 -0.047
0.322 0.048 -0.048
0.322 0.051 -0.048
0.322 0.054 -0.048
0.326 0.058 -0.048
0.325 0.060 -0.048
0.324 0.063 -0.048
0.323 0.066 -0.048
0.322 0.069 -0.048
0.320 0.071 -0.048
0.319 0.074 -0.048
0.319 0.077 -0.048
0.319 0.080 -0.048
0.317 0.083 -0.047
0.315 0.085 -0.047
0.313 0.088 -0.047
0.328 0.095 -0.049
0.318 0.095 -0.048
0.318 0.098 -0.048
0.346 0.110 -0.052
0.342 0.112 -0.052
0.314 0.106 -0.048
0.316 0.110 -0.048
0.319 0.114 -0.048
1.225 0.498 -0.187
1.221 0.509 -0.187
0.342 0.157 -0.053
0.330 0.155 -0.051
0.345 0.184 -0.054
0.266 -0.367 -0.048
0.257 -0.350 -0.046
0.257 -0.346 -0.046
0.264 -0.350 -0.047
0.268 -0.351 -0.048
0.269 -0.347 -0.048
0.267 -0.341 -0.047
0.275 -0.345 -0.048
0.285 -0.352 -0.050
0.279 -0.340 -0.048
0.211 -0.239 -0.036
0.207 -0.231 -0.035
0.205 -0.225 -0.034
0.203 -0.220 -0.034
0.290 -0.300 -0.048
0.295 -0.301 -0.048
0.299 -0.300 -0.049
0.302 -0.298 -0.049
0.300 -0.292 -0.049
0.295 -0.282 -0.048
0.296 -0.279 -0.048
0.303 -0.281 -0.049
0.311 -0.285 -0.050
0.311 -0.280 -0.049
0.308 -0.273 -0.049
0.306 -0.267 -0.048
0.305 -0.262 -0.048
0.313 -0.264 -0.049
0.319 -0.265 -0.050
0.317 -0.259 -0.049
0.230 -0.179 -0.035
0.220 -0.168 -0.034
0.217 -0.163 -0.033
0.210 -0.156 -0.032
0.211 -0.154 -0.032
0.207 -0.149 -0.031
0.212 -0.149 -0.032
0.217 -0.150 -0.033
0.219 -0.149 -0.033
0.216 -0.145 -0.032
0.224 -0.147 -0.033
0.225 -0.145 -0.033
0.215 -0.136 -0.032
0.209 -0.130 -0.031
0.208 -0.128 -0.031
0.216 -0.130 -0.032
0.215 -0.127 -0.032
0.204 -0.118 -0.030
0.210 -0.119 -0.031
0.201 -0.112 -0.029
0.210 -0.115 -0.031
0.213 -0.114 -0.031
0.211 -0.109 -0.031
0.211 -0.107 -0.031
0.219 -0.108 -0.032
0.226 -0.109 -0.033
0.225 -0.107 -0.032
0.231 -0.107 -0.033
0.231 -0.105 -0.033
0.229 -0.101 -0.033
0.230 -0.100 -0.033
0.226 -0.096 -0.032
0.220 -0.091 -0.031
0.221 -0.089 -0.031
0.222 -0.088 -0.032
0.224 -0.086 -0.032
0.226 -0.085 -0.032
0.234 -0.085 -0.033
0.239 -0.085 -0.034
0.253 -0.087 -0.036
0.274 -0.092 -0.039
0.387 -0.112 -0.054
0.393 -0.109 -0.055
0.399 -0.107 -0.056
0.408 -0.106 -0.057
0.415 -0.104 -0.058
0.422 -0.102 -0.059
0.426 -0.099 -0.060
0.423 -0.094 -0.059
0.405 -0.086 -0.056
0.399 -0.081 -0.056
0.391 -0.076 -0.055
0.282 -0.050 -0.039
0.285 -0.048 -0.040
0.287 -0.045 -0.040
0.292 -0.044 -0.041
0.288 -0.040 -0.040
0.287 -0.038 -0.040
0.291 -0.035 -0.040
0.297 -0.034 -0.041
0.299 -0.031 -0.042
0.303 -0.029 -0.042
0.310 -0.027 -0.043
0.311 -0.024 -0.043
0.307 -0.021 -0.043
0.314 -0.018 -0.044
0.319 -0.016 -0.044
0.300 -0.012 -0.042
0.303 -0.010 -0.042
0.306 -0.007 -0.042
0.308 -0.004 -0.043
0.310 -0.001 -0.043
0.312 0.001 -0.043
0.314 0.004 -0.044
0.316 0.007 -0.044
0.319 0.010 -0.044
0.318 0.013 -0.044
0.317 0.016 -0.044
0.316 0.018 -0.044
0.315 0.021 -0.044
0.315 0.024 -0.044
0.314 0.027 -0.044
0.313 0.030 -0.044
0.312 0.032 -0.043
0.313 0.035 -0.043
0.315 0.038 -0.044
0.315 0.041 -0.044
0.316 0.044 -0.044
0.319 0.048 -0.044
0.323 0.051 -0.045
0.325 0.054 -0.045
0.324 0.057 -0.045
0.323 0.060 -0.045
0.324 0.063 -0.045
0.323 0.066 -0.045
0.322 0.069 -0.045
0.320 0.072 -0.045
0.320 0.074 -0.045
0.319 0.077 -0.045
0.318 0.080 -0.045
0.317 0.083 -0.045
0.315 0.085 -0.044
0.314 0.088 -0.044
0.322 0.093 -0.045
0.310 0.093 -0.044
0.318 0.098 -0.045
0.340 0.108 -0.048
0.340 0.112 -0.048
0.320 0.108 -0.045
0.313 0.109 -0.045
0.318 0.114 -0.045
0.360 0.165 -0.052
0.337 0.158 -0.049
0.344 0.175 -0.050
0.250 -0.345 -0.042
0.258 -0.351 -0.043
0.262 -0.352 -0.044
0.264 -0.350 -0.044
0.267 -0.349 -0.044
0.265 -0.343 -0.044
0.272 -0.346 -0.045
0.276 -0.346 -0.045
0.274 -0.339 -0.045
0.276 -0.337 -0.045
0.201 -0.235 -0.032
0.203 -0.230 -0.032
0.201 -0.224 -0.032
0.193 -0.212 -0.030
0.192 -0.208 -0.030
0.286 -0.296 -0.044
0.296 -0.301 -0.045
0.299 -0.299 -0.046
0.300 -0.296 -0.046
0.297 -0.289 -0.045
0.297 -0.284 -0.045
0.298 -0.280 -0.045
0.304 -0.282 -0.045
0.307 -0.281 -0.046
0.308 -0.277 -0.046
0.307 -0.272 -0.045
0.307 -0.267 -0.045
0.306 -0.263 -0.045
0.311 -0.263 -0.045
0.313 -0.260 -0.046
0.306 -0.250 -0.044
0.295 -0.237 -0.043
0.226 -0.176 -0.032
0.222 -0.170 -0.032
0.206 -0.156 -0.029
0.214 -0.159 -0.030
0.212 -0.155 -0.030
0.210 -0.150 -0.030
0.209 -0.147 -0.030
0.215 -0.149 -0.030
0.217 -0.147 -0.030
0.209 -0.140 -0.029
0.199 -0.131 -0.028
0.216 -0.139 -0.030
0.211 -0.134 -0.029
0.206 -0.128 -0.029
0.205 -0.126 -0.028
0.222 -0.133 -0.031
0.215 -0.127 -0.030
0.210 -0.121 -0.029
0.210 -0.119 -0.029
0.209 -0.116 -0.029
0.218 -0.119 -0.030
0.220 -0.118 -0.030
0.232 -0.122 -0.032
0.210 -0.108 -0.028
0.214 -0.108 -0.029
0.219 -0.108 -0.030
0.222 -0.107 -0.030
0.229 -0.109 -0.031
0.229 -0.106 -0.031
0.228 -0.103 -0.031
0.233 -0.103 -0.031
0.230 -0.100 -0.031
0.230 -0.097 -0.031
0.225 -0.093 -0.030
0.222 -0.090 -0.030
0.222 -0.087 -0.029
0.213 -0.082 -0.028
0.242 -0.091 -0.032
0.233 -0.085 -0.031
0.237 -0.084 -0.031
0.248 -0.085 -0.033
0.259 -0.087 -0.034
0.251 -0.082 -0.033
0.390 -0.108 -0.051
0.398 -0.107 -0.052
0.408 -0.106 -0.053
0.417 -0.104 -0.055
0.424 -0.102 -0.055
0.429 -0.099 -0.056
0.425 -0.095 -0.055
0.418 -0.089 -0.054
0.398 -0.081 -0.052
0.393 -0.077 -0.051
0.384 -0.071 -0.050
0.282 -0.050 -0.037
0.285 -0.048 -0.037
0.288 -0.046 -0.037
0.299 -0.045 -0.039
0.290 -0.041 -0.038
0.288 -0.038 -0.037
0.293 -0.036 -0.038
0.300 -0.034 -0.039
0.299 -0.031 -0.039
0.297 -0.028 -0.038
0.297 -0.025 -0.038
0.300 -0.023 -0.039
0.288 -0.020 -0.037
0.306 -0.018 -0.040
0.314 -0.016 -0.041
0.301 -0.012 -0.039
0.303 -0.010 -0.039
0.306 -0.007 -0.040
0.309 -0.004 -0.040
0.312 -0.001 -0.040
0.313 0.001 -0.041
0.314 0.004 -0.041
0.317 0.007 -0.041
0.321 0.010 -0.042
0.318 0.013 -0.041
0.317 0.016 -0.041
0.316 0.018 -0.041
0.315 0.021 -0.041
0.315 0.024 -0.041
0.313 0.027 -0.041
0.312 0.030 -0.041
0.312 0.032 -0.040
0.313 0.035 -0.041
0.314 0.038 -0.041
0.315 0.041 -0.041
0.316 0.044 -0.041
0.318 0.047 -0.041
0.321 0.051 -0.042
0.324 0.054 -0.042
0.324 0.057 -0.042
0.324 0.060 -0.042
0.323 0.063 -0.042
0.323 0.066 -0.042
0.323 0.069 -0.042
0.321 0.072 -0.042
0.320 0.074 -0.042
0.319 0.077 -0.042
0.318 0.080 -0.042
0.317 0.083 -0.042
0.315 0.085 -0.041
0.313 0.088 -0.041
0.321 0.093 -0.042
0.318 0.095 -0.042
0.320 0.099 -0.042
0.334 0.106 -0.044
0.339 0.111 -0.045
0.318 0.107 -0.042
0.317 0.110 -0.042
0.332 0.118 -0.044
0.325 0.119 -0.043
0.332 0.125 -0.044
1.206 0.490 -0.161
0.353 0.165 -0.048
0.250 -0.345 -0.039
0.257 -0.349 -0.040
0.261 -0.350 -0.040
0.260 -0.345 -0.040
0.253 -0.332 -0.039
0.261 -0.337 -0.040
0.270 -0.344 -0.041
0.270 -0.339 -0.041
0.267 -0.330 -0.040
0.206 -0.248 -0.031
0.197 -0.233 -0.029
0.191 -0.223 -0.028
0.186 -0.214 -0.028
0.192 -0.218 -0.028
0.189 -0.210 -0.028
0.192 -0.211 -0.028
0.201 -0.217 -0.029
0.210 -0.224 -0.030
0.220 -0.231 -0.032
0.281 -0.290 -0.040
0.294 -0.299 -0.042
0.301 -0.301 -0.043
0.298 -0.294 -0.042
0.296 -0.288 -0.042
0.297 -0.284 -0.042
0.300 -0.283 -0.042
0.303 -0.281 -0.042
0.305 -0.279 -0.042
0.304 -0.273 -0.042
0.306 -0.270 -0.042
0.307 -0.267 -0.042
0.311 -0.267 -0.042
0.308 -0.260 -0.042
0.307 -0.255 -0.042
0.303 -0.248 -0.041
0.298 -0.240 -0.040
0.222 -0.173 -0.030
0.214 -0.164 -0.028
0.212 -0.160 -0.028
0.211 -0.156 -0.028
0.213 -0.155 -0.028
0.212 -0.152 -0.028
0.213 -0.150 -0.028
0.213 -0.148 -0.028
0.219 -0.149 -0.029
0.215 -0.144 -0.028
0.209 -0.138 -0.027
0.216 -0.139 -0.028
0.213 -0.135 -0.027
0.208 -0.129 -0.027
0.220 -0.135 -0.028
0.204 -0.122 -0.026
0.216 -0.127 -0.028
0.207 -0.120 -0.026
0.198 -0.113 -0.025
0.210 -0.117 -0.027
0.208 -0.114 -0.026
0.202 -0.104 -0.026
0.213 -0.108 -0.027
0.219 -0.108 -0.028
0.225 -0.109 -0.028
0.226 -0.107 -0.028
0.225 -0.104 -0.028
0.225 -0.102 -0.028
0.231 -0.102 -0.029
0.236 -0.102 -0.029
0.230 -0.097 -0.029
0.225 -0.093 -0.028
0.224 -0.090 -0.028
0.223 -0.088 -0.028
0.224 -0.086 -0.028
0.242 -0.088 -0.030
0.240 -0.085 -0.029
0.240 -0.083 -0.029
0.249 -0.084 -0.031
0.260 -0.085 -0.032
0.265 -0.084 -0.032
0.271 -0.083 -0.033
0.390 -0.109 -0.048
0.394 -0.106 -0.048
0.414 -0.107 -0.050
0.418 -0.105 -0.051
0.429 -0.103 -0.052
0.435 -0.101 -0.053
0.432 -0.096 -0.052
0.386 -0.079 -0.047
0.388 -0.076 -0.047
0.389 -0.072 -0.047
0.283 -0.050 -0.034
0.286 -0.048 -0.035
0.289 -0.046 -0.035
0.299 -0.045 -0.036
0.286 -0.040 -0.035
0.288 -0.038 -0.035
0.291 -0.036 -0.035
0.295 -0.033 -0.036
0.310 -0.032 -0.037
0.297 -0.028 -0.036
0.297 -0.025 -0.036
0.299 -0.023 -0.036
0.303 -0.021 -0.036
0.309 -0.018 -0.037
0.310 -0.015 -0.037
0.300 -0.012 -0.036
0.304 -0.010 -0.037
0.306 -0.007 -0.037
0.308 -0.004 -0.037
0.312 -0.001 -0.038
0.313 0.001 -0.038
0.315 0.004 -0.038
0.317 0.007 -0.038
0.321 0.010 -0.039
0.321 0.013 -0.039
0.317 0.016 -0.038
0.316 0.018 -0.038
0.315 0.021 -0.038
0.314 0.024 -0.038
0.314 0.027 -0.038
0.313 0.030 -0.038
0.312 0.032 -0.038
0.313 0.035 -0.038
0.314 0.038 -0.038
0.315 0.041 -0.038
0.317 0.044 -0.038
0.320 0.048 -0.039
0.322 0.051 -0.039
0.324 0.054 -0.039
0.324 0.057 -0.039
0.326 0.061 -0.040
0.324 0.063 -0.039
0.323 0.066 -0.039
0.323 0.069 -0.039
0.322 0.072 -0.039
0.321 0.075 -0.039
0.320 0.077 -0.039
0.319 0.080 -0.039
0.318 0.083 -0.039
0.316 0.085 -0.039
0.314 0.088 -0.038
0.324 0.094 -0.040
0.320 0.096 -0.039
0.320 0.099 -0.039
0.339 0.108 -0.042
0.335 0.110 -0.041
0.327 0.110 -0.040
0.320 0.111 -0.039
0.332 0.118 -0.041
0.342 0.125 -0.042
0.359 0.139 -0.045
0.352 0.164 -0.044
0.254 -0.350 -0.037
0.259 -0.352 -0.037
0.256 -0.343 -0.037
0.248 -0.329 -0.035
0.252 -0.329 -0.036
0.260 -0.335 -0.037
0.270 -0.343 -0.038
0.268 -0.336 -0.038
0.198 -0.237 -0.027
0.190 -0.225 -0.026
0.184 -0.214 -0.025
0.179 -0.206 -0.024
0.181 -0.205 -0.025
0.187 -0.208 -0.025
0.185 -0.203 -0.025
0.211 -0.228 -0.028
0.214 -0.228 -0.029
0.226 -0.237 -0.030
0.286 -0.295 -0.038
0.295 -0.300 -0.039
0.297 -0.297 -0.039
0.300 -0.296 -0.039
0.298 -0.289 -0.039
0.298 -0.285 -0.039
0.301 -0.283 -0.039
0.306 -0.283 -0.039
0.304 -0.277 -0.039
0.303 -0.272 -0.038
0.304 -0.269 -0.039
0.309 -0.269 -0.039
0.304 -0.260 -0.038
0.307 -0.259 -0.039
0.306 -0.254 -0.038
0.303 -0.247 -0.038
0.303 -0.244 -0.038
0.207 -0.159 -0.025
0.203 -0.153 -0.025
0.210 -0.153 -0.026
0.212 -0.152 -0.026
0.214 -0.150 -0.026
0.217 -0.150 -0.026
0.219 -0.149 -0.026
0.220 -0.147 -0.026
0.216 -0.142 -0.026
0.216 -0.139 -0.026
0.217 -0.138 -0.026
0.218 -0.136 -0.026
0.218 -0.133 -0.026
0.218 -0.131 -0.026
0.216 -0.128 -0.026
0.213 -0.123 -0.025
0.207 -0.118 -0.024
0.200 -0.112 -0.024
0.208 -0.114 -0.024
0.222 -0.119 -0.026
0.210 -0.108 -0.024
0.203 -0.102 -0.024
0.218 -0.108 -0.025
0.229 -0.111 -0.027
0.227 -0.107 -0.026
0.222 -0.103 -0.026
0.228 -0.103 -0.026
0.230 -0.102 -0.026
0.238 -0.103 -0.027
0.230 -0.097 -0.026
0.226 -0.093 -0.026
0.225 -0.091 -0.026
0.227 -0.089 -0.026
0.229 -0.088 -0.026
0.242 -0.090 -0.028
0.242 -0.088 -0.028
0.240 -0.085 -0.027
0.249 -0.086 -0.028
0.255 -0.085 -0.029
0.259 -0.084 -0.029
0.260 -0.082 -0.029
0.269 -0.082 -0.030
0.293 -0.087 -0.033
0.300 -0.086 -0.034
0.392 -0.109 -0.044
0.402 -0.108 -0.045
0.412 -0.107 -0.046
0.420 -0.105 -0.047
0.431 -0.104 -0.048
0.435 -0.101 -0.049
0.433 -0.096 -0.049
0.385 -0.079 -0.043
0.382 -0.074 -0.043
0.387 -0.072 -0.043
0.288 -0.051 -0.032
0.285 -0.048 -0.032
0.290 -0.046 -0.032
0.292 -0.044 -0.033
0.288 -0.040 -0.032
0.286 -0.037 -0.032
0.288 -0.035 -0.032
0.293 -0.033 -0.033
0.301 -0.031 -0.034
0.314 -0.030 -0.035
0.297 -0.025 -0.033
0.301 -0.023 -0.034
0.304 -0.021 -0.034
0.308 -0.018 -0.034
0.319 -0.016 -0.036
0.301 -0.012 -0.034
0.303 -0.010 -0.034
0.306 -0.007 -0.034
0.308 -0.004 -0.034
0.310 -0.001 -0.035
0.313 0.001 -0.035
0.314 0.004 -0.035
0.316 0.007 -0.035
0.321 0.010 -0.036
0.319 0.013 -0.036
0.318 0.016 -0.035
0.317 0.018 -0.035
0.315 0.021 -0.035
0.315 0.024 -0.035
0.314 0.027 -0.035
0.313 0.030 -0.035
0.313 0.032 -0.035
0.314 0.035 -0.035
0.315 0.038 -0.035
0.316 0.041 -0.035
0.316 0.044 -0.035
0.320 0.048 -0.036
0.322 0.051 -0.036
0.324 0.054 -0.036
0.325 0.057 -0.036
0.326 0.061 -0.037
0.325 0.063 -0.036
0.323 0.066 -0.036
0.322 0.069 -0.036
0.321 0.072 -0.036
0.321 0.075 -0.036
0.320 0.077 -0.036
0.320 0.080 -0.036
0.318 0.083 -0.036
0.316 0.085 -0.036
0.315 0.088 -0.036
0.324 0.093 -0.037
0.322 0.096 -0.037
0.314 0.097 -0.036
0.321 0.102 -0.037
0.326 0.107 -0.037
0.323 0.109 -0.037
0.318 0.110 -0.036
0.326 0.116 -0.037
0.339 0.124 -0.039
0.349 0.135 -0.040
1.229 0.524 -0.142
0.351 0.164 -0.041
0.352 0.168 -0.041
0.347 0.169 -0.040
0.338 0.169 -0.040
0.341 0.181 -0.040
0.356 0.213 -0.042
0.356 0.217 -0.043
0.350 0.217 -0.042
0.364 0.230 -0.044
0.382 0.347 -0.049
0.381 0.352 -0.050
0.366 0.344 -0.048
0.353 0.379 -0.048
0.413 0.481 -0.058
0.274 -0.378 -0.036
0.258 -0.351 -0.034
0.252 -0.338 -0.033
0.252 -0.334 -0.033
0.258 -0.337 -0.034
0.264 -0.340 -0.034
0.261 -0.331 -0.034
0.198 -0.241 -0.025
0.189 -0.227 -0.024
0.184 -0.217 -0.023
0.181 -0.210 -0.023
0.182 -0.209 -0.023
0.186 -0.210 -0.023
0.194 -0.216 -0.024
0.205 -0.225 -0.025
0.210 -0.227 -0.026
0.289 -0.298 -0.035
0.296 -0.300 -0.036
0.297 -0.297 -0.036
0.292 -0.288 -0.035
0.301 -0.292 -0.036
0.299 -0.286 -0.035
0.301 -0.283 -0.036
0.303 -0.280 -0.036
0.303 -0.277 -0.036
0.300 -0.270 -0.035
0.304 -0.269 -0.035
0.307 -0.267 -0.036
0.307 -0.263 -0.036
0.305 -0.257 -0.035
0.305 -0.253 -0.035
0.305 -0.249 -0.035
0.297 -0.239 -0.034
0.242 -0.191 -0.027
0.230 -0.179 -0.026
0.217 -0.166 -0.024
0.213 -0.160 -0.024
0.212 -0.157 -0.024
0.204 -0.148 -0.023
0.210 -0.150 -0.023
0.214 -0.151 -0.024
0.216 -0.150 -0.024
0.219 -0.149 -0.024
0.220 -0.147 -0.024
0.219 -0.144 -0.024
0.215 -0.136 -0.024
0.213 -0.132 -0.023
0.206 -0.126 -0.022
0.219 -0.131 -0.024
0.217 -0.128 -0.024
0.216 -0.125 -0.023
0.214 -0.122 -0.023
0.206 -0.115 -0.022
0.219 -0.120 -0.024
0.219 -0.117 -0.024
0.222 -0.117 -0.024
0.209 -0.107 -0.022
0.215 -0.108 -0.023
0.216 -0.107 -0.023
0.224 -0.108 -0.024
0.223 -0.105 -0.024
0.228 -0.106 -0.024
0.227 -0.103 -0.024
0.229 -0.101 -0.024
0.227 -0.098 -0.024
0.232 -0.098 -0.024
0.228 -0.094 -0.024
0.231 -0.093 -0.024
0.229 -0.090 -0.024
0.237 -0.089 -0.025
0.246 -0.089 -0.026
0.248 -0.088 -0.026
0.248 -0.085 -0.026
0.253 -0.085 -0.026
0.257 -0.084 -0.027
0.259 -0.082 -0.027
0.267 -0.082 -0.028
0.283 -0.084 -0.029
0.395 -0.110 -0.041
0.403 -0.108 -0.042
0.410 -0.106 -0.042
0.418 -0.105 -0.043
0.423 -0.102 -0.044
0.438 -0.101 -0.045
0.436 -0.097 -0.045
0.387 -0.079 -0.040
0.377 -0.073 -0.039
0.300 -0.053 -0.031
0.288 -0.048 -0.030
0.288 -0.046 -0.030
0.292 -0.044 -0.030
0.288 -0.040 -0.030
0.283 -0.037 -0.029
0.283 -0.034 -0.029
0.293 -0.033 -0.030
0.310 -0.032 -0.032
0.317 -0.030 -0.032
0.316 -0.027 -0.032
0.302 -0.023 -0.031
0.296 -0.020 -0.030
0.308 -0.018 -0.032
0.302 -0.012 -0.031
0.302 -0.010 -0.031
0.304 -0.007 -0.031
0.308 -0.004 -0.032
0.309 -0.001 -0.032
0.313 0.001 -0.032
0.315 0.004 -0.032
0.316 0.007 -0.032
0.317 0.010 -0.032
0.319 0.013 -0.033
0.318 0.016 -0.033
0.317 0.018 -0.032
0.316 0.021 -0.032
0.315 0.024 -0.032
0.315 0.027 -0.032
0.314 0.030 -0.032
0.314 0.033 -0.032
0.316 0.036 -0.032
0.317 0.039 -0.033
0.317 0.041 -0.033
0.317 0.044 -0.033
0.318 0.047 -0.033
0.321 0.051 -0.033
0.324 0.054 -0.033
0.326 0.057 -0.034
0.326 0.060 -0.034
0.324 0.063 -0.033
0.323 0.066 -0.033
0.322 0.069 -0.033
0.321 0.071 -0.033
0.320 0.074 -0.033
0.320 0.077 -0.033
0.319 0.080 -0.033
0.317 0.082 -0.033
0.316 0.085 -0.033
0.316 0.088 -0.033
0.329 0.095 -0.034
0.310 0.092 -0.032
0.317 0.098 -0.033
0.319 0.101 -0.033
0.318 0.104 -0.033
0.317 0.107 -0.033
0.319 0.111 -0.033
0.318 0.113 -0.033
0.319 0.117 -0.034
0.340 0.135 -0.036
1.247 0.570 -0.133
0.352 0.211 -0.039
0.368 0.224 -0.040
0.358 0.226 -0.040
0.390 0.310 -0.045
0.379 0.322 -0.044
0.370 0.320 -0.043
0.370 0.331 -0.044
0.379 0.344 -0.045
0.380 0.351 -0.045
0.377 0.354 -0.045
0.381 0.364 -0.046
0.371 0.367 -0.045
0.377 0.378 -0.046
0.373 0.381 -0.046
0.374 0.389 -0.046
0.383 0.404 -0.047
0.390 0.432 -0.049
0.390 0.440 -0.049
0.411 0.479 -0.053
0.396 0.508 -0.052
0.376 0.490 -0.050
0.258 -0.351 -0.031
0.254 -0.341 -0.030
0.257 -0.340 -0.030
0.263 -0.343 -0.031
0.202 -0.253 -0.024
0.197 -0.244 -0.023
0.187 -0.227 -0.022
0.180 -0.216 -0.021
0.178 -0.211 -0.020
0.181 -0.211 -0.021
0.185 -0.212 -0.021
0.190 -0.215 -0.022
0.203 -0.226 -0.023
0.213 -0.234 -0.024
0.278 -0.291 -0.031
0.290 -0.299 -0.032
0.294 -0.298 -0.032
0.295 -0.295 -0.032
0.299 -0.295 -0.033
0.299 -0.290 -0.032
0.300 -0.286 -0.032
0.301 -0.283 -0.032
0.302 -0.279 -0.032
0.297 -0.271 -0.032
0.298 -0.267 -0.032
0.304 -0.269 -0.032
0.309 -0.269 -0.033
0.304 -0.260 -0.032
0.303 -0.255 -0.032
0.306 -0.253 -0.032
0.303 -0.247 -0.032
0.226 -0.175 -0.023
0.218 -0.167 -0.022
0.218 -0.164 -0.022
0.214 -0.159 -0.022
0.207 -0.150 -0.021
0.209 -0.149 -0.021
0.210 -0.147 -0.021
0.211 -0.146 -0.021
0.219 -0.149 -0.022
0.218 -0.146 -0.022
0.216 -0.142 -0.022
0.218 -0.140 -0.022
0.204 -0.129 -0.020
0.211 -0.131 -0.021
0.219 -0.134 -0.022
0.206 -0.123 -0.020
0.220 -0.129 -0.022
0.219 -0.127 -0.022
0.208 -0.118 -0.020
0.207 -0.115 -0.020
0.199 -0.108 -0.019
0.219 -0.117 -0.021
0.220 -0.115 -0.022
0.205 -0.105 -0.020
0.209 -0.105 -0.020
0.209 -0.103 -0.020
0.224 -0.108 -0.022
0.225 -0.107 -0.022
0.225 -0.104 -0.022
0.226 -0.102 -0.022
0.226 -0.100 -0.022
0.227 -0.098 -0.022
0.227 -0.096 -0.022
0.231 -0.095 -0.022
0.233 -0.094 -0.022
0.227 -0.089 -0.022
0.220 -0.084 -0.021
0.209 -0.078 -0.020
0.241 -0.088 -0.023
0.243 -0.086 -0.023
0.237 -0.082 -0.023
0.242 -0.081 -0.023
0.259 -0.084 -0.025
0.268 -0.085 -0.025
0.264 -0.081 -0.025
0.267 -0.079 -0.025
0.390 -0.108 -0.037
0.398 -0.107 -0.038
0.406 -0.105 -0.038
0.415 -0.104 -0.039
0.425 -0.102 -0.040
0.438 -0.101 -0.041
0.447 -0.099 -0.042
0.387 -0.079 -0.036
0.372 -0.072 -0.035
0.292 -0.052 -0.027
0.291 -0.049 -0.027
0.290 -0.046 -0.027
0.294 -0.044 -0.028
0.286 -0.040 -0.027
0.281 -0.037 -0.026
0.281 -0.034 -0.026
0.296 -0.033 -0.028
0.305 -0.032 -0.028
0.314 -0.030 -0.029
0.311 -0.027 -0.029
0.300 -0.023 -0.028
0.296 -0.020 -0.028
0.298 -0.018 -0.028
0.313 -0.016 -0.029
0.304 -0.012 -0.028
0.302 -0.010 -0.028
0.303 -0.007 -0.028
0.307 -0.004 -0.029
0.310 -0.001 -0.029
0.313 0.001 -0.029
0.315 0.004 -0.029
0.316 0.007 -0.029
0.317 0.010 -0.030
0.322 0.013 -0.030
0.319 0.016 -0.030
0.317 0.018 -0.030
0.316 0.021 -0.030
0.316 0.024 -0.030
0.315 0.027 -0.029
0.315 0.030 -0.029
0.316 0.033 -0.030
0.316 0.036 -0.030
0.317 0.039 -0.030
0.318 0.042 -0.030
0.319 0.045 -0.030
0.320 0.048 -0.030
0.321 0.051 -0.030
0.324 0.054 -0.030
0.326 0.057 -0.031
0.324 0.060 -0.030
0.323 0.063 -0.030
0.323 0.066 -0.030
0.322 0.069 -0.030
0.321 0.072 -0.030
0.320 0.074 -0.030
0.320 0.077 -0.030
0.319 0.080 -0.030
0.317 0.082 -0.030
0.316 0.085 -0.030
0.315 0.088 -0.030
0.334 0.096 -0.032
0.328 0.098 -0.031
0.318 0.098 -0.030
0.318 0.101 -0.030
0.317 0.104 -0.030
0.317 0.107 -0.030
0.315 0.109 -0.030
0.332 0.118 -0.032
0.319 0.117 -0.031
0.326 0.126 -0.031
1.248 0.622 -0.122
1.253 0.638 -0.123
1.258 0.654 -0.124
1.246 0.661 -0.123
0.999 0.563 -0.099
1.255 0.735 -0.125
1.261 0.753 -0.126
1.271 0.788 -0.128
1.293 0.817 -0.130
1.287 0.828 -0.130
1.282 0.840 -0.130
1.286 0.858 -0.131
1.291 0.877 -0.131
1.279 0.885 -0.131
1.271 0.910 -0.131
0.358 0.320 -0.039
0.370 0.342 -0.040
0.372 0.350 -0.041
0.378 0.361 -0.041
0.367 0.363 -0.041
0.371 0.372 -0.041
0.375 0.383 -0.042
0.378 0.392 -0.042
0.382 0.403 -0.043
0.413 0.450 -0.047
0.399 0.442 -0.046
0.401 0.452 -0.046
0.407 0.522 -0.049
0.415 0.540 -0.050
0.249 -0.342 -0.027
0.258 -0.350 -0.028
0.257 -0.344 -0.028
0.196 -0.253 -0.021
0.192 -0.244 -0.020
0.192 -0.241 -0.020
0.188 -0.232 -0.020
0.179 -0.218 -0.019
0.175 -0.210 -0.018
0.179 -0.212 -0.019
0.185 -0.215 -0.019
0.189 -0.217 -0.019
0.195 -0.220 -0.020
0.207 -0.230 -0.021
0.287 -0.305 -0.029
0.287 -0.301 -0.029
0.288 -0.297 -0.029
0.298 -0.302 -0.029
0.302 -0.302 -0.030
0.300 -0.296 -0.029
0.302 -0.293 -0.030
0.298 -0.285 -0.029
0.302 -0.284 -0.029
0.304 -0.282 -0.029
0.295 -0.268 -0.028
0.299 -0.268 -0.029
0.305 -0.270 -0.029
0.302 -0.263 -0.029
0.303 -0.259 -0.029
0.303 -0.255 -0.029
0.304 -0.252 -0.029
0.304 -0.248 -0.029
0.231 -0.179 -0.021
0.222 -0.170 -0.021
0.217 -0.163 -0.020
0.207 -0.153 -0.019
0.208 -0.151 -0.019
0.210 -0.150 -0.019
0.206 -0.145 -0.019
0.211 -0.146 -0.019
0.215 -0.146 -0.020
0.218 -0.145 -0.020
0.214 -0.141 -0.019
0.213 -0.137 -0.019
0.205 -0.130 -0.018
0.223 -0.139 -0.020
0.219 -0.134 -0.020
0.218 -0.131 -0.019
0.220 -0.129 -0.020
0.219 -0.127 -0.020
0.211 -0.120 -0.019
0.201 -0.112 -0.018
0.213 -0.116 -0.019
0.216 -0.115 -0.019
0.206 -0.108 -0.018
0.210 -0.108 -0.018
0.205 -0.103 -0.018
0.207 -0.102 -0.018
0.210 -0.101 -0.018
0.222 -0.105 -0.019
0.222 -0.103 -0.019
0.223 -0.101 -0.019
0.224 -0.099 -0.019
0.231 -0.100 -0.020
0.227 -0.096 -0.020
0.230 -0.095 -0.020
0.230 -0.093 -0.020
0.225 -0.088 -0.019
0.220 -0.084 -0.019
0.218 -0.081 -0.019
0.238 -0.086 -0.020
0.238 -0.084 -0.020
0.233 -0.080 -0.020
0.235 -0.079 -0.020
0.272 -0.088 -0.023
0.278 -0.088 -0.024
0.258 -0.079 -0.022
0.258 -0.077 -0.022
0.384 -0.107 -0.033
0.393 -0.105 -0.033
0.402 -0.104 -0.034
0.419 -0.105 -0.036
0.430 -0.104 -0.037
0.438 -0.101 -0.037
0.428 -0.095 -0.036
0.387 -0.079 -0.033
0.374 -0.073 -0.032
0.289 -0.051 -0.024
0.288 -0.048 -0.024
0.295 -0.047 -0.025
0.298 -0.044 -0.025
0.291 -0.041 -0.025
0.281 -0.037 -0.024
0.280 -0.034 -0.024
0.295 -0.033 -0.025
0.301 -0.031 -0.025
0.299 -0.028 -0.025
0.302 -0.026 -0.025
0.298 -0.023 -0.025
0.297 -0.020 -0.025
0.301 -0.018 -0.025
0.309 -0.015 -0.026
0.311 -0.013 -0.026
0.302 -0.010 -0.025
0.303 -0.007 -0.026
0.307 -0.004 -0.026
0.310 -0.001 -0.026
0.313 0.001 -0.026
0.315 0.004 -0.027
0.317 0.007 -0.027
0.318 0.010 -0.027
0.321 0.013 -0.027
0.317 0.016 -0.027
0.317 0.018 -0.027
0.317 0.021 -0.027
0.317 0.024 -0.027
0.317 0.027 -0.027
0.317 0.030 -0.027
0.317 0.033 -0.027
0.317 0.036 -0.027
0.318 0.039 -0.027
0.319 0.042 -0.027
0.321 0.045 -0.027
0.322 0.048 -0.027
0.322 0.051 -0.027
0.322 0.054 -0.027
0.328 0.058 -0.028
0.323 0.060 -0.027
0.323 0.063 -0.027
0.323 0.066 -0.027
0.322 0.069 -0.027
0.321 0.072 -0.027
0.320 0.074 -0.027
0.319 0.077 -0.027
0.318 0.080 -0.027
0.317 0.082 -0.027
0.316 0.085 -0.027
0.314 0.088 -0.027
0.325 0.094 -0.028
0.327 0.097 -0.028
0.325 0.100 -0.028
0.318 0.101 -0.027
0.319 0.104 -0.028
0.314 0.106 -0.027
0.318 0.110 -0.028
0.343 0.122 -0.030
0.313 0.117 -0.027
0.322 0.127 -0.028
1.272 0.620 -0.112
1.262 0.629 -0.112
1.258 0.640 -0.112
1.260 0.655 -0.112
1.248 0.731 -0.112
1.253 0.748 -0.113
1.282 0.780 -0.116
1.286 0.797 -0.117
1.287 0.813 -0.117
1.284 0.826 -0.117
1.275 0.836 -0.117
1.291 0.861 -0.118
1.290 0.876 -0.119
1.282 0.887 -0.118
1.281 0.902 -0.118
1.279 0.916 -0.119
1.286 0.937 -0.120
1.287 0.955 -0.120
1.297 0.978 -0.121
1.284 0.986 -0.121
1.285 1.003 -0.121
0.413 0.450 -0.042
0.417 0.462 -0.043
0.508 0.591 -0.053
0.508 0.600 -0.054
0.504 0.606 -0.053
0.431 0.544 -0.046
0.267 -0.368 -0.026
0.197 -0.257 -0.019
0.193 -0.249 -0.018
0.192 -0.244 -0.018
0.187 -0.233 -0.017
0.182 -0.225 -0.017
0.177 -0.216 -0.016
0.178 -0.214 -0.016
0.186 -0.220 -0.017
0.194 -0.226 -0.018
0.199 -0.228 -0.018
0.205 -0.231 -0.019
0.283 -0.306 -0.025
0.292 -0.311 -0.026
0.298 -0.312 -0.026
0.296 -0.305 -0.026
0.301 -0.306 -0.027
0.302 -0.302 -0.026
0.298 -0.293 -0.026
0.294 -0.284 -0.026
0.297 -0.284 -0.026
0.300 -0.282 -0.026
0.306 -0.283 -0.026
0.310 -0.283 -0.027
0.304 -0.273 -0.026
0.299 -0.264 -0.025
0.302 -0.262 -0.026
0.303 -0.259 -0.026
0.304 -0.256 -0.026
0.299 -0.248 -0.025
0.298 -0.243 -0.025
0.211 -0.161 -0.017
0.217 -0.163 -0.018
0.211 -0.156 -0.017
0.208 -0.151 -0.017
0.206 -0.147 -0.017
0.209 -0.147 -0.017
0.210 -0.145 -0.017
0.217 -0.148 -0.018
0.215 -0.143 -0.017
0.215 -0.141 -0.017
0.213 -0.137 -0.017
0.207 -0.131 -0.017
0.208 -0.129 -0.017
0.210 -0.128 -0.017
0.218 -0.131 -0.017
0.217 -0.127 -0.017
0.216 -0.125 -0.017
0.217 -0.123 -0.017
0.210 -0.117 -0.017
0.213 -0.116 -0.017
0.217 -0.116 -0.017
0.214 -0.112 -0.017
0.216 -0.111 -0.017
0.216 -0.109 -0.017
0.217 -0.107 -0.017
0.213 -0.103 -0.017
0.216 -0.102 -0.017
0.221 -0.102 -0.017
0.223 -0.101 -0.017
0.225 -0.100 -0.018
0.227 -0.098 -0.018
0.232 -0.098 -0.018
0.229 -0.094 -0.018
0.226 -0.091 -0.017
0.222 -0.087 -0.017
0.213 -0.082 -0.016
0.223 -0.083 -0.017
0.238 -0.087 -0.018
0.243 -0.086 -0.019
0.238 -0.082 -0.018
0.236 -0.079 -0.018
0.246 -0.080 -0.019
0.256 -0.081 -0.020
0.259 -0.079 -0.020
0.272 -0.081 -0.021
0.390 -0.108 -0.030
0.394 -0.106 -0.030
0.401 -0.104 -0.030
0.412 -0.103 -0.031
0.431 -0.104 -0.033
0.433 -0.100 -0.033
0.427 -0.095 -0.032
0.410 -0.087 -0.031
0.397 -0.081 -0.030
0.375 -0.073 -0.028
0.367 -0.068 -0.028
0.289 -0.051 -0.022
0.287 -0.048 -0.022
0.286 -0.045 -0.022
0.298 -0.044 -0.023
0.296 -0.041 -0.022
0.281 -0.037 -0.021
0.283 -0.035 -0.021
0.291 -0.033 -0.022
0.300 -0.031 -0.023
0.303 -0.029 -0.023
0.297 -0.025 -0.022
0.301 -0.023 -0.023
0.300 -0.020 -0.023
0.301 -0.018 -0.023
0.308 -0.015 -0.023
0.310 -0.013 -0.023
0.300 -0.010 -0.023
0.303 -0.007 -0.023
0.306 -0.004 -0.023
0.309 -0.001 -0.023
0.311 0.001 -0.023
0.314 0.004 -0.024
0.317 0.007 -0.024
0.318 0.010 -0.024
0.317 0.013 -0.024
0.322 0.016 -0.024
0.318 0.019 -0.024
0.321 0.022 -0.024
0.319 0.024 -0.024
0.319 0.027 -0.024
0.319 0.030 -0.024
0.318 0.033 -0.024
0.318 0.036 -0.024
0.319 0.039 -0.024
0.320 0.042 -0.024
0.322 0.045 -0.024
0.322 0.048 -0.024
0.323 0.051 -0.024
0.323 0.054 -0.024
0.322 0.057 -0.024
0.323 0.060 -0.025
0.323 0.063 -0.024
0.322 0.066 -0.024
0.321 0.068 -0.024
0.320 0.071 -0.024
0.319 0.074 -0.024
0.318 0.077 -0.024
0.317 0.080 -0.024
0.316 0.082 -0.024
0.315 0.085 -0.024
0.317 0.088 -0.024
0.319 0.092 -0.024
0.323 0.096 -0.025
0.325 0.100 -0.025
0.331 0.105 -0.025
0.315 0.103 -0.024
0.318 0.107 -0.025
0.311 0.108 -0.024
0.357 0.131 -0.028
0.343 0.129 -0.027
0.311 0.120 -0.024
0.318 0.126 -0.025
1.277 0.623 -0.101
1.275 0.635 -0.101
1.266 0.644 -0.100
1.260 0.655 -0.100
1.259 0.668 -0.100
1.291 0.785 -0.104
1.298 0.805 -0.105
1.290 0.814 -0.105
1.274 0.819 -0.104
1.274 0.834 -0.104
1.285 0.857 -0.105
1.291 0.877 -0.106
1.290 0.891 -0.106
1.291 0.908 -0.106
1.299 0.930 -0.107
1.303 0.949 -0.108
1.307 0.969 -0.109
0.514 0.598 -0.048
0.509 0.601 -0.048
0.504 0.606 -0.048
0.471 0.584 -0.045
0.408 0.522 -0.039
0.413 0.537 -0.040
0.249 -0.343 -0.021
0.196 -0.259 -0.016
0.194 -0.253 -0.016
0.193 -0.248 -0.016
0.184 -0.234 -0.015
0.178 -0.222 -0.015
0.177 -0.218 -0.014
0.180 -0.218 -0.015
0.185 -0.222 -0.015
0.197 -0.233 -0.016
0.206 -0.239 -0.017
0.235 -0.265 -0.019
0.278 -0.305 -0.022
0.289 -0.311 -0.023
0.296 -0.314 -0.023
0.297 -0.310 -0.023
0.301 -0.311 -0.023
0.298 -0.302 -0.023
0.293 -0.293 -0.023
0.290 -0.285 -0.022
0.289 -0.280 -0.022
0.291 -0.278 -0.022
0.299 -0.281 -0.023
0.306 -0.283 -0.023
0.309 -0.281 -0.023
0.295 -0.265 -0.022
0.300 -0.264 -0.022
0.297 -0.258 -0.022
0.300 -0.257 -0.022
0.297 -0.250 -0.022
0.297 -0.246 -0.022
0.288 -0.235 -0.021
0.231 -0.182 -0.017
0.218 -0.170 -0.016
0.207 -0.158 -0.015
0.216 -0.163 -0.016
0.212 -0.157 -0.015
0.207 -0.150 -0.015
0.208 -0.149 -0.015
0.205 -0.144 -0.015
0.212 -0.147 -0.015
0.217 -0.147 -0.015
0.223 -0.149 -0.016
0.218 -0.143 -0.015
0.217 -0.140 -0.015
0.220 -0.140 -0.016
0.210 -0.130 -0.015
0.217 -0.133 -0.015
0.212 -0.127 -0.015
0.216 -0.127 -0.015
0.221 -0.128 -0.015
0.215 -0.122 -0.015
0.208 -0.116 -0.015
0.197 -0.107 -0.014
0.205 -0.110 -0.014
0.213 -0.111 -0.015
0.202 -0.104 -0.014
0.217 -0.109 -0.015
0.203 -0.100 -0.014
0.208 -0.100 -0.014
0.218 -0.103 -0.015
0.221 -0.102 -0.015
0.222 -0.100 -0.015
0.222 -0.098 -0.015
0.225 -0.097 -0.015
0.232 -0.098 -0.016
0.228 -0.094 -0.016
0.221 -0.089 -0.015
0.219 -0.086 -0.015
0.219 -0.084 -0.015
0.216 -0.081 -0.015
0.237 -0.086 -0.016
0.248 -0.088 -0.017
0.243 -0.083 -0.016
0.240 -0.080 -0.016
0.246 -0.080 -0.017
0.256 -0.081 -0.017
0.266 -0.081 -0.018
0.279 -0.083 -0.019
0.296 -0.085 -0.020
0.398 -0.111 -0.027
0.399 -0.107 -0.027
0.404 -0.105 -0.027
0.410 -0.102 -0.027
0.421 -0.101 -0.028
0.430 -0.100 -0.029
0.424 -0.094 -0.028
0.410 -0.087 -0.027
0.396 -0.081 -0.026
0.389 -0.076 -0.026
0.294 -0.052 -0.020
0.289 -0.048 -0.019
0.287 -0.045 -0.019
0.293 -0.044 -0.019
0.293 -0.041 -0.019
0.288 -0.038 -0.019
0.280 -0.034 -0.019
0.288 -0.033 -0.019
0.304 -0.032 -0.020
0.308 -0.029 -0.020
0.305 -0.026 -0.020
0.305 -0.023 -0.020
0.308 -0.021 -0.020
0.299 -0.018 -0.020
0.303 -0.015 -0.020
0.307 -0.013 -0.020
0.305 -0.010 -0.020
0.302 -0.007 -0.020
0.303 -0.004 -0.020
0.308 -0.001 -0.020
0.309 0.001 -0.021
0.311 0.004 -0.021
0.315 0.007 -0.021
0.316 0.010 -0.021
0.317 0.013 -0.021
0.317 0.016 -0.021
0.324 0.019 -0.022
0.320 0.022 -0.021
0.321 0.024 -0.021
0.320 0.027 -0.021
0.320 0.030 -0.021
0.320 0.033 -0.021
0.320 0.036 -0.021
0.320 0.039 -0.021
0.322 0.042 -0.021
0.322 0.045 -0.021
0.323 0.048 -0.022
0.322 0.051 -0.021
0.328 0.055 -0.022
0.323 0.057 -0.022
0.322 0.060 -0.022
0.322 0.063 -0.022
0.321 0.066 -0.021
0.321 0.068 -0.021
0.320 0.071 -0.021
0.319 0.074 -0.021
0.318 0.077 -0.021
0.317 0.079 -0.021
0.316 0.082 -0.021
0.316 0.085 -0.021
0.319 0.089 -0.021
0.318 0.092 -0.021
0.315 0.094 -0.021
