VERSION .7
FIELDS x y z
SIZE 4 4 4
TYPE F F F
COUNT 1 1 1
WIDTH     2434
HEIGHT 1
VIEWPOINT 0 0 0 1 0 0 0
POINTS     2434
DATA ascii
0.259 0.199 -0.129
0.255 0.200 -0.128
0.249 0.199 -0.125
0.245 0.198 -0.124
0.236 0.195 -0.120
0.224 0.188 -0.114
0.222 0.190 -0.114
0.220 0.191 -0.113
0.215 0.191 -0.111
0.215 0.194 -0.112
0.215 0.198 -0.112
0.218 0.203 -0.114
0.217 0.206 -0.114
0.215 0.207 -0.114
0.215 0.211 -0.114
0.214 0.214 -0.115
0.223 0.226 -0.120
0.230 0.238 -0.124
0.216 0.239 -0.119
0.212 0.238 -0.118
0.208 0.237 -0.116
0.198 0.230 -0.111
0.200 0.235 -0.113
0.215 0.257 -0.122
0.178 0.222 -0.102
0.177 0.225 -0.102
0.326 -0.288 -0.162
0.330 -0.286 -0.163
0.329 -0.282 -0.162
0.329 -0.276 -0.161
0.332 -0.275 -0.162
0.335 -0.273 -0.163
0.334 -0.267 -0.162
0.329 -0.259 -0.159
0.327 -0.253 -0.157
0.326 -0.248 -0.156
0.327 -0.245 -0.156
0.326 -0.240 -0.155
0.322 -0.233 -0.153
0.317 -0.225 -0.150
0.317 -0.221 -0.150
0.316 -0.217 -0.149
0.312 -0.210 -0.147
0.217 -0.138 -0.101
0.208 -0.130 -0.097
0.208 -0.128 -0.097
0.211 -0.127 -0.097
0.307 -0.178 -0.141
0.309 -0.175 -0.141
0.308 -0.171 -0.141
0.306 -0.167 -0.140
0.308 -0.165 -0.140
0.310 -0.162 -0.141
0.312 -0.160 -0.141
0.314 -0.157 -0.142
0.318 -0.156 -0.143
0.322 -0.155 -0.145
0.327 -0.154 -0.147
0.332 -0.153 -0.149
0.335 -0.150 -0.150
0.335 -0.147 -0.150
0.295 -0.114 -0.131
0.364 -0.137 -0.161
0.365 -0.134 -0.161
0.368 -0.131 -0.163
0.377 -0.131 -0.166
0.378 -0.127 -0.167
1.331 -0.422 -0.585
1.316 -0.404 -0.577
1.315 -0.391 -0.576
1.316 -0.378 -0.576
1.309 -0.364 -0.572
1.304 -0.350 -0.570
1.303 -0.337 -0.569
0.295 -0.054 -0.128
0.293 -0.051 -0.127
0.292 -0.048 -0.127
0.297 -0.046 -0.129
0.308 -0.044 -0.133
0.307 -0.041 -0.133
0.303 -0.038 -0.131
0.303 -0.035 -0.131
0.304 -0.032 -0.131
0.310 -0.030 -0.134
0.296 -0.026 -0.128
0.298 -0.023 -0.129
0.312 -0.022 -0.135
0.325 -0.020 -0.140
0.324 -0.016 -0.140
0.320 -0.013 -0.138
0.306 -0.010 -0.132
0.295 -0.007 -0.127
0.298 -0.004 -0.128
0.293 -0.001 -0.126
0.294 0.001 -0.127
0.299 0.004 -0.129
0.302 0.007 -0.130
0.317 0.010 -0.137
0.306 0.016 -0.132
0.294 0.018 -0.127
0.299 0.021 -0.129
0.331 0.033 -0.143
0.330 0.036 -0.143
0.305 0.039 -0.132
0.321 0.044 -0.139
0.326 0.050 -0.141
0.316 0.052 -0.137
0.316 0.067 -0.138
0.325 0.072 -0.142
0.338 0.078 -0.148
0.339 0.082 -0.148
0.325 0.081 -0.142
0.311 0.081 -0.136
0.305 0.082 -0.134
0.311 0.093 -0.137
0.322 0.109 -0.142
0.348 0.151 -0.157
0.291 0.182 -0.137
0.275 0.179 -0.130
0.268 0.178 -0.127
0.263 0.178 -0.125
0.261 0.180 -0.125
0.255 0.179 -0.122
0.252 0.180 -0.121
0.246 0.179 -0.119
0.242 0.179 -0.117
0.258 0.195 -0.125
0.263 0.202 -0.128
0.261 0.204 -0.128
0.251 0.200 -0.124
0.245 0.198 -0.121
0.238 0.196 -0.118
0.227 0.190 -0.113
0.224 0.191 -0.112
0.222 0.193 -0.112
0.219 0.194 -0.111
0.217 0.195 -0.110
0.216 0.197 -0.110
0.219 0.204 -0.112
0.219 0.207 -0.113
0.216 0.208 -0.112
0.224 0.220 -0.117
0.213 0.212 -0.111
0.213 0.216 -0.112
0.218 0.225 -0.115
0.220 0.235 -0.118
0.217 0.235 -0.116
0.210 0.231 -0.113
0.216 0.241 -0.117
0.205 0.237 -0.112
0.215 0.257 -0.119
0.184 0.230 -0.103
0.187 0.237 -0.105
0.197 0.253 -0.112
0.327 -0.307 -0.161
0.333 -0.308 -0.164
0.336 -0.306 -0.164
0.333 -0.299 -0.162
0.330 -0.291 -0.160
0.331 -0.287 -0.160
0.328 -0.280 -0.158
0.330 -0.277 -0.158
0.334 -0.276 -0.159
0.333 -0.270 -0.158
0.329 -0.263 -0.156
0.329 -0.258 -0.155
0.327 -0.253 -0.154
0.325 -0.246 -0.152
0.324 -0.242 -0.151
0.323 -0.237 -0.150
0.317 -0.229 -0.147
0.315 -0.223 -0.146
0.316 -0.220 -0.146
0.316 -0.216 -0.145
0.313 -0.210 -0.144
0.216 -0.137 -0.098
0.208 -0.130 -0.094
0.209 -0.128 -0.095
0.210 -0.126 -0.095
0.303 -0.175 -0.136
0.306 -0.173 -0.137
0.305 -0.169 -0.136
0.305 -0.166 -0.136
0.307 -0.164 -0.136
0.310 -0.162 -0.137
0.311 -0.159 -0.138
0.313 -0.157 -0.138
0.318 -0.156 -0.140
0.321 -0.154 -0.141
0.324 -0.152 -0.142
0.329 -0.151 -0.144
0.332 -0.149 -0.145
0.333 -0.146 -0.145
0.335 -0.140 -0.146
0.305 -0.118 -0.132
0.361 -0.136 -0.156
0.363 -0.133 -0.157
0.372 -0.132 -0.160
0.376 -0.130 -0.162
0.380 -0.128 -0.163
0.387 -0.126 -0.166
0.387 -0.123 -0.166
1.319 -0.404 -0.565
1.317 -0.391 -0.564
1.321 -0.379 -0.565
1.309 -0.363 -0.559
1.305 -0.349 -0.557
1.314 -0.339 -0.560
0.304 -0.055 -0.129
0.290 -0.050 -0.123
0.292 -0.048 -0.124
0.289 -0.044 -0.122
0.289 -0.042 -0.122
0.298 -0.040 -0.126
0.294 -0.037 -0.124
0.294 -0.034 -0.124
0.310 -0.033 -0.131
0.311 -0.030 -0.131
0.299 -0.026 -0.126
0.292 -0.023 -0.123
0.306 -0.021 -0.129
0.313 -0.019 -0.132
0.330 -0.017 -0.139
0.326 -0.014 -0.137
0.311 -0.010 -0.131
0.300 -0.007 -0.127
0.291 -0.004 -0.123
0.291 -0.001 -0.122
0.293 0.001 -0.123
0.300 0.004 -0.127
0.308 0.007 -0.130
0.307 0.010 -0.129
0.315 0.013 -0.133
0.303 0.018 -0.128
0.315 0.022 -0.133
0.335 0.027 -0.141
0.322 0.029 -0.136
0.336 0.036 -0.142
0.305 0.050 -0.129
0.308 0.065 -0.131
0.323 0.071 -0.137
0.334 0.077 -0.143
0.339 0.082 -0.145
0.320 0.080 -0.137
0.303 0.079 -0.130
0.292 0.079 -0.125
0.322 0.090 -0.138
0.309 0.090 -0.133
0.323 0.103 -0.139
0.335 0.110 -0.145
0.340 0.115 -0.147
0.364 0.157 -0.160
0.297 0.164 -0.134
0.285 0.161 -0.129
0.277 0.159 -0.125
0.275 0.162 -0.125
0.273 0.164 -0.124
0.276 0.169 -0.126
0.282 0.176 -0.129
0.268 0.171 -0.123
0.268 0.174 -0.124
0.269 0.178 -0.124
0.263 0.177 -0.122
0.258 0.177 -0.120
0.260 0.182 -0.122
0.255 0.182 -0.119
0.250 0.181 -0.118
0.242 0.179 -0.114
0.270 0.203 -0.128
0.276 0.211 -0.131
0.268 0.209 -0.128
0.257 0.204 -0.123
0.246 0.199 -0.118
0.237 0.195 -0.115
0.230 0.192 -0.111
0.226 0.192 -0.110
0.224 0.194 -0.110
0.225 0.198 -0.111
0.225 0.202 -0.111
0.221 0.202 -0.110
0.225 0.209 -0.113
0.227 0.214 -0.114
0.227 0.218 -0.114
0.228 0.226 -0.116
0.215 0.217 -0.110
0.210 0.215 -0.108
0.233 0.247 -0.121
0.219 0.245 -0.116
0.211 0.240 -0.112
0.207 0.239 -0.111
0.213 0.250 -0.115
0.323 -0.332 -0.159
0.332 -0.337 -0.163
0.336 -0.335 -0.164
0.334 -0.329 -0.163
0.335 -0.324 -0.162
0.335 -0.319 -0.162
0.331 -0.311 -0.159
0.333 -0.308 -0.160
0.334 -0.303 -0.159
0.332 -0.297 -0.158
0.331 -0.291 -0.157
0.327 -0.283 -0.154
0.325 -0.277 -0.153
0.329 -0.276 -0.154
0.330 -0.272 -0.154
0.329 -0.266 -0.152
0.326 -0.260 -0.151
0.326 -0.256 -0.150
0.325 -0.251 -0.149
0.319 -0.241 -0.146
0.320 -0.238 -0.146
0.316 -0.231 -0.144
0.312 -0.225 -0.141
0.314 -0.222 -0.142
0.316 -0.219 -0.142
0.314 -0.214 -0.141
0.312 -0.209 -0.139
0.208 -0.129 -0.092
0.209 -0.128 -0.092
0.212 -0.127 -0.093
0.300 -0.173 -0.131
0.300 -0.170 -0.131
0.302 -0.168 -0.132
0.304 -0.165 -0.132
0.306 -0.163 -0.133
0.309 -0.161 -0.134
0.312 -0.159 -0.135
0.314 -0.157 -0.136
0.317 -0.155 -0.136
0.321 -0.154 -0.138
0.323 -0.151 -0.138
0.326 -0.149 -0.140
0.330 -0.147 -0.141
0.328 -0.143 -0.140
0.292 -0.115 -0.123
0.359 -0.135 -0.152
0.364 -0.133 -0.153
0.372 -0.132 -0.157
0.377 -0.130 -0.159
0.384 -0.129 -0.161
0.390 -0.127 -0.163
0.396 -0.125 -0.166
0.401 -0.123 -0.168
1.313 -0.389 -0.549
1.315 -0.377 -0.549
1.325 -0.367 -0.553
1.325 -0.354 -0.552
1.299 -0.335 -0.541
0.347 -0.069 -0.144
0.302 -0.055 -0.125
0.296 -0.051 -0.122
0.293 -0.048 -0.121
0.291 -0.045 -0.120
0.286 -0.041 -0.118
0.287 -0.039 -0.118
0.290 -0.036 -0.120
0.290 -0.034 -0.120
0.299 -0.032 -0.123
0.304 -0.030 -0.125
0.294 -0.026 -0.121
0.285 -0.022 -0.117
0.293 -0.020 -0.121
0.307 -0.018 -0.126
0.320 -0.016 -0.132
0.319 -0.013 -0.131
0.314 -0.010 -0.129
0.308 -0.007 -0.127
0.304 -0.004 -0.125
0.298 -0.001 -0.122
0.304 0.001 -0.125
0.308 0.004 -0.127
0.311 0.007 -0.128
0.316 0.010 -0.130
0.317 0.013 -0.131
0.312 0.016 -0.128
0.318 0.019 -0.131
0.338 0.024 -0.139
0.329 0.026 -0.136
0.339 0.036 -0.140
0.335 0.042 -0.138
0.287 0.044 -0.119
0.282 0.046 -0.117
0.293 0.051 -0.121
0.324 0.059 -0.134
0.311 0.060 -0.129
0.304 0.061 -0.126
0.301 0.066 -0.125
0.314 0.072 -0.131
0.319 0.077 -0.133
0.321 0.080 -0.134
0.305 0.079 -0.128
0.300 0.081 -0.126
0.321 0.090 -0.135
0.322 0.093 -0.135
0.309 0.093 -0.130
0.319 0.099 -0.134
0.326 0.104 -0.137
0.336 0.114 -0.142
0.332 0.116 -0.140
0.301 0.149 -0.131
0.297 0.151 -0.129
0.291 0.151 -0.127
0.288 0.153 -0.126
0.292 0.158 -0.128
0.287 0.159 -0.126
0.279 0.158 -0.123
0.274 0.158 -0.121
0.273 0.160 -0.121
0.274 0.164 -0.122
0.274 0.167 -0.122
0.271 0.169 -0.121
0.268 0.170 -0.120
0.277 0.179 -0.125
0.271 0.179 -0.122
0.262 0.176 -0.119
0.267 0.183 -0.121
0.263 0.183 -0.120
0.261 0.186 -0.119
0.258 0.186 -0.118
0.248 0.183 -0.114
0.267 0.201 -0.124
0.276 0.211 -0.128
0.266 0.211 -0.125
0.262 0.215 -0.123
0.233 0.194 -0.110
0.229 0.195 -0.109
0.228 0.197 -0.109
0.229 0.201 -0.110
0.233 0.208 -0.112
0.241 0.226 -0.118
0.227 0.217 -0.112
0.222 0.216 -0.110
0.225 0.223 -0.112
0.222 0.227 -0.111
0.325 -0.360 -0.160
0.327 -0.358 -0.161
0.327 -0.352 -0.160
0.329 -0.348 -0.160
0.330 -0.344 -0.159
0.331 -0.340 -0.159
0.333 -0.337 -0.160
0.335 -0.334 -0.160
0.335 -0.329 -0.159
0.330 -0.319 -0.156
0.327 -0.311 -0.154
0.328 -0.307 -0.154
0.330 -0.304 -0.154
0.330 -0.299 -0.154
0.328 -0.293 -0.152
0.326 -0.286 -0.151
0.326 -0.281 -0.150
0.325 -0.276 -0.149
0.322 -0.270 -0.147
0.324 -0.266 -0.147
0.323 -0.261 -0.146
0.323 -0.257 -0.146
0.323 -0.253 -0.145
0.317 -0.244 -0.142
0.318 -0.240 -0.142
0.315 -0.234 -0.140
0.312 -0.228 -0.138
0.310 -0.222 -0.137
0.312 -0.220 -0.138
0.313 -0.217 -0.137
0.310 -0.211 -0.136
0.307 -0.206 -0.134
0.209 -0.130 -0.090
0.207 -0.127 -0.089
0.206 -0.123 -0.089
0.219 -0.128 -0.094
0.295 -0.170 -0.126
0.298 -0.168 -0.127
0.298 -0.165 -0.127
0.300 -0.163 -0.127
0.302 -0.161 -0.128
0.304 -0.158 -0.129
0.312 -0.159 -0.132
0.314 -0.157 -0.132
0.319 -0.156 -0.134
0.320 -0.153 -0.134
0.323 -0.151 -0.135
0.327 -0.149 -0.136
0.329 -0.147 -0.137
0.328 -0.143 -0.136
0.357 -0.134 -0.147
0.361 -0.132 -0.149
0.366 -0.130 -0.150
0.373 -0.129 -0.153
0.383 -0.128 -0.157
0.391 -0.127 -0.160
0.392 -0.124 -0.160
0.399 -0.122 -0.163
1.312 -0.375 -0.534
1.322 -0.365 -0.538
1.318 -0.352 -0.536
1.305 -0.336 -0.530
0.340 -0.068 -0.137
0.308 -0.056 -0.124
0.294 -0.051 -0.119
0.291 -0.047 -0.117
0.291 -0.044 -0.117
0.291 -0.042 -0.117
0.292 -0.039 -0.117
0.295 -0.037 -0.119
0.295 -0.034 -0.119
0.295 -0.031 -0.119
0.301 -0.029 -0.121
0.295 -0.026 -0.118
0.306 -0.024 -0.123
0.305 -0.021 -0.122
0.302 -0.018 -0.121
0.300 -0.015 -0.120
0.310 -0.013 -0.124
0.321 -0.010 -0.129
0.322 -0.007 -0.129
0.315 -0.004 -0.126
0.317 -0.001 -0.127
0.312 0.002 -0.125
0.317 0.004 -0.127
0.326 0.008 -0.131
0.325 0.011 -0.131
0.316 0.013 -0.127
0.332 0.020 -0.134
0.337 0.023 -0.135
0.308 0.024 -0.124
0.303 0.027 -0.122
0.305 0.030 -0.123
0.315 0.034 -0.127
0.328 0.044 -0.132
0.293 0.051 -0.118
0.300 0.055 -0.121
0.310 0.063 -0.126
0.297 0.063 -0.120
0.292 0.064 -0.119
0.303 0.070 -0.123
0.315 0.076 -0.128
0.323 0.081 -0.131
0.342 0.089 -0.139
0.335 0.090 -0.137
0.311 0.087 -0.127
0.322 0.093 -0.132
0.322 0.096 -0.132
0.327 0.101 -0.134
0.328 0.104 -0.135
0.326 0.114 -0.135
0.317 0.137 -0.133
0.327 0.144 -0.137
0.329 0.149 -0.138
0.285 0.135 -0.120
0.291 0.141 -0.123
0.293 0.145 -0.124
0.292 0.148 -0.124
0.291 0.151 -0.124
0.289 0.153 -0.123
0.290 0.157 -0.124
0.293 0.161 -0.125
0.284 0.160 -0.122
0.278 0.160 -0.120
0.274 0.161 -0.119
0.275 0.164 -0.119
0.277 0.169 -0.120
0.274 0.170 -0.119
0.280 0.177 -0.122
0.283 0.182 -0.124
0.276 0.182 -0.121
0.281 0.188 -0.124
0.267 0.183 -0.118
0.268 0.186 -0.119
0.270 0.191 -0.120
0.265 0.191 -0.119
0.258 0.190 -0.116
0.259 0.194 -0.117
0.271 0.222 -0.125
0.247 0.205 -0.114
0.237 0.201 -0.110
0.237 0.204 -0.110
0.236 0.206 -0.110
0.237 0.212 -0.112
0.232 0.221 -0.111
0.223 0.216 -0.107
0.229 0.226 -0.111
0.324 -0.375 -0.158
0.330 -0.376 -0.160
0.340 -0.382 -0.164
0.328 -0.364 -0.158
0.329 -0.359 -0.158
0.334 -0.359 -0.159
0.331 -0.351 -0.157
0.334 -0.348 -0.158
0.332 -0.340 -0.156
0.332 -0.336 -0.155
0.333 -0.332 -0.155
0.330 -0.323 -0.153
0.327 -0.315 -0.151
0.325 -0.308 -0.149
0.326 -0.304 -0.149
0.327 -0.301 -0.149
0.328 -0.297 -0.149
0.327 -0.291 -0.147
0.323 -0.283 -0.145
0.314 -0.271 -0.141
0.318 -0.269 -0.142
0.321 -0.268 -0.143
0.322 -0.264 -0.143
0.322 -0.260 -0.142
0.321 -0.255 -0.141
0.319 -0.249 -0.140
0.319 -0.245 -0.139
0.318 -0.240 -0.138
0.316 -0.235 -0.137
0.311 -0.226 -0.134
0.310 -0.222 -0.134
0.311 -0.219 -0.134
0.311 -0.215 -0.133
0.307 -0.209 -0.131
0.301 -0.201 -0.128
0.297 -0.195 -0.126
0.286 -0.184 -0.121
0.212 -0.131 -0.089
0.207 -0.126 -0.087
0.208 -0.124 -0.087
0.210 -0.123 -0.088
0.299 -0.159 -0.124
0.301 -0.156 -0.124
0.310 -0.158 -0.128
0.314 -0.156 -0.129
0.317 -0.154 -0.130
0.320 -0.152 -0.131
0.322 -0.150 -0.131
0.328 -0.149 -0.133
0.329 -0.147 -0.134
0.329 -0.143 -0.134
0.357 -0.134 -0.143
0.359 -0.131 -0.144
0.364 -0.129 -0.146
0.370 -0.128 -0.148
0.379 -0.127 -0.152
0.384 -0.125 -0.153
0.391 -0.123 -0.156
0.390 -0.119 -0.156
0.390 -0.115 -0.155
1.302 -0.359 -0.517
1.301 -0.347 -0.516
1.295 -0.333 -0.513
0.308 -0.056 -0.121
0.297 -0.051 -0.117
0.289 -0.047 -0.114
0.287 -0.044 -0.113
0.293 -0.042 -0.115
0.298 -0.040 -0.117
0.297 -0.037 -0.117
0.298 -0.034 -0.117
0.298 -0.032 -0.117
0.295 -0.029 -0.116
0.302 -0.027 -0.119
0.305 -0.024 -0.120
0.311 -0.022 -0.122
0.306 -0.018 -0.120
0.300 -0.015 -0.117
0.320 -0.013 -0.125
0.320 -0.010 -0.125
0.320 -0.007 -0.125
0.320 -0.004 -0.125
0.317 -0.001 -0.124
0.321 0.002 -0.126
0.334 0.005 -0.131
0.331 0.008 -0.130
0.319 0.010 -0.125
0.315 0.013 -0.123
0.322 0.016 -0.126
0.306 0.024 -0.120
0.299 0.029 -0.117
0.302 0.035 -0.119
0.313 0.039 -0.123
0.316 0.043 -0.124
0.321 0.046 -0.126
0.308 0.047 -0.121
0.293 0.048 -0.116
0.287 0.050 -0.113
0.286 0.052 -0.113
0.297 0.057 -0.118
0.310 0.062 -0.123
0.306 0.065 -0.121
0.307 0.068 -0.122
0.309 0.071 -0.123
0.317 0.076 -0.126
0.332 0.083 -0.132
0.327 0.085 -0.130
0.321 0.086 -0.128
0.334 0.099 -0.133
0.301 0.096 -0.121
0.293 0.096 -0.118
0.296 0.100 -0.119
0.306 0.106 -0.123
0.314 0.112 -0.126
0.318 0.117 -0.128
0.311 0.121 -0.126
0.307 0.122 -0.125
0.302 0.124 -0.123
0.308 0.129 -0.125
0.303 0.130 -0.123
0.319 0.141 -0.130
0.319 0.144 -0.130
0.311 0.143 -0.127
0.303 0.143 -0.125
0.301 0.145 -0.124
0.298 0.148 -0.123
0.297 0.150 -0.123
0.294 0.152 -0.122
0.294 0.155 -0.122
0.293 0.158 -0.122
0.294 0.162 -0.123
0.295 0.166 -0.124
0.293 0.168 -0.123
0.288 0.168 -0.121
0.281 0.168 -0.119
0.278 0.169 -0.118
0.290 0.183 -0.124
0.286 0.184 -0.122
0.288 0.189 -0.123
0.284 0.190 -0.122
0.336 -0.406 -0.162
0.337 -0.401 -0.162
0.334 -0.392 -0.159
0.331 -0.382 -0.157
0.339 -0.386 -0.160
0.339 -0.381 -0.160
0.335 -0.370 -0.157
0.329 -0.358 -0.153
0.328 -0.351 -0.152
0.332 -0.351 -0.153
0.329 -0.342 -0.151
0.327 -0.334 -0.149
0.329 -0.332 -0.150
0.331 -0.328 -0.150
0.326 -0.319 -0.147
0.327 -0.315 -0.147
0.326 -0.309 -0.146
0.325 -0.303 -0.145
0.326 -0.299 -0.145
0.326 -0.294 -0.144
0.325 -0.289 -0.143
0.316 -0.276 -0.138
0.318 -0.273 -0.139
0.317 -0.268 -0.138
0.321 -0.267 -0.139
0.322 -0.264 -0.139
0.321 -0.259 -0.138
0.320 -0.253 -0.137
0.320 -0.249 -0.136
0.319 -0.244 -0.136
0.318 -0.239 -0.135
0.314 -0.233 -0.133
0.312 -0.227 -0.131
0.310 -0.222 -0.130
0.309 -0.217 -0.129
0.307 -0.212 -0.128
0.304 -0.206 -0.127
0.302 -0.201 -0.125
0.300 -0.196 -0.124
0.216 -0.134 -0.089
0.207 -0.126 -0.085
0.208 -0.124 -0.085
0.211 -0.123 -0.086
0.222 -0.128 -0.090
0.243 -0.134 -0.098
0.244 -0.132 -0.098
0.304 -0.158 -0.122
0.308 -0.157 -0.124
0.313 -0.156 -0.125
0.315 -0.153 -0.126
0.318 -0.151 -0.127
0.321 -0.149 -0.127
0.323 -0.147 -0.128
0.327 -0.145 -0.129
0.332 -0.144 -0.131
0.336 -0.139 -0.132
0.358 -0.134 -0.140
0.359 -0.130 -0.140
0.362 -0.128 -0.142
0.372 -0.128 -0.145
0.377 -0.126 -0.147
0.384 -0.125 -0.149
0.387 -0.122 -0.150
0.391 -0.119 -0.152
0.396 -0.117 -0.154
0.406 -0.116 -0.157
0.365 -0.076 -0.140
0.372 -0.074 -0.143
0.307 -0.056 -0.118
0.297 -0.051 -0.114
0.295 -0.048 -0.113
0.295 -0.045 -0.113
0.300 -0.043 -0.115
0.303 -0.041 -0.116
0.301 -0.038 -0.115
0.301 -0.035 -0.115
0.296 -0.031 -0.113
0.295 -0.029 -0.113
0.292 -0.026 -0.112
0.302 -0.024 -0.115
0.307 -0.021 -0.117
0.308 -0.018 -0.118
0.302 -0.015 -0.115
0.310 -0.013 -0.118
0.321 -0.010 -0.122
0.318 -0.007 -0.121
0.312 -0.004 -0.119
0.313 -0.001 -0.120
0.333 0.002 -0.127
0.333 0.005 -0.127
0.321 0.007 -0.123
0.314 0.010 -0.120
0.307 0.013 -0.117
0.306 0.016 -0.117
0.307 0.024 -0.118
0.304 0.027 -0.116
0.304 0.030 -0.116
0.311 0.033 -0.119
0.305 0.035 -0.117
0.306 0.038 -0.117
0.309 0.042 -0.119
0.312 0.048 -0.120
0.300 0.052 -0.115
0.293 0.053 -0.113
0.298 0.057 -0.115
0.327 0.072 -0.126
0.322 0.074 -0.125
0.320 0.077 -0.124
0.326 0.081 -0.126
0.318 0.082 -0.123
0.312 0.084 -0.121
0.314 0.087 -0.122
0.350 0.101 -0.136
0.343 0.102 -0.134
0.304 0.097 -0.119
0.295 0.096 -0.115
0.293 0.099 -0.115
0.319 0.114 -0.125
0.332 0.125 -0.131
0.327 0.127 -0.129
0.317 0.126 -0.125
0.315 0.128 -0.125
0.314 0.132 -0.125
0.316 0.136 -0.126
0.314 0.138 -0.125
0.314 0.141 -0.125
0.307 0.142 -0.123
0.307 0.145 -0.123
0.306 0.148 -0.123
0.307 0.151 -0.123
0.300 0.151 -0.121
0.297 0.153 -0.120
0.295 0.155 -0.119
0.297 0.160 -0.121
0.300 0.165 -0.122
0.302 0.169 -0.123
0.300 0.171 -0.123
0.296 0.173 -0.122
0.293 0.174 -0.121
0.291 0.177 -0.120
0.326 -0.426 -0.156
0.335 -0.432 -0.160
0.331 -0.421 -0.158
0.334 -0.419 -0.158
0.334 -0.402 -0.157
0.337 -0.400 -0.157
0.336 -0.393 -0.156
0.335 -0.386 -0.155
0.335 -0.381 -0.154
0.339 -0.379 -0.155
0.336 -0.371 -0.153
0.331 -0.360 -0.150
0.329 -0.352 -0.149
0.327 -0.345 -0.147
0.325 -0.338 -0.146
0.324 -0.331 -0.144
0.325 -0.327 -0.144
0.327 -0.324 -0.144
0.330 -0.322 -0.145
0.324 -0.311 -0.142
0.324 -0.306 -0.141
0.323 -0.300 -0.140
0.322 -0.295 -0.139
0.322 -0.290 -0.138
0.318 -0.282 -0.136
0.317 -0.277 -0.135
0.317 -0.272 -0.135
0.319 -0.269 -0.135
0.318 -0.265 -0.134
0.319 -0.260 -0.134
0.313 -0.252 -0.131
0.318 -0.252 -0.133
0.320 -0.249 -0.133
0.314 -0.240 -0.130
0.313 -0.235 -0.129
0.311 -0.230 -0.128
0.311 -0.226 -0.127
0.308 -0.220 -0.126
0.306 -0.214 -0.125
0.304 -0.210 -0.124
0.303 -0.205 -0.123
0.301 -0.200 -0.122
0.300 -0.196 -0.121
0.219 -0.135 -0.087
0.208 -0.126 -0.083
0.208 -0.124 -0.083
0.209 -0.122 -0.083
0.218 -0.125 -0.086
0.256 -0.144 -0.101
0.243 -0.134 -0.096
0.244 -0.132 -0.096
0.245 -0.130 -0.096
0.309 -0.157 -0.121
0.311 -0.155 -0.121
0.314 -0.153 -0.122
0.317 -0.151 -0.123
0.321 -0.149 -0.124
0.322 -0.147 -0.125
0.324 -0.144 -0.125
0.322 -0.140 -0.124
0.346 -0.143 -0.133
0.356 -0.133 -0.136
0.359 -0.131 -0.137
0.365 -0.129 -0.139
0.372 -0.128 -0.141
0.375 -0.125 -0.142
0.383 -0.124 -0.145
0.385 -0.121 -0.146
0.386 -0.117 -0.146
0.405 -0.119 -0.153
0.409 -0.116 -0.154
0.417 -0.115 -0.157
0.372 -0.078 -0.139
0.363 -0.072 -0.136
0.347 -0.066 -0.130
0.289 -0.052 -0.108
0.290 -0.050 -0.109
0.298 -0.048 -0.111
0.306 -0.047 -0.114
0.304 -0.043 -0.113
0.307 -0.041 -0.114
0.307 -0.038 -0.114
0.306 -0.035 -0.114
0.298 -0.032 -0.111
0.295 -0.028 -0.110
0.292 -0.026 -0.109
0.301 -0.024 -0.112
0.305 -0.021 -0.114
0.299 -0.018 -0.111
0.299 -0.015 -0.111
0.303 -0.013 -0.113
0.316 -0.010 -0.118
0.329 -0.008 -0.122
0.317 -0.004 -0.118
0.310 -0.001 -0.115
0.315 0.002 -0.117
0.317 0.004 -0.118
0.314 0.007 -0.117
0.311 0.010 -0.116
0.313 0.013 -0.117
0.302 0.015 -0.112
0.292 0.018 -0.109
0.308 0.021 -0.115
0.316 0.025 -0.118
0.310 0.027 -0.115
0.313 0.030 -0.117
0.317 0.034 -0.118
0.312 0.036 -0.117
0.304 0.038 -0.113
0.303 0.041 -0.113
0.302 0.044 -0.113
0.300 0.046 -0.112
0.310 0.050 -0.116
0.319 0.055 -0.120
0.316 0.057 -0.119
0.313 0.060 -0.118
0.324 0.065 -0.122
0.342 0.075 -0.129
0.330 0.076 -0.124
0.322 0.077 -0.122
0.329 0.082 -0.124
0.326 0.087 -0.123
0.327 0.091 -0.124
0.340 0.098 -0.129
0.337 0.100 -0.128
0.324 0.100 -0.123
0.317 0.101 -0.121
0.310 0.101 -0.118
0.319 0.111 -0.122
0.329 0.117 -0.126
0.335 0.123 -0.128
0.336 0.127 -0.129
0.340 0.132 -0.131
0.322 0.128 -0.124
0.323 0.132 -0.125
0.327 0.137 -0.126
0.318 0.136 -0.123
0.319 0.140 -0.124
0.317 0.142 -0.123
0.314 0.145 -0.122
0.310 0.146 -0.121
0.313 0.151 -0.122
0.316 0.155 -0.124
0.313 0.158 -0.123
0.305 0.157 -0.120
0.359 0.201 -0.143
0.325 -0.435 -0.153
0.324 -0.428 -0.152
0.328 -0.429 -0.154
0.334 -0.430 -0.155
0.337 -0.428 -0.156
0.339 -0.425 -0.157
0.336 -0.416 -0.155
0.335 -0.408 -0.153
0.334 -0.402 -0.153
0.334 -0.396 -0.152
0.333 -0.390 -0.151
0.334 -0.384 -0.150
0.331 -0.375 -0.148
0.328 -0.366 -0.146
0.329 -0.362 -0.146
0.331 -0.359 -0.146
0.327 -0.350 -0.144
0.326 -0.343 -0.143
0.324 -0.335 -0.141
0.321 -0.328 -0.139
0.321 -0.322 -0.139
0.325 -0.322 -0.140
0.325 -0.316 -0.139
0.321 -0.308 -0.137
0.321 -0.302 -0.136
0.319 -0.296 -0.135
0.319 -0.291 -0.134
0.320 -0.288 -0.134
0.319 -0.282 -0.133
0.316 -0.275 -0.131
0.315 -0.270 -0.130
0.315 -0.266 -0.130
0.316 -0.262 -0.130
0.314 -0.256 -0.128
0.315 -0.253 -0.128
0.317 -0.250 -0.129
0.313 -0.243 -0.126
0.313 -0.239 -0.126
0.312 -0.234 -0.125
0.309 -0.228 -0.124
0.306 -0.222 -0.122
0.304 -0.217 -0.121
0.304 -0.213 -0.120
0.303 -0.208 -0.120
0.302 -0.204 -0.119
0.300 -0.199 -0.118
0.297 -0.194 -0.116
0.217 -0.134 -0.084
0.208 -0.126 -0.081
0.209 -0.124 -0.081
0.210 -0.122 -0.081
0.214 -0.123 -0.083
0.255 -0.143 -0.098
0.243 -0.133 -0.093
0.244 -0.131 -0.093
0.245 -0.129 -0.093
0.306 -0.155 -0.116
0.311 -0.154 -0.118
0.314 -0.152 -0.119
0.319 -0.151 -0.121
0.322 -0.149 -0.121
0.324 -0.147 -0.122
0.324 -0.144 -0.122
0.315 -0.136 -0.118
0.328 -0.125 -0.122
0.354 -0.132 -0.132
0.359 -0.130 -0.133
0.367 -0.129 -0.136
0.369 -0.126 -0.137
0.379 -0.126 -0.140
0.382 -0.123 -0.141
0.383 -0.120 -0.141
0.385 -0.117 -0.142
0.404 -0.119 -0.149
0.412 -0.117 -0.151
0.422 -0.116 -0.155
0.372 -0.077 -0.136
0.362 -0.072 -0.132
0.349 -0.066 -0.127
0.294 -0.053 -0.107
0.288 -0.049 -0.105
0.294 -0.047 -0.107
0.304 -0.046 -0.110
0.305 -0.044 -0.111
0.303 -0.040 -0.110
0.309 -0.038 -0.112
0.309 -0.036 -0.112
0.302 -0.032 -0.110
0.299 -0.029 -0.108
0.304 -0.027 -0.110
0.305 -0.024 -0.110
0.303 -0.021 -0.110
0.305 -0.018 -0.111
0.300 -0.015 -0.109
0.308 -0.013 -0.112
0.319 -0.010 -0.115
0.326 -0.007 -0.118
0.317 -0.004 -0.115
0.307 -0.001 -0.111
0.307 0.001 -0.111
0.306 0.004 -0.111
0.313 0.007 -0.113
0.323 0.010 -0.117
0.323 0.013 -0.117
0.312 0.016 -0.113
0.301 0.018 -0.109
0.303 0.021 -0.110
0.314 0.025 -0.114
0.326 0.029 -0.118
0.330 0.032 -0.120
0.337 0.036 -0.123
0.329 0.038 -0.120
0.318 0.040 -0.116
0.309 0.041 -0.112
0.303 0.043 -0.110
0.295 0.045 -0.108
0.306 0.050 -0.112
0.323 0.055 -0.118
0.327 0.059 -0.119
0.322 0.061 -0.118
0.328 0.066 -0.120
0.334 0.070 -0.122
0.341 0.078 -0.125
0.334 0.080 -0.123
0.333 0.083 -0.122
0.338 0.090 -0.124
0.329 0.091 -0.121
0.328 0.094 -0.121
0.330 0.098 -0.122
0.330 0.101 -0.122
0.324 0.103 -0.120
0.331 0.111 -0.123
0.318 0.110 -0.118
0.312 0.114 -0.117
0.320 0.121 -0.120
0.329 0.127 -0.123
0.334 0.132 -0.125
0.327 0.133 -0.123
0.331 0.138 -0.125
0.333 0.142 -0.126
0.332 0.146 -0.126
0.326 0.146 -0.123
0.317 0.146 -0.120
0.309 0.145 -0.118
0.311 0.150 -0.119
0.311 0.153 -0.119
0.313 0.158 -0.120
0.332 -0.445 -0.152
0.333 -0.440 -0.152
0.332 -0.433 -0.151
0.328 -0.422 -0.149
0.337 -0.428 -0.152
0.338 -0.423 -0.152
0.335 -0.414 -0.150
0.334 -0.406 -0.149
0.334 -0.401 -0.148
0.334 -0.395 -0.147
0.332 -0.387 -0.146
0.330 -0.379 -0.145
0.333 -0.377 -0.145
0.325 -0.363 -0.141
0.325 -0.357 -0.140
0.324 -0.350 -0.139
0.324 -0.346 -0.139
0.326 -0.342 -0.139
0.324 -0.335 -0.137
0.320 -0.326 -0.135
0.320 -0.321 -0.134
0.320 -0.316 -0.134
0.320 -0.310 -0.133
0.319 -0.305 -0.132
0.319 -0.300 -0.132
0.319 -0.295 -0.131
0.319 -0.291 -0.131
0.321 -0.288 -0.131
0.318 -0.281 -0.129
0.317 -0.275 -0.128
0.314 -0.268 -0.126
0.313 -0.264 -0.126
0.313 -0.259 -0.125
0.313 -0.255 -0.124
0.316 -0.253 -0.125
0.313 -0.247 -0.124
0.312 -0.241 -0.123
0.310 -0.236 -0.122
0.310 -0.232 -0.121
0.309 -0.228 -0.121
0.301 -0.218 -0.117
0.301 -0.214 -0.116
0.301 -0.210 -0.116
0.301 -0.207 -0.116
0.300 -0.203 -0.115
0.296 -0.196 -0.113
0.288 -0.188 -0.110
0.278 -0.177 -0.106
0.208 -0.126 -0.079
0.208 -0.124 -0.078
0.209 -0.122 -0.079
0.212 -0.121 -0.080
0.253 -0.142 -0.095
0.242 -0.133 -0.090
0.243 -0.131 -0.090
0.245 -0.129 -0.091
0.249 -0.129 -0.092
0.306 -0.155 -0.113
0.312 -0.155 -0.115
0.314 -0.152 -0.115
0.315 -0.150 -0.116
0.324 -0.150 -0.119
0.323 -0.146 -0.118
0.324 -0.144 -0.119
0.327 -0.141 -0.119
0.306 -0.126 -0.111
0.314 -0.120 -0.114
0.350 -0.130 -0.126
0.358 -0.130 -0.129
0.364 -0.128 -0.131
0.371 -0.127 -0.134
0.375 -0.125 -0.135
0.381 -0.123 -0.137
0.385 -0.121 -0.138
0.396 -0.120 -0.142
0.404 -0.119 -0.145
0.429 -0.122 -0.154
0.426 -0.117 -0.152
0.433 -0.115 -0.155
0.447 -0.114 -0.159
0.379 -0.082 -0.135
0.383 -0.080 -0.136
0.369 -0.073 -0.131
0.356 -0.068 -0.126
0.297 -0.053 -0.105
0.287 -0.049 -0.102
0.289 -0.047 -0.102
0.294 -0.045 -0.104
0.297 -0.042 -0.105
0.296 -0.039 -0.105
0.296 -0.037 -0.105
0.306 -0.035 -0.108
0.305 -0.032 -0.108
0.307 -0.030 -0.109
0.306 -0.027 -0.108
0.305 -0.024 -0.107
0.304 -0.021 -0.107
0.308 -0.018 -0.109
0.313 -0.016 -0.111
0.324 -0.013 -0.114
0.332 -0.011 -0.117
0.326 -0.007 -0.115
0.315 -0.004 -0.111
0.308 -0.001 -0.109
0.305 0.001 -0.107
0.299 0.004 -0.105
0.311 0.007 -0.110
0.329 0.011 -0.116
0.332 0.014 -0.117
0.321 0.016 -0.113
0.310 0.019 -0.109
0.310 0.021 -0.109
0.316 0.025 -0.111
0.331 0.029 -0.117
0.336 0.036 -0.119
0.329 0.038 -0.116
0.314 0.039 -0.111
0.313 0.042 -0.111
0.306 0.044 -0.108
0.295 0.045 -0.105
0.299 0.048 -0.106
0.324 0.056 -0.115
0.326 0.059 -0.116
0.320 0.061 -0.114
0.330 0.066 -0.118
0.333 0.070 -0.119
0.346 0.076 -0.123
0.349 0.080 -0.125
0.314 0.078 -0.112
0.328 0.088 -0.118
0.323 0.089 -0.116
0.322 0.092 -0.116
0.321 0.095 -0.116
0.326 0.100 -0.118
0.324 0.102 -0.117
0.311 0.101 -0.112
0.322 0.108 -0.117
0.302 0.108 -0.110
0.301 0.110 -0.109
0.309 0.116 -0.113
0.321 0.124 -0.117
0.359 0.161 -0.132
0.337 -0.455 -0.151
0.334 -0.446 -0.149
0.333 -0.439 -0.148
0.334 -0.435 -0.148
0.331 -0.426 -0.146
0.330 -0.418 -0.145
0.333 -0.416 -0.146
0.332 -0.410 -0.145
0.333 -0.404 -0.144
0.332 -0.398 -0.143
0.333 -0.394 -0.143
0.330 -0.384 -0.141
0.327 -0.376 -0.139
0.325 -0.368 -0.138
0.324 -0.361 -0.137
0.323 -0.355 -0.136
0.323 -0.349 -0.135
0.323 -0.344 -0.134
0.326 -0.341 -0.135
0.325 -0.336 -0.134
0.321 -0.326 -0.132
0.318 -0.318 -0.130
0.318 -0.313 -0.129
0.319 -0.309 -0.129
0.318 -0.303 -0.128
0.317 -0.298 -0.127
0.320 -0.296 -0.128
0.319 -0.291 -0.127
0.317 -0.284 -0.125
0.319 -0.281 -0.126
0.317 -0.275 -0.125
0.314 -0.268 -0.123
0.313 -0.263 -0.122
0.312 -0.258 -0.121
0.311 -0.252 -0.120
0.309 -0.247 -0.119
0.308 -0.242 -0.118
0.309 -0.239 -0.118
0.307 -0.233 -0.117
0.305 -0.228 -0.116
0.300 -0.220 -0.113
0.299 -0.216 -0.113
0.297 -0.211 -0.112
0.296 -0.206 -0.111
0.298 -0.205 -0.112
0.299 -0.202 -0.112
0.293 -0.194 -0.109
0.286 -0.186 -0.106
0.284 -0.181 -0.105
0.209 -0.126 -0.077
0.207 -0.123 -0.076
0.208 -0.121 -0.076
0.210 -0.120 -0.076
0.251 -0.140 -0.091
0.242 -0.133 -0.088
0.243 -0.131 -0.088
0.246 -0.129 -0.089
0.248 -0.128 -0.089
0.302 -0.153 -0.109
0.311 -0.154 -0.112
0.314 -0.152 -0.112
0.316 -0.150 -0.113
0.318 -0.147 -0.113
0.320 -0.145 -0.114
0.322 -0.142 -0.114
0.330 -0.142 -0.117
0.322 -0.133 -0.114
0.360 -0.130 -0.126
0.363 -0.128 -0.127
0.367 -0.126 -0.129
0.374 -0.124 -0.131
0.378 -0.122 -0.132
0.390 -0.122 -0.136
0.398 -0.121 -0.139
0.407 -0.119 -0.142
0.427 -0.121 -0.149
0.432 -0.119 -0.150
0.436 -0.115 -0.152
0.449 -0.115 -0.156
0.454 -0.111 -0.157
0.394 -0.086 -0.136
0.395 -0.082 -0.137
0.380 -0.075 -0.131
0.299 -0.054 -0.103
0.289 -0.049 -0.100
0.292 -0.047 -0.101
0.294 -0.045 -0.101
0.292 -0.042 -0.101
0.292 -0.039 -0.100
0.297 -0.037 -0.102
0.304 -0.035 -0.104
0.308 -0.033 -0.106
0.305 -0.029 -0.105
0.305 -0.027 -0.105
0.308 -0.024 -0.106
0.299 -0.021 -0.103
0.323 -0.016 -0.111
0.333 -0.014 -0.114
0.334 -0.011 -0.115
0.326 -0.007 -0.112
0.313 -0.004 -0.107
0.314 -0.001 -0.108
0.310 0.001 -0.106
0.306 0.004 -0.105
0.313 0.007 -0.107
0.337 0.011 -0.116
0.337 0.014 -0.116
0.320 0.016 -0.110
0.314 0.019 -0.108
0.313 0.022 -0.108
0.319 0.025 -0.109
0.332 0.029 -0.114
0.336 0.033 -0.116
0.331 0.035 -0.114
0.307 0.035 -0.106
0.293 0.036 -0.101
0.305 0.041 -0.105
0.313 0.045 -0.108
0.297 0.045 -0.102
0.298 0.048 -0.103
0.325 0.056 -0.112
0.317 0.057 -0.109
0.319 0.061 -0.110
0.324 0.065 -0.112
0.331 0.069 -0.115
0.343 0.075 -0.119
0.342 0.078 -0.119
0.315 0.078 -0.110
0.320 0.085 -0.112
0.318 0.088 -0.111
0.314 0.090 -0.110
0.316 0.094 -0.111
0.325 0.099 -0.114
0.319 0.100 -0.112
0.315 0.103 -0.111
0.293 0.104 -0.103
0.297 0.109 -0.105
0.313 0.117 -0.111
0.322 0.124 -0.114
0.350 0.156 -0.125
0.350 0.179 -0.127
0.331 -0.448 -0.144
0.328 -0.438 -0.142
0.327 -0.431 -0.141
0.327 -0.425 -0.141
0.328 -0.420 -0.140
0.329 -0.416 -0.140
0.330 -0.412 -0.140
0.329 -0.405 -0.139
0.329 -0.400 -0.139
0.330 -0.395 -0.138
0.329 -0.388 -0.137
0.329 -0.383 -0.137
0.328 -0.375 -0.135
0.325 -0.367 -0.134
0.324 -0.360 -0.133
0.324 -0.354 -0.132
0.324 -0.350 -0.132
0.325 -0.346 -0.131
0.325 -0.340 -0.131
0.324 -0.333 -0.129
0.322 -0.326 -0.128
0.316 -0.315 -0.125
0.316 -0.310 -0.125
0.319 -0.309 -0.125
0.318 -0.303 -0.124
0.316 -0.296 -0.123
0.315 -0.291 -0.122
0.314 -0.285 -0.121
0.313 -0.280 -0.120
0.315 -0.277 -0.120
0.313 -0.271 -0.119
0.313 -0.266 -0.119
0.312 -0.261 -0.118
0.309 -0.255 -0.116
0.307 -0.249 -0.115
0.308 -0.245 -0.115
0.308 -0.242 -0.115
0.304 -0.235 -0.113
0.304 -0.230 -0.112
0.303 -0.226 -0.112
0.301 -0.221 -0.111
0.297 -0.214 -0.109
0.292 -0.207 -0.107
0.291 -0.203 -0.106
0.227 -0.142 -0.081
0.230 -0.141 -0.082
0.211 -0.127 -0.075
0.206 -0.122 -0.073
0.208 -0.121 -0.074
0.209 -0.119 -0.074
0.221 -0.124 -0.078
0.243 -0.133 -0.086
0.244 -0.131 -0.086
0.245 -0.129 -0.086
0.247 -0.127 -0.087
0.309 -0.153 -0.108
0.315 -0.152 -0.110
0.316 -0.149 -0.110
0.318 -0.147 -0.110
0.320 -0.145 -0.111
0.323 -0.142 -0.111
0.329 -0.142 -0.113
0.336 -0.141 -0.116
0.331 -0.136 -0.114
0.336 -0.125 -0.115
0.352 -0.127 -0.120
0.362 -0.127 -0.123
0.366 -0.125 -0.125
0.370 -0.123 -0.126
0.381 -0.123 -0.129
0.391 -0.122 -0.133
0.401 -0.121 -0.136
0.409 -0.120 -0.138
0.421 -0.119 -0.142
0.431 -0.118 -0.146
0.439 -0.116 -0.148
0.455 -0.116 -0.154
0.466 -0.114 -0.157
0.404 -0.088 -0.136
0.402 -0.083 -0.135
0.300 -0.054 -0.100
0.296 -0.050 -0.099
0.294 -0.047 -0.099
0.290 -0.044 -0.097
0.285 -0.041 -0.095
0.288 -0.038 -0.096
0.302 -0.037 -0.101
0.311 -0.036 -0.104
0.306 -0.032 -0.102
0.304 -0.029 -0.102
0.306 -0.027 -0.102
0.314 -0.024 -0.105
0.310 -0.021 -0.104
0.297 -0.018 -0.099
0.308 -0.016 -0.103
0.322 -0.013 -0.107
0.316 -0.010 -0.105
0.315 -0.007 -0.105
0.315 -0.004 -0.105
0.310 -0.001 -0.103
0.310 0.001 -0.103
0.302 0.004 -0.101
0.320 0.007 -0.107
0.335 0.011 -0.112
0.330 0.014 -0.110
0.330 0.017 -0.110
0.319 0.019 -0.106
0.316 0.022 -0.106
0.318 0.025 -0.106
0.325 0.028 -0.109
0.320 0.031 -0.107
0.314 0.033 -0.105
0.311 0.036 -0.104
0.304 0.038 -0.102
0.315 0.042 -0.106
0.315 0.045 -0.106
0.301 0.046 -0.101
0.298 0.048 -0.100
0.308 0.053 -0.103
0.310 0.056 -0.104
0.311 0.059 -0.105
0.317 0.066 -0.107
0.311 0.068 -0.105
0.326 0.074 -0.110
0.324 0.077 -0.110
0.309 0.076 -0.105
0.313 0.080 -0.106
0.313 0.083 -0.106
0.317 0.090 -0.108
0.315 0.093 -0.107
0.314 0.096 -0.107
0.313 0.099 -0.107
0.310 0.101 -0.106
0.321 0.107 -0.110
0.297 0.105 -0.102
0.301 0.110 -0.103
0.308 0.115 -0.106
0.309 0.119 -0.106
0.350 0.156 -0.122
0.385 0.223 -0.138
0.325 -0.439 -0.137
0.322 -0.429 -0.135
0.324 -0.427 -0.136
0.326 -0.424 -0.136
0.326 -0.417 -0.135
0.328 -0.414 -0.136
0.328 -0.409 -0.135
0.328 -0.403 -0.135
0.328 -0.398 -0.134
0.328 -0.392 -0.133
0.322 -0.379 -0.130
0.323 -0.375 -0.130
0.326 -0.373 -0.131
0.325 -0.366 -0.130
0.322 -0.358 -0.128
0.322 -0.352 -0.127
0.324 -0.349 -0.127
0.324 -0.343 -0.127
0.321 -0.336 -0.125
0.319 -0.328 -0.124
0.316 -0.320 -0.122
0.314 -0.313 -0.121
0.315 -0.309 -0.121
0.318 -0.307 -0.121
0.317 -0.301 -0.120
0.315 -0.295 -0.119
0.313 -0.288 -0.118
0.312 -0.283 -0.117
0.312 -0.278 -0.116
0.310 -0.272 -0.115
0.309 -0.267 -0.115
0.310 -0.264 -0.114
0.307 -0.257 -0.113
0.305 -0.251 -0.112
0.306 -0.248 -0.112
0.308 -0.245 -0.112
0.306 -0.240 -0.111
0.303 -0.234 -0.109
0.301 -0.228 -0.108
0.301 -0.224 -0.108
0.299 -0.219 -0.107
0.291 -0.210 -0.104
0.286 -0.203 -0.102
0.208 -0.142 -0.074
0.208 -0.140 -0.073
0.209 -0.138 -0.073
0.211 -0.137 -0.074
0.222 -0.142 -0.078
0.224 -0.140 -0.078
0.227 -0.139 -0.079
0.213 -0.128 -0.074
0.207 -0.122 -0.072
0.208 -0.121 -0.072
0.209 -0.119 -0.072
0.221 -0.123 -0.076
0.243 -0.133 -0.083
0.243 -0.130 -0.083
0.243 -0.128 -0.083
0.245 -0.126 -0.083
0.249 -0.126 -0.085
0.308 -0.152 -0.104
0.312 -0.151 -0.106
0.315 -0.149 -0.106
0.318 -0.147 -0.107
0.321 -0.145 -0.108
0.325 -0.143 -0.109
0.338 -0.146 -0.113
0.274 -0.107 -0.091
0.282 -0.107 -0.094
0.354 -0.128 -0.117
0.360 -0.126 -0.119
0.365 -0.125 -0.121
0.370 -0.123 -0.122
0.381 -0.123 -0.126
0.395 -0.123 -0.130
0.400 -0.121 -0.132
0.412 -0.120 -0.135
0.419 -0.119 -0.138
0.425 -0.116 -0.140
0.433 -0.114 -0.142
0.448 -0.114 -0.147
0.440 -0.108 -0.144
0.313 -0.056 -0.102
0.298 -0.051 -0.097
0.294 -0.047 -0.096
0.290 -0.044 -0.094
0.286 -0.041 -0.093
0.288 -0.038 -0.093
0.300 -0.037 -0.097
0.308 -0.035 -0.100
0.302 -0.032 -0.098
0.293 -0.028 -0.095
0.308 -0.027 -0.100
0.312 -0.024 -0.101
0.306 -0.021 -0.099
0.303 -0.018 -0.098
0.288 -0.015 -0.093
0.282 -0.012 -0.091
0.304 -0.010 -0.098
0.311 -0.007 -0.101
0.316 -0.001 -0.102
0.311 0.001 -0.101
0.307 0.004 -0.099
0.317 0.007 -0.103
0.318 0.010 -0.103
0.321 0.013 -0.104
0.320 0.016 -0.104
0.319 0.019 -0.104
0.319 0.022 -0.104
0.322 0.025 -0.104
0.320 0.028 -0.104
0.310 0.030 -0.101
0.313 0.033 -0.102
0.310 0.036 -0.101
0.315 0.039 -0.102
0.319 0.043 -0.104
0.319 0.046 -0.104
0.305 0.046 -0.099
0.300 0.049 -0.098
0.308 0.053 -0.100
0.312 0.056 -0.102
0.311 0.059 -0.102
0.322 0.064 -0.105
0.322 0.067 -0.105
0.311 0.068 -0.102
0.327 0.074 -0.107
0.326 0.077 -0.107
0.319 0.079 -0.105
0.316 0.081 -0.104
0.316 0.084 -0.104
0.314 0.087 -0.104
0.329 0.094 -0.109
0.319 0.094 -0.105
0.317 0.097 -0.105
0.315 0.099 -0.104
0.312 0.104 -0.104
0.318 0.112 -0.106
0.310 0.116 -0.103
0.314 0.121 -0.105
0.342 0.152 -0.116
0.360 0.188 -0.124
0.364 0.194 -0.125
0.364 0.198 -0.126
0.380 0.219 -0.132
0.321 -0.438 -0.132
0.322 -0.434 -0.132
0.325 -0.433 -0.133
0.323 -0.425 -0.131
0.324 -0.420 -0.131
0.328 -0.419 -0.132
0.325 -0.410 -0.131
0.327 -0.408 -0.131
0.330 -0.405 -0.131
0.330 -0.399 -0.131
0.327 -0.390 -0.129
0.322 -0.378 -0.126
0.320 -0.371 -0.125
0.323 -0.369 -0.126
0.320 -0.360 -0.124
0.320 -0.354 -0.123
0.321 -0.350 -0.123
0.323 -0.347 -0.123
0.321 -0.339 -0.122
0.318 -0.332 -0.120
0.314 -0.322 -0.118
0.314 -0.317 -0.118
0.315 -0.314 -0.118
0.316 -0.310 -0.117
0.313 -0.302 -0.116
0.316 -0.300 -0.116
0.314 -0.293 -0.115
0.310 -0.285 -0.113
0.310 -0.281 -0.113
0.310 -0.276 -0.112
0.308 -0.270 -0.111
0.307 -0.265 -0.110
0.308 -0.261 -0.110
0.308 -0.257 -0.110
0.306 -0.252 -0.109
0.306 -0.247 -0.108
0.307 -0.244 -0.108
0.305 -0.239 -0.107
0.302 -0.233 -0.106
0.299 -0.226 -0.104
0.298 -0.222 -0.104
0.293 -0.214 -0.101
0.281 -0.202 -0.097
0.208 -0.142 -0.071
0.208 -0.139 -0.071
0.208 -0.137 -0.071
0.211 -0.137 -0.072
0.222 -0.141 -0.075
0.224 -0.140 -0.076
0.225 -0.138 -0.076
0.225 -0.136 -0.076
0.209 -0.123 -0.070
0.208 -0.121 -0.070
0.209 -0.119 -0.070
0.219 -0.122 -0.073
0.240 -0.131 -0.080
0.242 -0.129 -0.080
0.243 -0.127 -0.080
0.243 -0.125 -0.080
0.247 -0.124 -0.081
0.305 -0.150 -0.100
0.310 -0.149 -0.102
0.314 -0.148 -0.103
0.318 -0.147 -0.104
0.319 -0.144 -0.104
0.321 -0.141 -0.104
0.338 -0.145 -0.110
0.335 -0.141 -0.109
0.282 -0.110 -0.091
0.285 -0.108 -0.092
0.297 -0.110 -0.096
0.355 -0.128 -0.114
0.356 -0.125 -0.114
0.364 -0.124 -0.117
0.374 -0.124 -0.120
0.381 -0.122 -0.122
0.391 -0.122 -0.125
0.400 -0.121 -0.128
0.409 -0.120 -0.130
0.419 -0.119 -0.134
0.423 -0.116 -0.135
0.430 -0.113 -0.137
0.440 -0.112 -0.140
0.441 -0.108 -0.140
0.402 -0.083 -0.127
0.301 -0.054 -0.095
0.292 -0.050 -0.092
0.290 -0.047 -0.091
0.290 -0.044 -0.092
0.290 -0.041 -0.091
0.288 -0.038 -0.091
0.294 -0.036 -0.093
0.297 -0.034 -0.094
0.294 -0.031 -0.093
0.292 -0.028 -0.092
0.301 -0.026 -0.095
0.302 -0.023 -0.095
0.303 -0.021 -0.095
0.291 -0.017 -0.091
0.287 -0.014 -0.090
0.295 -0.012 -0.093
0.313 -0.010 -0.098
0.310 -0.007 -0.098
0.315 -0.004 -0.099
0.311 -0.001 -0.098
0.311 0.001 -0.098
0.310 0.004 -0.097
0.308 0.007 -0.097
0.311 0.010 -0.098
0.313 0.013 -0.098
0.313 0.016 -0.098
0.317 0.019 -0.100
0.323 0.022 -0.102
0.324 0.025 -0.102
0.317 0.028 -0.100
0.319 0.031 -0.101
0.319 0.034 -0.101
0.320 0.037 -0.101
0.317 0.039 -0.100
0.319 0.043 -0.101
0.321 0.046 -0.101
0.313 0.048 -0.099
0.301 0.048 -0.095
0.311 0.053 -0.098
0.314 0.057 -0.100
0.315 0.060 -0.100
0.316 0.063 -0.100
0.325 0.068 -0.103
0.328 0.071 -0.104
0.323 0.073 -0.103
0.324 0.077 -0.103
0.320 0.079 -0.102
0.322 0.082 -0.103
0.319 0.085 -0.102
0.319 0.088 -0.102
0.323 0.095 -0.104
0.325 0.099 -0.104
0.321 0.101 -0.103
0.327 0.106 -0.105
0.330 0.110 -0.106
0.333 0.114 -0.108
0.331 0.117 -0.107
0.325 0.118 -0.105
0.327 0.122 -0.106
0.325 0.125 -0.106
0.343 0.153 -0.113
0.330 0.150 -0.108
0.372 0.202 -0.124
0.381 0.215 -0.128
0.316 -0.431 -0.126
0.320 -0.431 -0.127
0.321 -0.426 -0.127
0.321 -0.422 -0.127
0.320 -0.415 -0.126
0.317 -0.406 -0.124
0.321 -0.405 -0.125
0.326 -0.405 -0.126
0.329 -0.404 -0.127
0.329 -0.398 -0.127
0.326 -0.388 -0.125
0.322 -0.378 -0.123
0.321 -0.371 -0.122
0.321 -0.366 -0.121
0.321 -0.360 -0.120
0.317 -0.351 -0.119
0.319 -0.347 -0.119
0.319 -0.343 -0.118
0.319 -0.337 -0.117
0.315 -0.328 -0.115
0.313 -0.320 -0.114
0.313 -0.316 -0.114
0.314 -0.312 -0.114
0.312 -0.306 -0.112
0.309 -0.298 -0.111
0.312 -0.296 -0.111
0.310 -0.289 -0.110
0.308 -0.283 -0.109
0.307 -0.278 -0.108
0.307 -0.273 -0.108
0.307 -0.269 -0.107
0.307 -0.264 -0.107
0.306 -0.259 -0.106
0.307 -0.256 -0.106
0.306 -0.252 -0.105
0.306 -0.247 -0.105
0.305 -0.242 -0.104
0.304 -0.238 -0.104
0.301 -0.231 -0.102
0.298 -0.225 -0.101
0.296 -0.220 -0.100
0.297 -0.217 -0.100
0.208 -0.142 -0.069
0.207 -0.139 -0.069
0.208 -0.137 -0.069
0.210 -0.136 -0.069
0.221 -0.141 -0.073
0.222 -0.139 -0.073
0.225 -0.138 -0.073
0.227 -0.137 -0.074
0.209 -0.123 -0.068
0.208 -0.120 -0.067
0.209 -0.118 -0.068
0.212 -0.118 -0.068
0.238 -0.130 -0.077
0.242 -0.129 -0.078
0.243 -0.127 -0.078
0.245 -0.126 -0.078
0.246 -0.124 -0.079
0.309 -0.149 -0.098
0.313 -0.148 -0.100
0.317 -0.146 -0.100
0.317 -0.143 -0.100
0.317 -0.139 -0.100
0.320 -0.138 -0.101
0.274 -0.107 -0.086
0.284 -0.108 -0.089
0.292 -0.108 -0.091
0.351 -0.126 -0.109
0.357 -0.125 -0.111
0.362 -0.123 -0.113
0.379 -0.125 -0.118
0.385 -0.123 -0.119
0.391 -0.122 -0.121
0.398 -0.120 -0.123
0.409 -0.120 -0.127
0.414 -0.117 -0.128
0.424 -0.116 -0.131
0.435 -0.115 -0.134
0.440 -0.112 -0.136
0.446 -0.109 -0.137
0.393 -0.081 -0.121
0.379 -0.075 -0.116
0.364 -0.069 -0.112
0.283 -0.051 -0.087
0.287 -0.049 -0.088
0.285 -0.046 -0.087
0.291 -0.044 -0.089
0.292 -0.041 -0.089
0.289 -0.038 -0.088
0.288 -0.036 -0.088
0.296 -0.034 -0.090
0.293 -0.031 -0.090
0.297 -0.029 -0.091
0.302 -0.026 -0.092
0.313 -0.024 -0.095
0.291 -0.020 -0.089
0.289 -0.017 -0.088
0.301 -0.015 -0.092
0.323 -0.013 -0.098
0.327 -0.010 -0.100
0.328 -0.007 -0.100
0.325 -0.004 -0.099
0.319 -0.001 -0.097
0.320 0.001 -0.097
0.312 0.004 -0.095
0.314 0.007 -0.096
0.314 0.010 -0.096
0.316 0.013 -0.096
0.317 0.016 -0.097
0.323 0.019 -0.098
0.326 0.022 -0.099
0.324 0.025 -0.099
0.326 0.028 -0.100
0.324 0.031 -0.099
0.324 0.034 -0.099
0.324 0.037 -0.099
0.323 0.040 -0.099
0.319 0.042 -0.098
0.321 0.046 -0.098
0.314 0.051 -0.096
0.314 0.053 -0.096
0.315 0.057 -0.097
0.313 0.059 -0.096
0.314 0.062 -0.097
0.322 0.067 -0.099
0.325 0.071 -0.100
0.324 0.073 -0.100
0.324 0.076 -0.100
0.322 0.079 -0.100
0.323 0.083 -0.100
0.320 0.085 -0.099
0.313 0.086 -0.097
0.314 0.089 -0.098
0.323 0.095 -0.100
0.322 0.098 -0.100
0.340 0.110 -0.106
0.343 0.114 -0.107
0.339 0.116 -0.106
0.336 0.119 -0.105
0.334 0.121 -0.105
0.337 0.126 -0.106
0.338 0.129 -0.106
0.341 0.151 -0.108
0.338 0.154 -0.108
0.358 0.186 -0.116
0.368 0.196 -0.119
0.381 0.211 -0.124
0.379 0.214 -0.124
0.384 0.225 -0.126
0.315 -0.430 -0.122
0.315 -0.424 -0.121
0.316 -0.420 -0.121
0.317 -0.415 -0.121
0.319 -0.412 -0.121
0.318 -0.406 -0.121
0.319 -0.401 -0.120
0.323 -0.402 -0.122
0.325 -0.398 -0.121
0.324 -0.391 -0.121
0.320 -0.381 -0.119
0.320 -0.375 -0.118
0.319 -0.368 -0.117
0.319 -0.363 -0.116
0.316 -0.355 -0.115
0.318 -0.351 -0.115
0.318 -0.346 -0.115
0.319 -0.342 -0.114
0.314 -0.331 -0.112
0.313 -0.325 -0.111
0.313 -0.320 -0.111
0.313 -0.315 -0.110
0.312 -0.310 -0.109
0.312 -0.305 -0.109
0.310 -0.298 -0.107
0.308 -0.292 -0.106
0.308 -0.287 -0.106
0.307 -0.282 -0.105
0.306 -0.276 -0.104
0.305 -0.271 -0.104
0.306 -0.267 -0.103
0.305 -0.263 -0.103
0.305 -0.259 -0.103
0.305 -0.254 -0.102
0.306 -0.251 -0.102
0.304 -0.245 -0.101
0.304 -0.241 -0.101
0.304 -0.237 -0.100
0.300 -0.231 -0.099
0.299 -0.225 -0.098
0.298 -0.221 -0.097
0.291 -0.213 -0.095
0.282 -0.202 -0.091
0.212 -0.144 -0.068
0.208 -0.139 -0.067
0.208 -0.137 -0.067
0.210 -0.135 -0.067
0.219 -0.139 -0.070
0.222 -0.138 -0.071
0.225 -0.138 -0.071
0.228 -0.137 -0.072
0.211 -0.124 -0.066
0.207 -0.120 -0.065
0.208 -0.118 -0.065
0.210 -0.116 -0.066
0.237 -0.129 -0.074
0.241 -0.129 -0.075
0.245 -0.128 -0.076
0.244 -0.125 -0.076
0.247 -0.124 -0.076
0.256 -0.126 -0.079
0.309 -0.149 -0.095
0.314 -0.148 -0.097
0.316 -0.145 -0.097
0.317 -0.142 -0.097
0.316 -0.139 -0.097
0.316 -0.136 -0.097
0.314 -0.132 -0.096
0.264 -0.103 -0.080
0.281 -0.107 -0.085
0.278 -0.103 -0.084
0.354 -0.127 -0.107
0.356 -0.124 -0.107
0.364 -0.124 -0.110
0.377 -0.125 -0.114
0.387 -0.124 -0.116
0.390 -0.121 -0.117
0.398 -0.120 -0.120
0.404 -0.118 -0.121
0.411 -0.116 -0.123
0.427 -0.116 -0.128
0.427 -0.112 -0.128
0.444 -0.113 -0.133
0.444 -0.108 -0.132
0.438 -0.103 -0.131
0.371 -0.084 -0.111
0.378 -0.082 -0.113
0.390 -0.081 -0.116
0.386 -0.076 -0.115
0.283 -0.051 -0.084
0.283 -0.048 -0.084
0.288 -0.046 -0.085
0.287 -0.043 -0.085
0.290 -0.041 -0.086
0.291 -0.039 -0.086
0.294 -0.036 -0.087
0.297 -0.034 -0.088
0.303 -0.032 -0.090
0.304 -0.029 -0.090
0.313 -0.027 -0.093
0.318 -0.025 -0.094
0.302 -0.021 -0.089
0.302 -0.018 -0.089
0.319 -0.016 -0.094
0.331 -0.014 -0.098
0.341 -0.011 -0.101
0.327 -0.007 -0.097
0.316 -0.004 -0.093
0.323 -0.001 -0.095
0.312 0.001 -0.092
0.317 0.004 -0.094
0.317 0.007 -0.094
0.324 0.010 -0.096
0.319 0.013 -0.094
0.318 0.016 -0.094
0.326 0.019 -0.096
0.321 0.022 -0.095
0.311 0.024 -0.092
0.308 0.027 -0.091
0.305 0.029 -0.090
0.305 0.032 -0.090
0.305 0.035 -0.090
0.306 0.038 -0.091
0.307 0.041 -0.091
0.309 0.044 -0.092
0.309 0.047 -0.092
0.324 0.052 -0.096
0.317 0.054 -0.094
0.314 0.056 -0.093
0.316 0.060 -0.094
0.319 0.063 -0.095
0.314 0.065 -0.094
0.316 0.068 -0.094
0.318 0.072 -0.095
0.328 0.077 -0.098
0.331 0.081 -0.099
0.326 0.083 -0.098
0.317 0.084 -0.095
0.313 0.086 -0.094
0.314 0.089 -0.094
0.330 0.097 -0.099
0.333 0.101 -0.100
0.326 0.102 -0.098
0.329 0.106 -0.100
0.337 0.112 -0.102
0.329 0.113 -0.100
0.313 0.110 -0.095
0.343 0.124 -0.104
0.333 0.124 -0.101
0.333 0.151 -0.103
0.312 0.152 -0.097
0.365 0.197 -0.115
0.368 0.203 -0.116
0.370 0.209 -0.117
0.374 0.215 -0.118
0.376 0.220 -0.119
0.316 -0.430 -0.118
0.316 -0.424 -0.118
0.313 -0.415 -0.116
0.314 -0.411 -0.116
0.317 -0.410 -0.117
0.320 -0.408 -0.117
0.317 -0.398 -0.116
0.317 -0.393 -0.115
0.319 -0.389 -0.115
0.314 -0.379 -0.113
0.314 -0.373 -0.113
0.313 -0.367 -0.112
0.315 -0.364 -0.112
0.315 -0.358 -0.111
0.316 -0.354 -0.111
0.316 -0.348 -0.110
0.316 -0.343 -0.110
0.317 -0.339 -0.110
0.314 -0.331 -0.108
0.312 -0.324 -0.107
0.312 -0.318 -0.106
0.311 -0.312 -0.106
0.312 -0.309 -0.106
0.311 -0.304 -0.105
0.310 -0.297 -0.104
0.308 -0.291 -0.103
0.307 -0.286 -0.102
0.306 -0.280 -0.101
0.304 -0.274 -0.100
0.304 -0.270 -0.100
0.304 -0.265 -0.100
0.304 -0.261 -0.099
0.305 -0.258 -0.099
0.305 -0.254 -0.099
0.302 -0.247 -0.097
0.302 -0.243 -0.097
0.303 -0.240 -0.097
0.302 -0.235 -0.096
0.300 -0.230 -0.095
0.299 -0.225 -0.095
0.296 -0.220 -0.094
0.290 -0.212 -0.091
0.283 -0.202 -0.089
0.215 -0.146 -0.067
0.208 -0.139 -0.065
0.209 -0.137 -0.065
0.210 -0.136 -0.065
0.219 -0.138 -0.067
0.223 -0.139 -0.069
0.225 -0.137 -0.069
0.226 -0.136 -0.069
0.213 -0.125 -0.065
0.207 -0.119 -0.063
0.208 -0.118 -0.063
0.209 -0.116 -0.063
0.229 -0.125 -0.069
0.244 -0.130 -0.074
0.245 -0.128 -0.074
0.245 -0.125 -0.074
0.243 -0.122 -0.073
0.255 -0.125 -0.076
0.310 -0.149 -0.092
0.314 -0.148 -0.094
0.316 -0.145 -0.094
0.318 -0.143 -0.094
0.320 -0.140 -0.095
0.326 -0.140 -0.096
0.258 -0.100 -0.076
0.277 -0.105 -0.081
0.277 -0.102 -0.081
0.355 -0.128 -0.104
0.358 -0.125 -0.105
0.364 -0.123 -0.106
0.374 -0.123 -0.109
0.380 -0.122 -0.111
0.391 -0.121 -0.114
0.398 -0.120 -0.116
0.404 -0.118 -0.117
0.410 -0.116 -0.119
0.419 -0.114 -0.121
0.427 -0.112 -0.124
0.440 -0.112 -0.127
0.443 -0.108 -0.128
0.434 -0.102 -0.125
0.394 -0.081 -0.114
0.389 -0.077 -0.112
0.287 -0.051 -0.082
0.287 -0.049 -0.083
0.289 -0.046 -0.083
0.292 -0.044 -0.084
0.288 -0.041 -0.083
0.295 -0.039 -0.084
0.298 -0.037 -0.085
0.291 -0.033 -0.083
0.305 -0.032 -0.087
0.310 -0.030 -0.089
0.312 -0.027 -0.089
0.313 -0.024 -0.089
0.322 -0.022 -0.092
0.335 -0.020 -0.096
0.337 -0.017 -0.096
0.334 -0.014 -0.096
0.334 -0.011 -0.096
0.318 -0.007 -0.091
0.308 -0.004 -0.088
0.301 -0.001 -0.086
0.313 0.001 -0.090
0.326 0.004 -0.093
0.329 0.007 -0.094
0.327 0.010 -0.093
0.318 0.013 -0.091
0.307 0.015 -0.088
0.304 0.018 -0.087
0.304 0.021 -0.087
0.307 0.024 -0.088
0.308 0.027 -0.088
0.309 0.030 -0.088
0.309 0.032 -0.089
0.309 0.035 -0.089
0.308 0.038 -0.089
0.310 0.041 -0.089
0.309 0.044 -0.089
0.308 0.047 -0.089
0.309 0.050 -0.089
0.309 0.052 -0.089
0.315 0.056 -0.091
0.321 0.061 -0.093
0.322 0.064 -0.093
0.322 0.067 -0.093
0.313 0.068 -0.090
0.314 0.071 -0.091
0.322 0.076 -0.093
0.329 0.081 -0.095
0.329 0.084 -0.096
0.317 0.084 -0.092
0.312 0.086 -0.091
0.316 0.090 -0.092
0.337 0.099 -0.098
0.337 0.102 -0.098
0.323 0.101 -0.094
0.319 0.103 -0.093
0.315 0.105 -0.092
0.318 0.109 -0.093
0.317 0.112 -0.093
0.339 0.130 -0.100
0.326 0.144 -0.097
0.343 0.156 -0.103
0.348 0.180 -0.105
0.356 0.193 -0.108
0.356 0.196 -0.109
0.365 0.205 -0.112
0.371 0.213 -0.114
0.371 0.217 -0.114
0.362 0.216 -0.111
0.370 0.248 -0.116
0.317 -0.437 -0.115
0.317 -0.431 -0.115
0.315 -0.423 -0.113
0.315 -0.417 -0.113
0.314 -0.411 -0.112
0.315 -0.406 -0.112
0.315 -0.401 -0.112
0.314 -0.395 -0.111
0.315 -0.390 -0.111
0.316 -0.386 -0.111
0.315 -0.379 -0.110
0.315 -0.373 -0.109
0.312 -0.365 -0.108
0.313 -0.360 -0.107
0.316 -0.359 -0.108
0.316 -0.353 -0.107
0.312 -0.344 -0.106
0.311 -0.337 -0.105
0.312 -0.333 -0.105
0.314 -0.330 -0.105
0.313 -0.325 -0.104
0.311 -0.317 -0.103
0.308 -0.310 -0.101
0.308 -0.305 -0.101
0.310 -0.302 -0.101
0.309 -0.296 -0.100
0.308 -0.291 -0.099
0.307 -0.285 -0.099
0.305 -0.279 -0.098
0.302 -0.272 -0.096
0.302 -0.267 -0.096
0.303 -0.264 -0.096
0.304 -0.260 -0.096
0.304 -0.257 -0.096
0.302 -0.251 -0.095
0.300 -0.245 -0.094
0.300 -0.241 -0.093
0.301 -0.238 -0.093
0.299 -0.232 -0.092
0.298 -0.228 -0.092
0.293 -0.221 -0.090
0.287 -0.212 -0.088
0.281 -0.205 -0.086
0.236 -0.166 -0.071
0.232 -0.160 -0.070
0.215 -0.146 -0.065
0.207 -0.138 -0.062
0.208 -0.136 -0.062
0.212 -0.136 -0.063
0.215 -0.136 -0.064
0.222 -0.138 -0.066
0.225 -0.137 -0.067
0.222 -0.133 -0.066
0.220 -0.129 -0.065
0.208 -0.120 -0.061
0.208 -0.118 -0.061
0.210 -0.116 -0.061
0.224 -0.121 -0.065
0.242 -0.129 -0.071
0.245 -0.128 -0.071
0.243 -0.124 -0.071
0.243 -0.122 -0.070
0.248 -0.121 -0.072
0.301 -0.145 -0.087
0.314 -0.147 -0.090
0.316 -0.145 -0.091
0.318 -0.143 -0.091
0.324 -0.142 -0.093
0.325 -0.139 -0.093
0.317 -0.133 -0.090
0.275 -0.104 -0.078
0.267 -0.098 -0.076
0.347 -0.124 -0.098
0.361 -0.126 -0.102
0.366 -0.124 -0.103
0.372 -0.123 -0.105
0.379 -0.121 -0.107
0.386 -0.120 -0.109
0.399 -0.120 -0.112
0.409 -0.119 -0.115
0.414 -0.117 -0.116
0.420 -0.114 -0.118
0.430 -0.113 -0.120
0.439 -0.111 -0.123
0.443 -0.108 -0.124
0.432 -0.101 -0.120
0.289 -0.052 -0.080
0.291 -0.049 -0.081
0.294 -0.047 -0.082
0.292 -0.044 -0.081
0.290 -0.041 -0.081
0.295 -0.039 -0.082
0.299 -0.037 -0.083
0.301 -0.034 -0.083
0.301 -0.032 -0.083
0.307 -0.029 -0.085
0.304 -0.026 -0.084
0.307 -0.024 -0.085
0.321 -0.022 -0.089
0.347 -0.021 -0.096
0.334 -0.014 -0.092
0.318 -0.010 -0.088
