VERSION .7
FIELDS x y z
SIZE 4 4 4
TYPE F F F
COUNT 1 1 1
WIDTH     2580
HEIGHT 1
VIEWPOINT 0 0 0 1 0 0 0
POINTS     2580
DATA ascii
0.201 -0.223 0.011
0.202 -0.221 0.011
0.205 -0.221 0.011
0.207 -0.220 0.011
0.209 -0.219 0.011
0.211 -0.217 0.011
0.213 -0.216 0.011
0.216 -0.216 0.011
0.219 -0.215 0.011
0.222 -0.215 0.011
0.224 -0.214 0.011
0.226 -0.213 0.011
0.229 -0.211 0.011
0.232 -0.211 0.012
0.234 -0.210 0.012
0.236 -0.208 0.012
0.238 -0.207 0.012
0.242 -0.207 0.012
0.245 -0.207 0.012
0.247 -0.205 0.012
0.250 -0.203 0.012
0.247 -0.198 0.012
0.245 -0.194 0.012
0.219 -0.170 0.010
0.217 -0.166 0.010
0.219 -0.164 0.010
0.217 -0.160 0.010
0.209 -0.152 0.010
0.216 -0.155 0.010
0.210 -0.147 0.010
0.204 -0.141 0.009
0.203 -0.138 0.009
0.204 -0.136 0.009
0.207 -0.135 0.009
0.208 -0.134 0.010
0.208 -0.132 0.009
0.211 -0.131 0.010
0.211 -0.129 0.010
0.218 -0.130 0.010
0.220 -0.130 0.010
0.224 -0.130 0.010
0.213 -0.121 0.010
0.214 -0.119 0.010
0.221 -0.121 0.010
0.218 -0.117 0.010
0.214 -0.112 0.009
0.201 -0.103 0.009
0.203 -0.102 0.009
0.205 -0.101 0.009
0.208 -0.100 0.009
0.205 -0.097 0.009
0.204 -0.094 0.009
0.207 -0.093 0.009
0.217 -0.096 0.009
0.224 -0.097 0.010
0.225 -0.095 0.010
0.225 -0.093 0.010
0.227 -0.091 0.010
0.216 -0.085 0.009
0.215 -0.082 0.009
0.207 -0.077 0.009
0.224 -0.081 0.010
0.235 -0.083 0.010
0.240 -0.083 0.010
0.243 -0.081 0.010
0.244 -0.079 0.010
0.249 -0.078 0.011
0.253 -0.077 0.011
0.262 -0.078 0.011
0.273 -0.079 0.012
0.400 -0.107 0.017
0.407 -0.105 0.017
0.419 -0.105 0.018
0.419 -0.101 0.018
0.416 -0.096 0.017
0.374 -0.080 0.016
0.373 -0.076 0.016
0.368 -0.072 0.015
0.356 -0.066 0.015
0.290 -0.048 0.012
0.286 -0.045 0.012
0.284 -0.042 0.012
0.285 -0.040 0.012
0.289 -0.038 0.012
0.290 -0.035 0.012
0.290 -0.033 0.012
0.291 -0.030 0.012
0.290 -0.027 0.012
0.291 -0.025 0.012
0.292 -0.022 0.012
0.291 -0.020 0.012
0.291 -0.017 0.012
0.286 -0.014 0.012
0.307 -0.012 0.013
0.313 -0.010 0.013
0.310 -0.007 0.013
0.306 -0.004 0.013
0.305 -0.001 0.013
0.302 0.001 0.013
0.302 0.004 0.013
0.305 0.007 0.013
0.302 0.009 0.013
0.301 0.012 0.013
0.315 0.015 0.013
0.315 0.018 0.013
0.319 0.021 0.013
0.309 0.024 0.013
0.304 0.026 0.013
0.303 0.029 0.013
0.304 0.031 0.013
0.305 0.034 0.013
0.307 0.037 0.013
0.308 0.040 0.013
0.308 0.043 0.013
0.307 0.046 0.013
0.306 0.048 0.013
0.307 0.051 0.013
0.315 0.055 0.013
0.315 0.058 0.013
0.330 0.064 0.014
0.328 0.067 0.014
0.332 0.071 0.014
0.326 0.072 0.014
0.322 0.075 0.014
0.306 0.074 0.013
0.309 0.077 0.013
0.321 0.083 0.014
0.318 0.086 0.013
0.328 0.091 0.014
0.333 0.096 0.014
0.338 0.101 0.014
0.333 0.102 0.014
0.330 0.105 0.014
0.330 0.108 0.014
0.328 0.110 0.014
0.320 0.111 0.014
0.326 0.116 0.014
0.335 0.122 0.014
0.339 0.127 0.015
0.333 0.128 0.014
0.324 0.128 0.014
0.419 0.174 0.018
0.410 0.175 0.018
0.406 0.177 0.018
0.402 0.179 0.018
0.394 0.180 0.017
0.378 0.177 0.017
0.369 0.176 0.016
0.368 0.179 0.016
0.367 0.183 0.016
0.371 0.188 0.016
0.340 0.180 0.015
0.337 0.182 0.015
0.322 0.178 0.014
0.327 0.184 0.015
0.329 0.189 0.015
0.330 0.193 0.015
0.326 0.195 0.015
0.324 0.197 0.015
0.321 0.199 0.015
0.320 0.202 0.015
0.318 0.204 0.015
0.315 0.206 0.015
0.313 0.209 0.015
0.312 0.212 0.015
0.310 0.214 0.014
0.308 0.217 0.014
0.330 0.236 0.016
0.332 0.242 0.016
0.320 0.250 0.015
0.425 0.343 0.021
0.432 0.355 0.021
0.434 0.362 0.021
0.429 0.364 0.021
0.427 0.369 0.021
0.451 0.424 0.023
0.448 0.427 0.023
0.451 0.438 0.023
0.451 0.444 0.024
0.451 0.452 0.024
0.449 0.457 0.024
0.446 0.462 0.024
0.366 0.398 0.020
0.366 0.406 0.020
0.498 0.589 0.028
0.495 0.595 0.028
0.185 -0.255 0.013
0.175 -0.238 0.013
0.177 -0.237 0.013
0.178 -0.236 0.013
0.180 -0.235 0.013
0.182 -0.234 0.013
0.183 -0.233 0.013
0.185 -0.232 0.013
0.187 -0.231 0.013
0.189 -0.230 0.013
0.191 -0.229 0.013
0.194 -0.229 0.013
0.196 -0.228 0.013
0.197 -0.226 0.013
0.199 -0.225 0.013
0.201 -0.223 0.013
0.203 -0.222 0.013
0.205 -0.221 0.013
0.207 -0.220 0.013
0.209 -0.219 0.013
0.211 -0.217 0.013
0.213 -0.216 0.013
0.216 -0.216 0.013
0.219 -0.215 0.014
0.222 -0.215 0.014
0.224 -0.214 0.014
0.226 -0.212 0.014
0.228 -0.211 0.014
0.231 -0.211 0.014
0.234 -0.210 0.014
0.236 -0.208 0.014
0.239 -0.207 0.014
0.243 -0.208 0.014
0.245 -0.206 0.014
0.247 -0.204 0.014
0.248 -0.202 0.014
0.251 -0.201 0.015
0.218 -0.169 0.013
0.211 -0.161 0.012
0.209 -0.157 0.012
0.211 -0.156 0.012
0.211 -0.153 0.012
0.205 -0.147 0.012
0.216 -0.152 0.012
0.207 -0.143 0.012
0.204 -0.139 0.011
0.205 -0.137 0.011
0.206 -0.135 0.011
0.208 -0.134 0.012
0.208 -0.132 0.011
0.208 -0.129 0.011
0.211 -0.129 0.012
0.216 -0.130 0.012
0.217 -0.128 0.012
0.213 -0.123 0.012
0.212 -0.120 0.011
0.214 -0.119 0.012
0.219 -0.120 0.012
0.227 -0.122 0.012
0.223 -0.117 0.012
0.216 -0.111 0.012
0.216 -0.109 0.012
0.215 -0.106 0.011
0.217 -0.105 0.012
0.217 -0.103 0.012
0.209 -0.097 0.011
0.212 -0.096 0.011
0.220 -0.097 0.012
0.222 -0.096 0.012
0.225 -0.095 0.012
0.227 -0.094 0.012
0.221 -0.089 0.012
0.219 -0.086 0.011
0.214 -0.082 0.011
0.214 -0.080 0.011
0.224 -0.081 0.012
0.234 -0.083 0.012
0.238 -0.082 0.012
0.238 -0.080 0.012
0.243 -0.079 0.013
0.248 -0.078 0.013
0.256 -0.078 0.013
0.264 -0.078 0.014
0.275 -0.079 0.014
0.401 -0.108 0.021
0.408 -0.106 0.021
0.414 -0.103 0.021
0.427 -0.103 0.022
0.424 -0.098 0.022
0.372 -0.079 0.019
0.368 -0.075 0.019
0.376 -0.073 0.019
0.371 -0.069 0.019
0.290 -0.048 0.015
0.289 -0.046 0.015
0.285 -0.042 0.014
0.284 -0.040 0.014
0.286 -0.037 0.014
0.288 -0.035 0.015
0.288 -0.032 0.015
0.285 -0.030 0.014
0.288 -0.027 0.015
0.293 -0.025 0.015
0.295 -0.023 0.015
0.291 -0.020 0.015
0.290 -0.017 0.015
0.287 -0.014 0.015
0.294 -0.012 0.015
0.307 -0.010 0.016
0.313 -0.007 0.016
0.316 -0.004 0.016
0.311 -0.001 0.016
0.304 0.001 0.015
0.301 0.004 0.015
0.306 0.007 0.015
0.297 0.009 0.015
0.295 0.012 0.015
0.301 0.015 0.015
0.309 0.018 0.016
0.316 0.021 0.016
0.321 0.024 0.016
0.322 0.027 0.016
0.317 0.030 0.016
0.317 0.033 0.016
0.315 0.035 0.016
0.314 0.038 0.016
0.315 0.041 0.016
0.318 0.044 0.016
0.323 0.048 0.016
0.320 0.051 0.016
0.323 0.054 0.016
0.320 0.056 0.016
0.321 0.060 0.016
0.314 0.061 0.016
0.330 0.067 0.017
0.334 0.071 0.017
0.333 0.074 0.017
0.317 0.073 0.016
0.303 0.073 0.016
0.307 0.077 0.016
0.318 0.083 0.016
0.327 0.088 0.017
0.318 0.089 0.016
0.323 0.093 0.017
0.324 0.097 0.017
0.330 0.101 0.017
0.337 0.107 0.017
0.326 0.106 0.017
0.315 0.106 0.016
0.309 0.107 0.016
0.309 0.110 0.016
0.320 0.117 0.017
0.332 0.125 0.017
0.323 0.124 0.017
0.326 0.129 0.017
0.422 0.175 0.022
0.421 0.179 0.022
0.412 0.179 0.022
0.402 0.179 0.021
0.393 0.179 0.021
0.385 0.180 0.021
0.379 0.181 0.020
0.371 0.181 0.020
0.369 0.184 0.020
0.367 0.187 0.020
0.343 0.178 0.019
0.347 0.184 0.019
0.344 0.186 0.019
0.332 0.183 0.018
0.324 0.182 0.018
0.326 0.187 0.018
0.327 0.192 0.018
0.325 0.194 0.018
0.323 0.196 0.018
0.321 0.199 0.018
0.318 0.201 0.018
0.315 0.203 0.018
0.315 0.206 0.018
0.313 0.209 0.018
0.310 0.210 0.018
0.308 0.213 0.017
0.307 0.216 0.017
0.327 0.234 0.019
0.325 0.237 0.019
0.306 0.235 0.018
0.308 0.240 0.018
0.438 0.360 0.026
0.437 0.365 0.026
0.433 0.368 0.026
0.428 0.370 0.026
0.446 0.419 0.028
0.452 0.431 0.028
0.451 0.438 0.028
0.450 0.443 0.028
0.449 0.450 0.029
0.450 0.458 0.029
0.446 0.463 0.029
0.438 0.485 0.029
0.428 0.482 0.029
0.426 0.487 0.029
0.181 -0.250 0.015
0.177 -0.241 0.015
0.176 -0.237 0.015
0.179 -0.237 0.015
0.180 -0.235 0.015
0.182 -0.235 0.015
0.184 -0.234 0.015
0.186 -0.233 0.015
0.187 -0.231 0.015
0.190 -0.231 0.015
0.192 -0.230 0.015
0.194 -0.229 0.015
0.195 -0.227 0.015
0.196 -0.225 0.015
0.198 -0.224 0.015
0.201 -0.223 0.015
0.203 -0.223 0.015
0.205 -0.222 0.015
0.207 -0.220 0.016
0.208 -0.218 0.016
0.211 -0.217 0.016
0.213 -0.217 0.016
0.216 -0.216 0.016
0.219 -0.216 0.016
0.221 -0.215 0.016
0.224 -0.214 0.016
0.226 -0.212 0.016
0.228 -0.211 0.016
0.231 -0.211 0.016
0.234 -0.210 0.017
0.236 -0.209 0.017
0.239 -0.208 0.017
0.242 -0.207 0.017
0.245 -0.206 0.017
0.246 -0.204 0.017
0.248 -0.202 0.017
0.250 -0.200 0.017
0.241 -0.190 0.016
0.221 -0.171 0.015
0.215 -0.164 0.014
0.214 -0.161 0.014
0.217 -0.161 0.015
0.213 -0.155 0.014
0.213 -0.152 0.014
0.212 -0.149 0.014
0.208 -0.143 0.014
0.207 -0.141 0.014
0.206 -0.138 0.014
0.207 -0.136 0.014
0.210 -0.135 0.014
0.208 -0.132 0.013
0.200 -0.124 0.013
0.208 -0.127 0.013
0.213 -0.128 0.014
0.213 -0.126 0.014
0.212 -0.122 0.014
0.212 -0.120 0.014
0.213 -0.119 0.014
0.217 -0.119 0.014
0.225 -0.120 0.014
0.219 -0.115 0.014
0.216 -0.111 0.014
0.200 -0.101 0.013
0.213 -0.105 0.013
0.201 -0.097 0.013
0.206 -0.097 0.013
0.203 -0.094 0.013
0.205 -0.093 0.013
0.206 -0.091 0.013
0.221 -0.096 0.014
0.222 -0.094 0.014
0.220 -0.091 0.014
0.218 -0.088 0.013
0.219 -0.086 0.013
0.212 -0.081 0.013
0.215 -0.080 0.013
0.225 -0.082 0.014
0.236 -0.083 0.014
0.238 -0.082 0.015
0.243 -0.081 0.015
0.237 -0.077 0.014
0.244 -0.077 0.015
0.257 -0.079 0.016
0.278 -0.083 0.017
0.281 -0.081 0.017
0.401 -0.108 0.024
0.406 -0.105 0.025
0.415 -0.104 0.025
0.426 -0.103 0.026
0.419 -0.097 0.025
0.406 -0.090 0.024
0.377 -0.080 0.023
0.370 -0.075 0.022
0.382 -0.074 0.023
0.291 -0.049 0.017
0.290 -0.046 0.017
0.287 -0.043 0.017
0.283 -0.040 0.017
0.285 -0.037 0.017
0.288 -0.035 0.017
0.287 -0.032 0.017
0.286 -0.030 0.017
0.289 -0.027 0.017
0.294 -0.025 0.018
0.296 -0.023 0.018
0.291 -0.020 0.017
0.288 -0.017 0.017
0.287 -0.014 0.017
0.286 -0.012 0.017
0.294 -0.009 0.017
0.300 -0.007 0.018
0.329 -0.005 0.020
0.328 -0.002 0.019
0.308 0.001 0.018
0.307 0.004 0.018
0.306 0.007 0.018
0.315 0.010 0.019
0.310 0.012 0.018
0.306 0.015 0.018
0.313 0.018 0.019
0.317 0.021 0.019
0.320 0.024 0.019
0.318 0.027 0.019
0.315 0.030 0.019
0.311 0.032 0.019
0.314 0.035 0.019
0.317 0.038 0.019
0.319 0.042 0.019
0.320 0.045 0.019
0.319 0.048 0.019
0.323 0.051 0.019
0.324 0.054 0.019
0.321 0.057 0.019
0.318 0.059 0.019
0.317 0.062 0.019
0.319 0.065 0.019
0.334 0.071 0.020
0.337 0.075 0.020
0.316 0.073 0.019
0.300 0.072 0.018
0.306 0.077 0.019
0.324 0.084 0.020
0.326 0.088 0.020
0.325 0.091 0.020
0.317 0.091 0.019
0.325 0.097 0.020
0.329 0.101 0.020
0.333 0.106 0.020
0.326 0.107 0.020
0.313 0.105 0.019
0.306 0.106 0.019
0.306 0.109 0.019
0.315 0.115 0.019
0.321 0.121 0.020
0.320 0.123 0.020
0.425 0.176 0.026
0.427 0.182 0.027
0.419 0.182 0.026
0.402 0.179 0.025
0.394 0.180 0.025
0.389 0.181 0.024
0.383 0.183 0.024
0.371 0.181 0.023
0.367 0.183 0.023
0.361 0.184 0.023
0.352 0.183 0.022
0.341 0.181 0.022
0.337 0.183 0.022
0.330 0.182 0.021
0.327 0.184 0.021
0.324 0.186 0.021
0.322 0.188 0.021
0.322 0.192 0.021
0.320 0.194 0.021
0.318 0.197 0.021
0.317 0.200 0.021
0.314 0.202 0.021
0.309 0.202 0.020
0.308 0.205 0.020
0.307 0.208 0.020
0.305 0.211 0.020
0.304 0.214 0.020
0.302 0.217 0.020
0.299 0.218 0.020
0.296 0.219 0.020
0.295 0.223 0.020
0.298 0.228 0.020
0.296 0.231 0.020
0.288 0.229 0.020
0.279 0.245 0.020
0.276 0.246 0.020
0.275 0.250 0.020
0.449 0.435 0.033
0.447 0.441 0.033
0.445 0.446 0.033
0.429 0.467 0.033
0.431 0.477 0.033
0.296 0.385 0.025
0.180 -0.248 0.017
0.177 -0.241 0.017
0.178 -0.239 0.017
0.178 -0.236 0.017
0.180 -0.236 0.017
0.182 -0.234 0.017
0.184 -0.234 0.017
0.186 -0.233 0.017
0.187 -0.232 0.017
0.189 -0.230 0.017
0.191 -0.230 0.017
0.193 -0.228 0.017
0.194 -0.226 0.017
0.196 -0.225 0.017
0.198 -0.224 0.017
0.200 -0.223 0.018
0.203 -0.222 0.018
0.205 -0.222 0.018
0.207 -0.221 0.018
0.209 -0.219 0.018
0.212 -0.218 0.018
0.214 -0.217 0.018
0.216 -0.216 0.018
0.219 -0.216 0.018
0.221 -0.215 0.018
0.224 -0.214 0.018
0.225 -0.212 0.019
0.228 -0.211 0.019
0.231 -0.210 0.019
0.234 -0.210 0.019
0.236 -0.209 0.019
0.239 -0.208 0.019
0.242 -0.207 0.019
0.245 -0.206 0.019
0.246 -0.204 0.020
0.248 -0.203 0.020
0.249 -0.200 0.019
0.234 -0.185 0.018
0.221 -0.172 0.017
0.213 -0.163 0.017
0.215 -0.162 0.017
0.214 -0.158 0.016
0.214 -0.156 0.016
0.213 -0.152 0.016
0.213 -0.150 0.016
0.211 -0.146 0.016
0.210 -0.143 0.016
0.209 -0.140 0.016
0.210 -0.138 0.016
0.212 -0.137 0.016
0.215 -0.136 0.016
0.206 -0.128 0.015
0.203 -0.124 0.015
0.210 -0.126 0.016
0.214 -0.126 0.016
0.213 -0.123 0.016
0.213 -0.121 0.016
0.213 -0.118 0.016
0.216 -0.118 0.016
0.213 -0.114 0.015
0.214 -0.112 0.016
0.210 -0.108 0.015
0.206 -0.104 0.015
0.201 -0.099 0.014
0.214 -0.103 0.015
0.200 -0.094 0.014
0.207 -0.096 0.015
0.203 -0.092 0.015
0.203 -0.090 0.015
0.212 -0.092 0.015
0.220 -0.093 0.016
0.220 -0.091 0.016
0.222 -0.089 0.016
0.220 -0.086 0.016
0.217 -0.083 0.015
0.206 -0.077 0.015
0.229 -0.083 0.016
0.235 -0.083 0.017
0.236 -0.081 0.017
0.238 -0.079 0.017
0.251 -0.082 0.018
0.245 -0.077 0.017
0.247 -0.076 0.017
0.275 -0.081 0.019
0.284 -0.082 0.020
0.404 -0.109 0.028
0.409 -0.106 0.028
0.416 -0.104 0.029
0.423 -0.102 0.029
0.434 -0.100 0.030
0.376 -0.080 0.026
0.372 -0.076 0.026
0.376 -0.073 0.026
0.291 -0.049 0.020
0.290 -0.046 0.020
0.288 -0.043 0.020
0.284 -0.040 0.020
0.287 -0.038 0.020
0.289 -0.035 0.020
0.289 -0.033 0.020
0.289 -0.030 0.020
0.291 -0.028 0.020
0.294 -0.025 0.020
0.298 -0.023 0.020
0.299 -0.020 0.020
0.294 -0.017 0.020
0.291 -0.014 0.020
0.288 -0.012 0.020
0.288 -0.009 0.020
0.295 -0.007 0.020
0.314 -0.004 0.022
0.325 -0.002 0.022
0.301 0.001 0.021
0.307 0.004 0.021
0.319 0.007 0.022
0.308 0.010 0.021
0.308 0.012 0.021
0.307 0.015 0.021
0.317 0.018 0.022
0.318 0.021 0.022
0.318 0.024 0.022
0.312 0.027 0.021
0.307 0.029 0.021
0.304 0.031 0.021
0.309 0.035 0.021
0.310 0.038 0.021
0.311 0.041 0.021
0.309 0.043 0.021
0.309 0.046 0.021
0.313 0.049 0.022
0.321 0.054 0.022
0.314 0.055 0.022
0.310 0.058 0.021
0.316 0.062 0.022
0.317 0.065 0.022
0.317 0.068 0.022
0.336 0.075 0.023
0.324 0.075 0.023
0.315 0.076 0.022
0.320 0.080 0.022
0.322 0.084 0.022
0.324 0.087 0.023
0.319 0.089 0.022
0.331 0.096 0.023
0.330 0.098 0.023
0.335 0.103 0.023
0.330 0.105 0.023
0.322 0.105 0.023
0.320 0.108 0.023
0.315 0.109 0.022
0.315 0.112 0.022
0.317 0.116 0.022
0.320 0.120 0.023
0.328 0.127 0.023
0.426 0.177 0.030
0.426 0.182 0.031
0.420 0.183 0.030
0.408 0.182 0.029
0.396 0.181 0.029
0.391 0.182 0.028
0.384 0.183 0.028
0.375 0.183 0.027
0.370 0.184 0.027
0.356 0.181 0.026
0.351 0.183 0.026
0.346 0.184 0.025
0.337 0.183 0.025
0.333 0.184 0.025
0.329 0.185 0.024
0.325 0.187 0.024
0.316 0.185 0.023
0.312 0.186 0.023
0.308 0.188 0.023
0.306 0.190 0.023
0.302 0.191 0.023
0.308 0.198 0.023
0.305 0.200 0.023
0.304 0.203 0.023
0.303 0.206 0.023
0.301 0.208 0.023
0.299 0.210 0.023
0.299 0.214 0.023
0.297 0.217 0.023
0.295 0.219 0.023
0.294 0.222 0.023
0.295 0.227 0.023
0.291 0.227 0.023
0.287 0.228 0.023
0.269 0.225 0.022
0.266 0.226 0.021
0.267 0.231 0.022
0.267 0.235 0.022
0.269 0.240 0.022
0.272 0.247 0.022
0.415 0.445 0.036
0.422 0.461 0.037
0.348 0.398 0.031
0.338 0.394 0.031
0.337 0.399 0.031
0.328 0.394 0.030
0.326 0.398 0.030
0.322 0.400 0.030
0.318 0.401 0.030
0.308 0.394 0.029
0.298 0.388 0.029
0.176 -0.242 0.019
0.178 -0.243 0.019
0.179 -0.240 0.019
0.180 -0.238 0.019
0.180 -0.235 0.019
0.182 -0.234 0.019
0.184 -0.234 0.019
0.186 -0.233 0.019
0.187 -0.231 0.019
0.189 -0.230 0.019
0.191 -0.229 0.019
0.193 -0.228 0.020
0.195 -0.227 0.020
0.196 -0.225 0.020
0.198 -0.224 0.020
0.200 -0.223 0.020
0.202 -0.222 0.020
0.204 -0.221 0.020
0.207 -0.221 0.020
0.210 -0.220 0.020
0.212 -0.219 0.020
0.213 -0.217 0.020
0.216 -0.216 0.020
0.218 -0.215 0.021
0.221 -0.215 0.021
0.224 -0.214 0.021
0.225 -0.212 0.021
0.228 -0.211 0.021
0.230 -0.210 0.021
0.233 -0.210 0.021
0.236 -0.209 0.022
0.239 -0.208 0.022
0.242 -0.207 0.022
0.245 -0.206 0.022
0.248 -0.205 0.022
0.249 -0.203 0.022
0.249 -0.200 0.022
0.214 -0.166 0.019
0.206 -0.158 0.018
0.208 -0.156 0.018
0.212 -0.157 0.018
0.209 -0.152 0.018
0.211 -0.151 0.018
0.213 -0.150 0.018
0.213 -0.147 0.018
0.210 -0.143 0.018
0.211 -0.141 0.018
0.211 -0.139 0.018
0.212 -0.137 0.018
0.212 -0.134 0.018
0.207 -0.129 0.017
0.205 -0.126 0.017
0.206 -0.124 0.017
0.210 -0.124 0.017
0.213 -0.123 0.018
0.213 -0.121 0.018
0.214 -0.119 0.018
0.212 -0.116 0.018
0.214 -0.114 0.018
0.213 -0.112 0.017
0.211 -0.108 0.017
0.208 -0.105 0.017
0.208 -0.103 0.017
0.212 -0.102 0.017
0.208 -0.098 0.017
0.214 -0.099 0.017
0.210 -0.095 0.017
0.209 -0.092 0.017
0.216 -0.093 0.017
0.217 -0.092 0.017
0.220 -0.091 0.018
0.221 -0.089 0.018
0.222 -0.087 0.018
0.221 -0.085 0.018
0.219 -0.082 0.017
0.221 -0.080 0.018
0.227 -0.080 0.018
0.230 -0.079 0.018
0.234 -0.078 0.019
0.249 -0.081 0.020
0.248 -0.078 0.020
0.248 -0.076 0.020
0.259 -0.077 0.020
0.403 -0.108 0.032
0.407 -0.106 0.032
0.418 -0.105 0.033
0.423 -0.102 0.033
0.414 -0.096 0.032
0.358 -0.073 0.028
0.357 -0.070 0.028
0.352 -0.065 0.027
0.291 -0.049 0.023
0.289 -0.046 0.023
0.288 -0.043 0.022
0.290 -0.041 0.023
0.290 -0.038 0.023
0.289 -0.035 0.022
0.289 -0.033 0.022
0.289 -0.030 0.022
0.289 -0.027 0.022
0.292 -0.025 0.023
0.297 -0.023 0.023
0.307 -0.021 0.024
0.306 -0.018 0.024
0.302 -0.015 0.023
0.296 -0.012 0.023
0.287 -0.009 0.022
0.289 -0.007 0.022
0.303 -0.004 0.024
0.311 -0.001 0.024
0.301 0.001 0.023
0.304 0.004 0.024
0.318 0.007 0.025
0.319 0.010 0.025
0.303 0.012 0.024
0.297 0.015 0.023
0.310 0.018 0.024
0.317 0.021 0.025
0.315 0.024 0.024
0.315 0.027 0.024
0.310 0.029 0.024
0.309 0.032 0.024
0.312 0.035 0.024
0.310 0.038 0.024
0.306 0.040 0.024
0.301 0.042 0.023
0.304 0.045 0.024
0.310 0.049 0.024
0.314 0.053 0.025
0.306 0.054 0.024
0.304 0.056 0.024
0.316 0.062 0.025
0.313 0.064 0.025
0.317 0.068 0.025
0.323 0.072 0.025
0.326 0.076 0.026
0.318 0.077 0.025
0.321 0.081 0.025
0.320 0.083 0.025
0.318 0.086 0.025
0.326 0.091 0.026
0.333 0.096 0.026
0.344 0.103 0.027
0.339 0.104 0.027
0.333 0.106 0.026
0.335 0.109 0.027
0.330 0.111 0.026
0.330 0.114 0.026
0.323 0.115 0.026
0.320 0.117 0.026
0.317 0.119 0.025
0.321 0.124 0.026
0.419 0.174 0.034
0.422 0.180 0.034
0.414 0.181 0.034
0.408 0.182 0.033
0.400 0.183 0.033
0.389 0.182 0.032
0.382 0.182 0.031
0.376 0.183 0.031
0.366 0.183 0.030
0.356 0.181 0.029
0.349 0.182 0.029
0.346 0.184 0.029
0.340 0.184 0.028
0.334 0.185 0.028
0.329 0.186 0.028
0.321 0.184 0.027
0.311 0.182 0.026
0.308 0.184 0.026
0.306 0.186 0.026
0.302 0.188 0.026
0.299 0.189 0.025
0.290 0.187 0.025
0.286 0.187 0.024
0.284 0.190 0.024
0.283 0.193 0.024
0.281 0.195 0.024
0.278 0.196 0.024
0.273 0.196 0.024
0.269 0.196 0.024
0.268 0.199 0.024
0.266 0.201 0.023
0.266 0.204 0.024
0.265 0.207 0.024
0.263 0.209 0.024
0.262 0.212 0.024
0.261 0.214 0.024
0.259 0.217 0.024
0.258 0.219 0.023
0.257 0.222 0.024
0.258 0.227 0.024
0.260 0.233 0.024
0.260 0.237 0.024
0.258 0.238 0.024
0.259 0.243 0.024
0.262 0.250 0.025
0.261 0.254 0.025
0.442 0.458 0.043
0.440 0.465 0.043
0.406 0.436 0.040
0.360 0.405 0.036
0.356 0.409 0.036
0.334 0.389 0.034
0.328 0.388 0.034
0.323 0.389 0.034
0.315 0.385 0.033
0.317 0.394 0.033
0.307 0.387 0.033
0.301 0.387 0.032
0.302 0.393 0.033
0.181 -0.250 0.022
0.179 -0.243 0.021
0.180 -0.242 0.021
0.180 -0.239 0.021
0.180 -0.235 0.021
0.181 -0.234 0.021
0.183 -0.233 0.021
0.185 -0.232 0.021
0.187 -0.231 0.021
0.189 -0.230 0.022
0.191 -0.229 0.022
0.192 -0.228 0.022
0.195 -0.228 0.022
0.196 -0.225 0.022
0.198 -0.224 0.022
0.201 -0.224 0.022
0.202 -0.222 0.022
0.204 -0.221 0.022
0.207 -0.220 0.022
0.209 -0.220 0.022
0.211 -0.218 0.023
0.213 -0.216 0.023
0.216 -0.216 0.023
0.218 -0.215 0.023
0.221 -0.215 0.023
0.223 -0.213 0.023
0.225 -0.212 0.023
0.228 -0.211 0.023
0.231 -0.210 0.024
0.234 -0.210 0.024
0.237 -0.209 0.024
0.239 -0.208 0.024
0.241 -0.207 0.024
0.245 -0.206 0.025
0.247 -0.205 0.025
0.250 -0.204 0.025
0.249 -0.200 0.025
0.241 -0.191 0.024
0.216 -0.168 0.021
0.208 -0.159 0.020
0.210 -0.158 0.020
0.213 -0.158 0.021
0.210 -0.153 0.020
0.209 -0.149 0.020
0.211 -0.149 0.020
0.210 -0.145 0.020
0.210 -0.143 0.020
0.207 -0.139 0.020
0.207 -0.136 0.020
0.209 -0.135 0.020
0.209 -0.133 0.020
0.209 -0.130 0.020
0.208 -0.127 0.019
0.204 -0.122 0.019
0.206 -0.121 0.019
0.210 -0.121 0.019
0.217 -0.123 0.020
0.211 -0.118 0.020
0.213 -0.117 0.020
0.217 -0.116 0.020
0.218 -0.114 0.020
0.215 -0.111 0.020
0.203 -0.102 0.019
0.206 -0.102 0.019
0.206 -0.099 0.019
0.212 -0.100 0.019
0.202 -0.093 0.018
0.206 -0.093 0.019
0.205 -0.091 0.018
0.207 -0.090 0.019
0.219 -0.093 0.020
0.220 -0.091 0.020
0.221 -0.089 0.020
0.225 -0.088 0.020
0.218 -0.084 0.019
0.217 -0.081 0.019
0.213 -0.078 0.019
0.218 -0.077 0.019
0.226 -0.078 0.020
0.239 -0.080 0.021
0.243 -0.079 0.021
0.248 -0.078 0.022
0.249 -0.076 0.022
0.256 -0.076 0.023
0.403 -0.108 0.035
0.407 -0.106 0.036
0.417 -0.104 0.036
0.423 -0.102 0.037
0.414 -0.096 0.036
0.353 -0.072 0.031
0.357 -0.070 0.031
0.351 -0.065 0.031
0.291 -0.049 0.025
0.288 -0.045 0.025
0.289 -0.043 0.025
0.292 -0.041 0.025
0.289 -0.038 0.025
0.288 -0.035 0.025
0.286 -0.032 0.025
0.288 -0.030 0.025
0.287 -0.027 0.025
0.288 -0.025 0.025
0.291 -0.022 0.025
0.298 -0.020 0.026
0.309 -0.018 0.027
0.311 -0.015 0.027
0.298 -0.012 0.026
0.294 -0.009 0.025
0.292 -0.007 0.025
0.292 -0.004 0.025
0.297 -0.001 0.026
0.303 0.001 0.026
0.304 0.004 0.026
0.314 0.007 0.027
0.321 0.010 0.028
0.319 0.013 0.028
0.312 0.015 0.027
0.319 0.019 0.028
0.317 0.021 0.027
0.315 0.024 0.027
0.315 0.027 0.027
0.321 0.030 0.028
0.314 0.032 0.027
0.316 0.036 0.027
0.317 0.039 0.028
0.309 0.040 0.027
0.305 0.043 0.027
0.312 0.046 0.027
0.315 0.050 0.027
0.312 0.052 0.027
0.302 0.053 0.026
0.307 0.057 0.027
0.316 0.062 0.028
0.317 0.068 0.028
0.327 0.073 0.029
0.324 0.075 0.028
0.312 0.075 0.027
0.313 0.079 0.028
0.308 0.080 0.027
0.314 0.085 0.028
0.322 0.090 0.028
0.330 0.095 0.029
0.330 0.098 0.029
0.330 0.102 0.029
0.327 0.104 0.029
0.333 0.109 0.030
0.339 0.114 0.030
0.331 0.115 0.030
0.324 0.116 0.029
0.318 0.116 0.028
0.314 0.118 0.028
0.318 0.123 0.029
0.420 0.175 0.038
0.416 0.177 0.038
0.412 0.180 0.037
0.408 0.182 0.037
0.399 0.182 0.036
0.390 0.182 0.036
0.379 0.181 0.035
0.371 0.181 0.034
0.364 0.182 0.033
0.360 0.184 0.033
0.351 0.183 0.032
0.342 0.181 0.032
0.338 0.183 0.031
0.333 0.184 0.031
0.322 0.182 0.030
0.318 0.183 0.030
0.313 0.183 0.029
0.307 0.183 0.029
0.304 0.185 0.029
0.300 0.186 0.028
0.295 0.187 0.028
0.290 0.187 0.028
0.285 0.187 0.027
0.282 0.188 0.027
0.276 0.187 0.027
0.269 0.186 0.026
0.265 0.187 0.026
0.262 0.188 0.025
0.259 0.189 0.025
0.259 0.192 0.025
0.260 0.197 0.026
0.260 0.200 0.026
0.260 0.203 0.026
0.262 0.208 0.026
0.260 0.211 0.026
0.260 0.214 0.026
0.259 0.217 0.026
0.258 0.219 0.026
0.257 0.223 0.026
0.258 0.227 0.026
0.257 0.230 0.027
0.257 0.234 0.027
0.258 0.238 0.027
0.255 0.240 0.027
0.257 0.246 0.027
0.257 0.250 0.027
0.257 0.254 0.027
0.437 0.454 0.048
0.434 0.459 0.048
0.366 0.413 0.041
0.367 0.421 0.042
0.325 0.391 0.038
0.322 0.394 0.038
0.314 0.391 0.037
0.304 0.385 0.036
0.302 0.387 0.036
0.300 0.391 0.036
0.170 -0.234 0.022
0.180 -0.245 0.024
0.180 -0.243 0.024
0.180 -0.239 0.023
0.180 -0.236 0.023
0.181 -0.234 0.023
0.183 -0.233 0.023
0.185 -0.232 0.023
0.186 -0.231 0.024
0.189 -0.230 0.024
0.191 -0.230 0.024
0.194 -0.229 0.024
0.195 -0.228 0.024
0.197 -0.226 0.024
0.199 -0.225 0.024
0.201 -0.224 0.024
0.203 -0.223 0.024
0.204 -0.221 0.024
0.207 -0.220 0.025
0.209 -0.219 0.025
0.210 -0.217 0.025
0.212 -0.216 0.025
0.216 -0.217 0.025
0.219 -0.216 0.025
0.221 -0.215 0.025
0.224 -0.214 0.026
0.226 -0.212 0.026
0.228 -0.211 0.026
0.231 -0.211 0.026
0.234 -0.211 0.026
0.237 -0.210 0.027
0.239 -0.208 0.027
0.242 -0.207 0.027
0.245 -0.207 0.027
0.248 -0.206 0.027
0.249 -0.203 0.027
0.250 -0.201 0.027
0.242 -0.191 0.026
0.225 -0.175 0.024
0.213 -0.163 0.023
0.213 -0.161 0.023
0.216 -0.160 0.023
0.217 -0.158 0.023
0.213 -0.153 0.023
0.210 -0.148 0.022
0.211 -0.146 0.022
0.209 -0.142 0.022
0.209 -0.140 0.022
0.208 -0.137 0.022
0.208 -0.134 0.022
0.209 -0.133 0.022
0.209 -0.130 0.022
0.210 -0.128 0.022
0.208 -0.125 0.021
0.204 -0.120 0.021
0.207 -0.120 0.021
0.218 -0.124 0.022
0.212 -0.118 0.022
0.207 -0.113 0.021
0.214 -0.114 0.022
0.217 -0.114 0.022
0.217 -0.112 0.022
0.215 -0.109 0.022
0.209 -0.103 0.021
0.211 -0.102 0.021
0.204 -0.097 0.020
0.214 -0.099 0.021
0.204 -0.092 0.020
0.208 -0.092 0.021
0.209 -0.090 0.021
0.220 -0.093 0.022
0.221 -0.091 0.022
0.219 -0.088 0.022
0.220 -0.087 0.022
0.218 -0.084 0.022
0.210 -0.079 0.021
0.215 -0.078 0.021
0.219 -0.078 0.021
0.224 -0.077 0.022
0.234 -0.078 0.023
0.242 -0.079 0.024
0.243 -0.077 0.024
0.256 -0.079 0.025
0.256 -0.076 0.025
0.265 -0.076 0.026
0.405 -0.109 0.039
0.411 -0.107 0.040
0.417 -0.104 0.040
0.420 -0.101 0.041
0.424 -0.098 0.041
0.359 -0.073 0.035
0.364 -0.071 0.035
0.352 -0.065 0.034
0.286 -0.048 0.027
0.285 -0.045 0.027
0.287 -0.043 0.028
0.287 -0.040 0.027
0.288 -0.038 0.028
0.286 -0.035 0.027
0.286 -0.032 0.027
0.288 -0.030 0.028
0.288 -0.027 0.028
0.285 -0.024 0.027
0.288 -0.022 0.028
0.292 -0.020 0.028
0.297 -0.017 0.028
0.297 -0.015 0.028
0.310 -0.013 0.030
0.296 -0.009 0.028
0.294 -0.007 0.028
0.291 -0.004 0.028
0.294 -0.001 0.028
0.302 0.001 0.029
0.305 0.004 0.029
0.303 0.007 0.029
0.311 0.010 0.030
0.315 0.013 0.030
0.318 0.016 0.030
0.320 0.019 0.031
0.321 0.022 0.031
0.308 0.024 0.029
0.305 0.026 0.029
0.318 0.030 0.030
0.320 0.033 0.031
0.320 0.036 0.031
0.319 0.039 0.031
0.320 0.042 0.031
0.317 0.044 0.030
0.319 0.048 0.031
0.319 0.050 0.031
0.309 0.052 0.030
0.318 0.059 0.031
0.321 0.063 0.031
0.309 0.063 0.030
0.309 0.066 0.030
0.322 0.072 0.031
0.312 0.072 0.030
0.303 0.073 0.029
0.301 0.076 0.029
0.301 0.078 0.029
0.311 0.084 0.030
0.321 0.090 0.031
0.321 0.093 0.031
0.318 0.095 0.031
0.314 0.097 0.031
0.318 0.101 0.031
0.318 0.104 0.031
0.327 0.110 0.032
0.325 0.113 0.032
0.320 0.114 0.031
0.318 0.117 0.031
0.317 0.119 0.031
0.317 0.122 0.031
0.328 0.130 0.033
0.414 0.172 0.041
0.411 0.175 0.041
0.408 0.178 0.041
0.406 0.182 0.041
0.401 0.183 0.040
0.388 0.181 0.039
0.381 0.182 0.038
0.369 0.180 0.037
0.364 0.182 0.037
0.359 0.183 0.036
0.354 0.184 0.036
0.342 0.182 0.035
0.336 0.182 0.034
0.330 0.182 0.034
0.327 0.184 0.034
0.318 0.183 0.033
0.315 0.185 0.033
0.309 0.185 0.032
0.303 0.184 0.032
0.298 0.185 0.031
0.294 0.186 0.031
0.289 0.186 0.030
0.284 0.187 0.030
0.280 0.187 0.030
0.272 0.185 0.029
0.268 0.186 0.029
0.265 0.187 0.028
0.263 0.188 0.028
0.261 0.191 0.028
0.261 0.194 0.028
0.261 0.197 0.028
0.260 0.200 0.028
0.259 0.202 0.028
0.259 0.206 0.028
0.260 0.210 0.029
0.259 0.213 0.029
0.259 0.217 0.029
0.258 0.220 0.029
0.258 0.223 0.029
0.258 0.227 0.029
0.257 0.230 0.029
0.256 0.233 0.029
0.255 0.236 0.029
0.256 0.241 0.030
0.256 0.245 0.030
0.256 0.249 0.030
0.254 0.252 0.030
0.397 0.420 0.048
0.311 0.387 0.040
0.306 0.388 0.040
0.301 0.387 0.040
0.297 0.388 0.039
0.183 -0.252 0.026
0.179 -0.244 0.026
0.179 -0.241 0.026
0.180 -0.239 0.026
0.180 -0.236 0.025
0.181 -0.234 0.025
0.183 -0.233 0.026
0.184 -0.232 0.026
0.186 -0.230 0.026
0.188 -0.229 0.026
0.191 -0.230 0.026
0.193 -0.229 0.026
0.195 -0.227 0.026
0.196 -0.226 0.026
0.198 -0.225 0.026
0.201 -0.224 0.027
0.203 -0.223 0.027
0.204 -0.221 0.027
0.207 -0.220 0.027
0.209 -0.219 0.027
0.210 -0.217 0.027
0.213 -0.217 0.027
0.216 -0.216 0.027
0.217 -0.215 0.028
0.222 -0.215 0.028
0.224 -0.214 0.028
0.226 -0.213 0.028
0.228 -0.211 0.028
0.230 -0.210 0.028
0.235 -0.211 0.029
0.238 -0.210 0.029
0.240 -0.210 0.029
0.243 -0.208 0.029
0.245 -0.207 0.030
0.249 -0.206 0.030
0.251 -0.205 0.030
0.250 -0.201 0.030
0.245 -0.194 0.029
0.223 -0.174 0.026
0.213 -0.163 0.025
0.210 -0.158 0.025
0.213 -0.158 0.025
0.215 -0.156 0.025
0.213 -0.153 0.025
0.211 -0.149 0.024
0.207 -0.143 0.024
0.206 -0.140 0.024
0.208 -0.139 0.024
0.211 -0.139 0.024
0.210 -0.135 0.024
0.206 -0.131 0.023
0.209 -0.130 0.024
0.211 -0.129 0.024
0.208 -0.125 0.023
0.205 -0.121 0.023
0.208 -0.120 0.023
0.214 -0.122 0.024
0.213 -0.119 0.024
0.204 -0.111 0.023
0.208 -0.111 0.023
0.212 -0.112 0.024
0.214 -0.110 0.024
0.217 -0.110 0.024
0.207 -0.102 0.023
0.212 -0.102 0.023
0.213 -0.101 0.023
0.216 -0.100 0.024
0.208 -0.094 0.023
0.210 -0.093 0.023
0.215 -0.093 0.023
0.220 -0.093 0.024
0.218 -0.090 0.024
0.217 -0.087 0.023
0.214 -0.084 0.023
0.214 -0.082 0.023
0.209 -0.078 0.022
0.214 -0.078 0.023
0.224 -0.080 0.024
0.228 -0.079 0.024
0.231 -0.078 0.025
0.239 -0.078 0.025
0.246 -0.078 0.026
0.251 -0.077 0.027
0.261 -0.078 0.028
0.263 -0.076 0.028
0.407 -0.109 0.043
0.412 -0.107 0.044
0.419 -0.105 0.044
0.419 -0.101 0.044
0.370 -0.076 0.039
0.368 -0.072 0.039
0.354 -0.066 0.037
0.282 -0.047 0.030
0.283 -0.045 0.030
0.283 -0.042 0.030
0.286 -0.040 0.030
0.288 -0.038 0.030
0.289 -0.035 0.030
0.289 -0.033 0.030
0.289 -0.030 0.030
0.287 -0.027 0.030
0.288 -0.025 0.030
0.286 -0.022 0.030
0.289 -0.020 0.030
0.291 -0.017 0.030
0.291 -0.014 0.030
0.292 -0.012 0.031
0.297 -0.009 0.031
0.292 -0.007 0.030
0.289 -0.004 0.030
0.296 -0.001 0.031
0.301 0.001 0.031
0.294 0.004 0.031
0.300 0.009 0.031
0.304 0.012 0.032
0.308 0.015 0.032
0.316 0.018 0.033
0.316 0.021 0.033
0.304 0.023 0.032
0.296 0.025 0.031
0.300 0.028 0.031
0.310 0.032 0.032
0.310 0.035 0.033
0.316 0.038 0.033
0.321 0.042 0.034
0.326 0.046 0.034
0.324 0.048 0.034
0.319 0.051 0.034
0.309 0.052 0.033
0.308 0.054 0.032
0.316 0.059 0.033
0.320 0.062 0.034
0.303 0.062 0.032
0.301 0.064 0.032
0.301 0.067 0.032
0.297 0.069 0.032
0.303 0.073 0.032
0.306 0.077 0.032
0.305 0.080 0.032
0.318 0.086 0.034
0.317 0.089 0.034
0.314 0.091 0.034
0.313 0.094 0.033
0.313 0.097 0.034
0.310 0.098 0.033
0.317 0.104 0.034
0.320 0.108 0.034
0.317 0.110 0.034
0.320 0.114 0.034
0.318 0.117 0.034
0.315 0.118 0.034
0.313 0.121 0.034
0.319 0.126 0.035
0.330 0.134 0.036
0.396 0.169 0.043
0.403 0.176 0.044
0.404 0.181 0.044
0.399 0.183 0.044
0.391 0.183 0.043
0.377 0.180 0.042
0.371 0.181 0.041
0.363 0.181 0.040
0.359 0.183 0.040
0.354 0.185 0.039
0.346 0.184 0.039
0.340 0.184 0.038
0.337 0.186 0.038
0.322 0.182 0.036
0.319 0.183 0.036
0.314 0.185 0.036
0.309 0.185 0.035
0.303 0.185 0.034
0.298 0.185 0.034
0.293 0.186 0.034
0.289 0.186 0.033
0.285 0.187 0.033
0.280 0.187 0.032
0.276 0.188 0.032
0.267 0.185 0.031
0.265 0.187 0.031
0.263 0.189 0.031
0.262 0.191 0.031
0.261 0.194 0.031
0.260 0.197 0.031
0.260 0.200 0.031
0.260 0.203 0.031
0.261 0.207 0.031
0.259 0.209 0.031
0.260 0.214 0.032
0.259 0.217 0.032
0.259 0.220 0.032
0.258 0.224 0.032
0.258 0.227 0.032
0.257 0.230 0.032
0.256 0.233 0.032
0.256 0.237 0.032
0.255 0.240 0.032
0.255 0.245 0.033
0.255 0.248 0.033
0.253 0.251 0.033
0.386 0.408 0.051
0.327 0.357 0.044
0.321 0.356 0.043
0.300 0.356 0.042
0.303 0.365 0.042
0.307 0.377 0.043
0.305 0.380 0.043
0.304 0.385 0.043
0.301 0.387 0.043
0.298 0.389 0.043
0.185 -0.256 0.029
0.178 -0.243 0.028
0.179 -0.241 0.028
0.180 -0.239 0.028
0.180 -0.236 0.028
0.182 -0.235 0.028
0.185 -0.236 0.028
0.185 -0.232 0.028
0.186 -0.230 0.028
0.188 -0.229 0.028
0.191 -0.229 0.028
0.193 -0.229 0.028
0.194 -0.227 0.028
0.196 -0.226 0.028
0.198 -0.224 0.029
0.199 -0.223 0.029
0.201 -0.221 0.029
0.204 -0.221 0.029
0.206 -0.220 0.029
0.208 -0.218 0.029
0.211 -0.218 0.029
0.213 -0.217 0.030
0.215 -0.215 0.030
0.217 -0.215 0.030
0.222 -0.216 0.030
0.224 -0.215 0.030
0.226 -0.213 0.031
0.228 -0.212 0.031
0.232 -0.212 0.031
0.235 -0.212 0.031
0.238 -0.211 0.032
0.242 -0.211 0.032
0.247 -0.212 0.033
0.249 -0.210 0.033
0.254 -0.211 0.033
0.254 -0.208 0.033
0.254 -0.204 0.033
0.253 -0.201 0.033
0.222 -0.173 0.029
0.217 -0.166 0.028
0.212 -0.160 0.027
0.210 -0.156 0.027
0.215 -0.157 0.027
0.217 -0.155 0.027
0.214 -0.151 0.027
0.207 -0.143 0.026
0.202 -0.137 0.025
0.208 -0.139 0.026
0.215 -0.141 0.027
0.203 -0.131 0.025
0.202 -0.128 0.025
0.205 -0.128 0.025
0.210 -0.128 0.026
0.209 -0.126 0.026
0.207 -0.122 0.025
0.207 -0.120 0.025
0.203 -0.115 0.025
0.216 -0.120 0.026
0.217 -0.118 0.026
0.210 -0.113 0.025
0.209 -0.110 0.025
0.215 -0.111 0.026
0.215 -0.108 0.026
0.213 -0.105 0.025
0.203 -0.098 0.024
0.205 -0.097 0.024
0.204 -0.095 0.024
0.210 -0.095 0.025
0.198 -0.088 0.023
0.208 -0.090 0.025
0.211 -0.089 0.025
0.216 -0.089 0.025
0.218 -0.088 0.026
0.220 -0.086 0.026
0.210 -0.080 0.025
0.214 -0.080 0.025
0.210 -0.076 0.025
0.217 -0.077 0.025
0.228 -0.079 0.026
0.231 -0.078 0.027
0.239 -0.078 0.028
0.245 -0.077 0.028
0.245 -0.075 0.028
0.262 -0.078 0.030
0.276 -0.080 0.032
0.290 -0.081 0.033
0.404 -0.109 0.047
0.411 -0.107 0.047
0.419 -0.105 0.048
0.420 -0.101 0.048
0.404 -0.094 0.046
0.365 -0.074 0.042
0.371 -0.072 0.043
0.360 -0.067 0.041
0.284 -0.048 0.032
0.282 -0.045 0.032
0.283 -0.042 0.032
0.287 -0.040 0.033
0.289 -0.038 0.033
0.289 -0.035 0.033
0.289 -0.033 0.033
0.286 -0.030 0.033
0.287 -0.027 0.033
0.287 -0.025 0.033
0.286 -0.022 0.032
0.286 -0.019 0.032
0.291 -0.017 0.033
0.291 -0.014 0.033
0.295 -0.012 0.033
0.291 -0.009 0.033
0.292 -0.007 0.033
0.290 -0.004 0.033
0.293 -0.001 0.033
0.296 0.001 0.034
0.284 0.004 0.032
0.300 0.007 0.034
0.302 0.009 0.034
0.297 0.012 0.034
0.297 0.015 0.034
0.307 0.018 0.035
0.306 0.021 0.035
0.301 0.023 0.034
0.293 0.025 0.033
0.293 0.028 0.033
0.300 0.031 0.034
0.303 0.034 0.035
0.309 0.038 0.035
0.326 0.043 0.037
0.330 0.046 0.038
0.319 0.048 0.037
0.314 0.050 0.036
0.313 0.052 0.036
0.313 0.055 0.036
0.309 0.058 0.035
0.312 0.061 0.036
0.314 0.064 0.036
0.300 0.064 0.035
0.296 0.066 0.034
0.299 0.069 0.034
0.310 0.075 0.036
0.318 0.080 0.037
0.326 0.085 0.038
0.326 0.088 0.038
0.324 0.090 0.037
0.311 0.090 0.036
0.317 0.095 0.037
0.315 0.097 0.037
0.316 0.100 0.037
0.318 0.104 0.037
0.318 0.107 0.037
0.317 0.110 0.037
0.320 0.114 0.037
0.320 0.117 0.037
0.313 0.118 0.037
0.308 0.119 0.036
0.313 0.124 0.037
0.322 0.131 0.038
0.394 0.172 0.047
0.402 0.180 0.048
0.400 0.183 0.048
0.389 0.182 0.046
0.380 0.182 0.046
0.369 0.180 0.044
0.366 0.183 0.044
0.360 0.183 0.043
0.354 0.184 0.043
0.346 0.184 0.042
0.340 0.184 0.041
0.329 0.182 0.040
0.322 0.182 0.039
0.318 0.183 0.039
0.313 0.184 0.039
0.308 0.184 0.038
0.303 0.185 0.037
0.297 0.185 0.037
0.293 0.186 0.036
0.289 0.187 0.036
0.286 0.188 0.036
0.281 0.188 0.035
0.276 0.188 0.035
0.268 0.186 0.034
0.265 0.187 0.034
0.263 0.189 0.034
0.261 0.191 0.033
0.260 0.194 0.033
0.260 0.197 0.034
0.259 0.200 0.034
0.260 0.204 0.034
0.260 0.207 0.034
0.261 0.211 0.034
0.260 0.214 0.034
0.259 0.217 0.034
0.258 0.220 0.034
0.257 0.223 0.034
0.258 0.228 0.035
0.258 0.231 0.035
0.257 0.234 0.035
0.256 0.237 0.035
0.256 0.241 0.035
0.256 0.245 0.035
0.255 0.248 0.035
0.253 0.251 0.035
0.361 0.369 0.051
0.369 0.391 0.053
0.360 0.387 0.052
0.323 0.359 0.047
0.312 0.353 0.046
0.303 0.348 0.045
0.293 0.342 0.044
0.292 0.347 0.044
0.295 0.357 0.045
0.305 0.374 0.046
0.305 0.380 0.047
0.302 0.383 0.047
0.301 0.387 0.047
0.301 0.393 0.047
0.169 -0.233 0.028
0.178 -0.243 0.030
0.180 -0.242 0.030
0.181 -0.241 0.030
0.183 -0.241 0.030
0.185 -0.240 0.030
0.186 -0.238 0.030
0.187 -0.236 0.030
0.189 -0.234 0.031
0.192 -0.234 0.031
0.195 -0.235 0.031
0.197 -0.234 0.031
0.203 -0.237 0.032
0.204 -0.235 0.032
0.207 -0.235 0.032
0.210 -0.235 0.033
0.280 -0.260 0.041
0.281 -0.257 0.041
0.284 -0.256 0.041
0.288 -0.255 0.041
0.293 -0.255 0.042
0.296 -0.254 0.042
0.296 -0.251 0.042
0.296 -0.246 0.042
0.295 -0.241 0.041
0.275 -0.221 0.038
0.266 -0.211 0.037
0.217 -0.167 0.030
0.215 -0.162 0.030
0.216 -0.160 0.030
0.220 -0.160 0.030
0.219 -0.157 0.030
0.215 -0.151 0.029
0.205 -0.142 0.028
0.199 -0.136 0.027
0.204 -0.137 0.027
0.216 -0.142 0.029
0.209 -0.135 0.028
0.198 -0.126 0.026
0.204 -0.127 0.027
0.209 -0.128 0.028
0.210 -0.126 0.028
0.208 -0.123 0.027
0.208 -0.121 0.027
0.208 -0.118 0.027
0.208 -0.116 0.027
0.217 -0.118 0.028
0.214 -0.115 0.028
0.211 -0.111 0.027
0.213 -0.110 0.028
0.215 -0.109 0.028
0.212 -0.105 0.027
0.205 -0.099 0.026
0.206 -0.097 0.026
0.209 -0.097 0.027
0.204 -0.092 0.026
0.212 -0.094 0.027
0.207 -0.090 0.026
0.212 -0.090 0.027
0.215 -0.089 0.027
0.221 -0.089 0.028
0.221 -0.087 0.028
0.218 -0.084 0.028
0.213 -0.080 0.027
0.214 -0.078 0.027
0.217 -0.077 0.027
0.224 -0.077 0.028
0.234 -0.079 0.029
0.239 -0.078 0.030
0.243 -0.077 0.030
0.250 -0.077 0.031
0.259 -0.077 0.032
0.277 -0.080 0.035
0.285 -0.079 0.035
0.403 -0.108 0.050
0.413 -0.107 0.051
0.421 -0.105 0.052
0.427 -0.103 0.053
0.411 -0.095 0.051
0.363 -0.074 0.045
0.371 -0.072 0.046
0.355 -0.066 0.044
0.289 -0.048 0.036
0.285 -0.045 0.035
0.284 -0.042 0.035
0.286 -0.040 0.035
0.289 -0.038 0.035
0.287 -0.035 0.035
0.286 -0.032 0.035
0.288 -0.030 0.035
0.289 -0.027 0.036
0.288 -0.025 0.035
0.287 -0.022 0.035
0.289 -0.020 0.035
0.292 -0.017 0.036
0.294 -0.015 0.036
0.294 -0.012 0.036
0.293 -0.009 0.036
0.292 -0.007 0.036
0.291 -0.004 0.036
0.290 -0.001 0.036
0.284 0.001 0.035
0.301 0.004 0.037
0.307 0.007 0.038
0.301 0.009 0.037
0.296 0.012 0.036
0.299 0.015 0.037
0.305 0.018 0.037
0.302 0.020 0.037
0.302 0.023 0.037
0.300 0.026 0.037
0.298 0.028 0.037
0.302 0.031 0.037
0.301 0.034 0.037
0.301 0.037 0.037
0.330 0.043 0.041
0.324 0.045 0.040
0.305 0.046 0.038
0.310 0.049 0.038
0.324 0.054 0.040
0.313 0.055 0.039
0.307 0.057 0.038
0.309 0.060 0.038
0.315 0.065 0.039
0.307 0.066 0.038
0.301 0.067 0.037
0.311 0.072 0.039
0.318 0.077 0.040
0.319 0.080 0.040
0.322 0.084 0.040
0.327 0.088 0.041
0.319 0.089 0.040
0.316 0.091 0.040
0.318 0.095 0.040
0.322 0.099 0.040
0.319 0.101 0.040
0.320 0.105 0.040
0.326 0.110 0.041
0.323 0.112 0.041
0.326 0.116 0.041
0.322 0.118 0.041
0.316 0.119 0.040
0.313 0.121 0.040
0.312 0.124 0.040
0.325 0.132 0.041
0.334 0.139 0.043
0.347 0.148 0.044
0.403 0.180 0.052
0.399 0.183 0.051
0.391 0.183 0.050
0.377 0.180 0.049
0.370 0.181 0.048
0.368 0.184 0.048
0.357 0.182 0.047
0.353 0.184 0.046
0.346 0.184 0.045
0.338 0.183 0.044
0.331 0.183 0.044
0.325 0.183 0.043
0.319 0.184 0.042
0.313 0.184 0.042
0.307 0.184 0.041
0.302 0.184 0.040
0.298 0.185 0.040
0.294 0.186 0.039
0.290 0.187 0.039
0.284 0.187 0.038
0.280 0.188 0.038
0.273 0.186 0.037
0.268 0.186 0.037
0.265 0.187 0.036
0.262 0.188 0.036
0.261 0.191 0.036
0.260 0.194 0.036
0.259 0.196 0.036
0.260 0.200 0.036
0.259 0.203 0.036
0.258 0.206 0.036
0.261 0.212 0.037
0.260 0.215 0.037
0.259 0.217 0.037
0.257 0.220 0.037
0.258 0.224 0.037
0.257 0.227 0.037
0.257 0.231 0.038
0.256 0.234 0.038
0.256 0.237 0.038
0.257 0.242 0.038
0.256 0.246 0.038
0.255 0.249 0.038
0.255 0.253 0.038
0.360 0.381 0.056
0.353 0.380 0.055
0.327 0.358 0.051
0.313 0.348 0.049
0.303 0.343 0.048
0.295 0.340 0.047
0.292 0.342 0.047
0.292 0.348 0.047
0.298 0.360 0.049
0.307 0.377 0.050
0.306 0.382 0.051
0.303 0.384 0.050
0.299 0.386 0.050
0.296 0.388 0.050
0.170 -0.235 0.031
0.179 -0.245 0.032
0.184 -0.248 0.033
0.184 -0.245 0.033
0.266 -0.344 0.047
0.267 -0.341 0.047
0.265 -0.333 0.046
0.278 -0.321 0.047
0.281 -0.319 0.047
0.282 -0.316 0.047
0.285 -0.314 0.047
0.286 -0.310 0.047
0.286 -0.305 0.047
0.288 -0.303 0.047
0.289 -0.300 0.047
0.285 -0.291 0.046
0.288 -0.290 0.046
0.288 -0.285 0.046
0.289 -0.281 0.046
0.291 -0.279 0.046
0.293 -0.277 0.046
0.292 -0.271 0.045
0.291 -0.266 0.045
0.294 -0.265 0.045
0.294 -0.261 0.045
0.296 -0.258 0.045
0.295 -0.253 0.045
0.294 -0.249 0.045
0.294 -0.245 0.044
0.293 -0.240 0.044
0.282 -0.227 0.042
0.215 -0.165 0.032
0.214 -0.161 0.032
0.212 -0.157 0.031
0.210 -0.153 0.031
0.221 -0.158 0.032
0.213 -0.151 0.031
0.206 -0.143 0.030
0.201 -0.137 0.029
0.206 -0.138 0.030
0.210 -0.138 0.030
0.207 -0.134 0.030
0.203 -0.129 0.029
0.202 -0.126 0.029
0.206 -0.126 0.029
0.209 -0.126 0.030
0.208 -0.123 0.029
0.206 -0.120 0.029
0.209 -0.119 0.029
0.205 -0.115 0.029
0.210 -0.115 0.029
0.210 -0.113 0.029
0.210 -0.111 0.029
0.212 -0.109 0.029
0.214 -0.108 0.030
0.208 -0.103 0.029
0.206 -0.100 0.028
0.204 -0.097 0.028
0.207 -0.096 0.028
0.200 -0.091 0.027
0.212 -0.094 0.029
0.206 -0.089 0.028
0.211 -0.089 0.029
0.215 -0.089 0.029
0.216 -0.087 0.029
0.214 -0.084 0.029
0.213 -0.082 0.029
0.213 -0.080 0.029
0.214 -0.078 0.029
0.220 -0.078 0.030
0.228 -0.079 0.031
0.233 -0.078 0.031
0.239 -0.078 0.032
0.241 -0.076 0.032
0.247 -0.076 0.033
0.256 -0.076 0.034
0.272 -0.078 0.036
0.284 -0.079 0.038
0.406 -0.109 0.054
0.414 -0.108 0.055
0.423 -0.106 0.056
0.422 -0.102 0.056
0.414 -0.096 0.055
0.405 -0.090 0.054
0.376 -0.077 0.050
0.362 -0.071 0.048
0.290 -0.049 0.038
0.286 -0.045 0.038
0.283 -0.042 0.037
0.284 -0.040 0.038
0.286 -0.038 0.038
0.288 -0.035 0.038
0.288 -0.033 0.038
0.291 -0.030 0.038
0.291 -0.028 0.038
0.287 -0.025 0.038
0.291 -0.022 0.038
0.291 -0.020 0.038
0.291 -0.017 0.038
0.293 -0.015 0.039
0.293 -0.012 0.039
0.294 -0.009 0.039
0.295 -0.007 0.039
0.293 -0.004 0.039
0.289 -0.001 0.038
0.296 0.001 0.039
0.308 0.004 0.041
0.311 0.007 0.041
0.304 0.010 0.040
0.301 0.012 0.040
0.305 0.015 0.040
0.304 0.018 0.040
0.298 0.020 0.039
0.303 0.023 0.040
0.305 0.026 0.040
0.310 0.029 0.041
0.306 0.032 0.040
0.301 0.034 0.040
0.318 0.039 0.042
0.317 0.042 0.042
0.316 0.044 0.042
0.309 0.046 0.041
0.300 0.047 0.040
0.309 0.052 0.041
0.324 0.057 0.043
0.318 0.059 0.042
0.313 0.061 0.042
0.308 0.063 0.041
0.308 0.066 0.041
0.314 0.070 0.042
0.318 0.074 0.042
0.313 0.076 0.042
0.302 0.076 0.040
0.299 0.078 0.040
0.311 0.084 0.042
0.314 0.088 0.042
0.314 0.091 0.042
0.323 0.097 0.043
0.325 0.100 0.044
0.321 0.102 0.043
0.316 0.103 0.043
0.323 0.109 0.044
0.322 0.112 0.044
0.318 0.114 0.043
0.320 0.118 0.044
0.322 0.122 0.044
0.318 0.123 0.043
0.320 0.127 0.044
0.322 0.131 0.044
0.334 0.139 0.046
0.346 0.148 0.048
0.398 0.178 0.055
0.398 0.182 0.055
0.392 0.184 0.054
0.384 0.184 0.053
0.375 0.184 0.052
0.364 0.182 0.051
0.355 0.181 0.050
0.348 0.181 0.049
0.341 0.182 0.048
0.336 0.183 0.047
0.331 0.184 0.047
0.323 0.182 0.046
0.319 0.184 0.045
0.313 0.184 0.045
0.307 0.184 0.044
0.303 0.185 0.043
0.301 0.187 0.043
0.295 0.187 0.043
0.290 0.187 0.042
0.283 0.186 0.041
0.278 0.186 0.041
0.272 0.186 0.040
0.267 0.185 0.039
0.264 0.187 0.039
0.262 0.189 0.039
0.261 0.191 0.039
0.260 0.194 0.039
0.260 0.197 0.039
0.260 0.200 0.039
0.259 0.203 0.039
0.259 0.207 0.039
0.260 0.211 0.040
0.260 0.214 0.040
0.259 0.217 0.040
0.257 0.220 0.040
0.257 0.223 0.040
0.257 0.227 0.040
0.256 0.230 0.040
0.256 0.234 0.040
0.256 0.237 0.040
0.255 0.241 0.041
0.256 0.246 0.041
0.256 0.249 0.041
0.255 0.253 0.041
0.302 0.332 0.051
0.297 0.331 0.050
0.294 0.334 0.050
0.293 0.338 0.050
0.293 0.343 0.051
0.291 0.346 0.051
0.291 0.353 0.051
0.304 0.374 0.054
0.306 0.382 0.054
0.304 0.386 0.054
0.298 0.385 0.054
0.293 0.383 0.053
0.182 -0.252 0.035
0.182 -0.248 0.035
0.185 -0.249 0.035
0.195 -0.259 0.037
0.268 -0.347 0.050
0.274 -0.351 0.051
0.274 -0.346 0.051
0.280 -0.348 0.052
0.286 -0.349 0.053
0.286 -0.345 0.052
0.286 -0.340 0.052
0.288 -0.337 0.052
0.285 -0.329 0.051
0.284 -0.322 0.051
0.285 -0.319 0.051
0.287 -0.316 0.051
0.289 -0.313 0.051
0.289 -0.310 0.051
0.289 -0.305 0.050
0.291 -0.301 0.050
0.292 -0.298 0.050
0.288 -0.290 0.049
0.289 -0.287 0.049
0.290 -0.283 0.049
0.292 -0.280 0.049
0.291 -0.275 0.049
0.290 -0.270 0.048
0.291 -0.267 0.048
0.292 -0.263 0.048
0.291 -0.258 0.048
0.290 -0.253 0.047
0.289 -0.248 0.047
0.291 -0.246 0.047
0.290 -0.242 0.047
0.291 -0.238 0.047
0.284 -0.229 0.046
0.220 -0.169 0.035
0.208 -0.157 0.033
0.208 -0.154 0.033
0.212 -0.155 0.033
0.212 -0.152 0.033
0.208 -0.147 0.032
0.204 -0.142 0.032
0.205 -0.140 0.032
0.205 -0.138 0.032
0.208 -0.137 0.032
0.212 -0.137 0.032
0.204 -0.130 0.031
0.206 -0.129 0.031
0.206 -0.127 0.031
0.207 -0.124 0.031
0.207 -0.123 0.031
0.209 -0.121 0.032
0.204 -0.116 0.031
0.208 -0.116 0.031
0.204 -0.111 0.030
0.208 -0.112 0.031
0.210 -0.111 0.031
0.213 -0.110 0.032
0.213 -0.108 0.032
0.213 -0.105 0.031
0.202 -0.098 0.030
0.203 -0.096 0.030
0.201 -0.093 0.030
0.212 -0.096 0.031
0.199 -0.088 0.029
0.208 -0.090 0.030
0.201 -0.085 0.029
0.214 -0.088 0.031
0.215 -0.087 0.031
0.214 -0.085 0.031
0.211 -0.081 0.031
0.201 -0.075 0.029
0.210 -0.077 0.030
0.221 -0.078 0.032
0.225 -0.078 0.032
0.229 -0.077 0.033
0.232 -0.076 0.033
0.238 -0.076 0.034
0.243 -0.075 0.035
0.255 -0.076 0.037
0.267 -0.077 0.038
0.280 -0.078 0.040
0.404 -0.109 0.058
0.409 -0.107 0.058
0.411 -0.103 0.059
0.420 -0.101 0.060
0.415 -0.096 0.059
0.408 -0.091 0.058
0.402 -0.086 0.057
0.386 -0.079 0.055
0.285 -0.048 0.040
0.280 -0.044 0.040
0.282 -0.042 0.040
0.282 -0.040 0.040
0.285 -0.037 0.040
0.286 -0.035 0.040
0.289 -0.033 0.041
0.288 -0.030 0.041
0.289 -0.027 0.041
0.292 -0.025 0.041
0.291 -0.022 0.041
0.291 -0.020 0.041
0.293 -0.017 0.041
0.292 -0.015 0.041
0.292 -0.012 0.041
0.294 -0.009 0.041
0.297 -0.007 0.042
0.293 -0.004 0.041
0.292 -0.001 0.041
0.304 0.001 0.043
0.310 0.004 0.044
0.311 0.007 0.044
0.306 0.010 0.043
0.309 0.012 0.043
0.304 0.015 0.043
0.307 0.018 0.043
0.299 0.020 0.042
0.300 0.023 0.042
0.307 0.026 0.043
0.310 0.029 0.044
0.303 0.031 0.043
0.305 0.034 0.043
0.310 0.038 0.044
0.312 0.041 0.044
0.312 0.044 0.044
0.311 0.047 0.044
0.303 0.048 0.043
0.297 0.050 0.042
0.330 0.058 0.047
0.322 0.060 0.046
0.310 0.061 0.044
0.301 0.062 0.043
0.308 0.066 0.044
0.310 0.069 0.044
0.310 0.072 0.044
0.300 0.073 0.043
0.292 0.073 0.042
0.290 0.076 0.042
0.297 0.080 0.043
0.300 0.084 0.043
0.305 0.088 0.044
0.316 0.095 0.045
0.322 0.099 0.046
0.320 0.102 0.046
0.317 0.104 0.046
0.308 0.104 0.045
0.311 0.108 0.045
0.308 0.110 0.045
0.308 0.113 0.045
0.319 0.121 0.047
0.325 0.126 0.047
0.313 0.124 0.046
0.328 0.134 0.048
0.338 0.141 0.050
0.350 0.149 0.051
0.363 0.159 0.054
0.395 0.177 0.058
0.395 0.181 0.058
0.390 0.183 0.058
0.384 0.184 0.057
0.376 0.184 0.056
0.359 0.180 0.054
0.355 0.181 0.053
0.349 0.182 0.052
0.337 0.180 0.051
0.334 0.182 0.050
0.331 0.184 0.050
0.321 0.182 0.049
0.318 0.183 0.048
0.313 0.184 0.048
0.308 0.184 0.047
0.304 0.186 0.047
0.299 0.187 0.046
0.295 0.187 0.046
0.288 0.186 0.045
0.282 0.186 0.044
0.278 0.186 0.043
0.272 0.186 0.042
0.268 0.186 0.042
0.264 0.187 0.042
0.262 0.189 0.041
0.261 0.191 0.041
0.260 0.194 0.041
0.260 0.197 0.042
0.260 0.201 0.042
0.260 0.204 0.042
0.259 0.207 0.042
0.259 0.210 0.042
0.259 0.214 0.042
0.259 0.218 0.043
0.258 0.220 0.043
0.257 0.223 0.043
0.257 0.227 0.043
0.256 0.230 0.043
0.256 0.234 0.043
0.255 0.237 0.043
0.255 0.241 0.043
0.256 0.246 0.044
0.255 0.250 0.044
0.254 0.252 0.044
0.261 0.264 0.045
0.285 0.298 0.050
0.292 0.310 0.052
0.287 0.310 0.051
0.293 0.321 0.053
0.291 0.325 0.053
0.291 0.331 0.053
0.291 0.335 0.053
0.288 0.338 0.053
0.290 0.346 0.054
0.292 0.354 0.055
0.307 0.378 0.058
0.301 0.377 0.057
0.299 0.380 0.057
0.298 0.384 0.057
0.295 0.387 0.057
0.178 -0.247 0.037
0.178 -0.244 0.036
0.185 -0.249 0.038
0.279 -0.362 0.056
0.281 -0.359 0.056
0.281 -0.355 0.056
0.286 -0.355 0.056
0.286 -0.351 0.056
0.288 -0.348 0.056
0.289 -0.344 0.056
0.289 -0.339 0.056
0.288 -0.333 0.055
0.287 -0.326 0.055
0.287 -0.322 0.054
0.289 -0.319 0.054
0.291 -0.316 0.054
0.291 -0.312 0.054
0.291 -0.307 0.054
0.292 -0.304 0.054
0.292 -0.299 0.053
0.290 -0.292 0.053
0.290 -0.287 0.052
0.290 -0.283 0.052
0.290 -0.278 0.052
0.291 -0.275 0.052
0.290 -0.270 0.051
0.289 -0.265 0.051
0.287 -0.259 0.050
0.286 -0.255 0.050
0.287 -0.251 0.050
0.288 -0.247 0.050
0.287 -0.243 0.049
0.287 -0.239 0.049
0.286 -0.234 0.049
0.281 -0.227 0.048
0.219 -0.168 0.037
0.212 -0.160 0.036
0.210 -0.156 0.035
0.207 -0.152 0.035
0.207 -0.148 0.034
0.202 -0.143 0.034
0.204 -0.141 0.034
0.204 -0.139 0.034
0.207 -0.139 0.034
0.210 -0.138 0.034
0.211 -0.136 0.034
0.212 -0.135 0.034
0.211 -0.132 0.034
0.209 -0.128 0.034
0.207 -0.125 0.033
0.206 -0.122 0.033
0.210 -0.122 0.034
0.212 -0.121 0.034
0.208 -0.116 0.033
0.210 -0.115 0.033
0.205 -0.110 0.033
0.212 -0.112 0.034
0.215 -0.111 0.034
0.213 -0.108 0.034
0.212 -0.105 0.033
0.213 -0.103 0.034
0.209 -0.099 0.033
0.209 -0.097 0.033
0.211 -0.096 0.033
0.213 -0.095 0.033
0.203 -0.088 0.032
0.223 -0.094 0.035
0.210 -0.087 0.033
0.215 -0.087 0.033
0.218 -0.086 0.034
0.222 -0.085 0.034
0.213 -0.080 0.033
0.212 -0.077 0.033
0.218 -0.077 0.033
0.223 -0.077 0.034
0.227 -0.076 0.035
0.229 -0.075 0.035
0.235 -0.075 0.036
0.244 -0.075 0.037
0.254 -0.076 0.039
0.260 -0.075 0.040
0.401 -0.108 0.061
0.401 -0.104 0.061
0.408 -0.102 0.062
0.411 -0.099 0.062
0.410 -0.095 0.062
0.403 -0.090 0.061
0.391 -0.084 0.059
0.384 -0.079 0.058
0.375 -0.073 0.057
0.281 -0.047 0.042
0.279 -0.044 0.042
0.279 -0.042 0.042
0.281 -0.039 0.042
0.284 -0.037 0.043
0.287 -0.035 0.043
0.287 -0.032 0.043
0.287 -0.030 0.043
0.288 -0.027 0.043
0.290 -0.025 0.043
0.288 -0.022 0.043
0.291 -0.020 0.044
0.293 -0.017 0.044
0.292 -0.015 0.044
0.290 -0.012 0.044
0.292 -0.009 0.044
0.294 -0.007 0.044
0.296 -0.004 0.044
0.295 -0.001 0.044
0.297 0.001 0.045
