VERSION .7
FIELDS x y z
SIZE 4 4 4
TYPE F F F
COUNT 1 1 1
WIDTH     2436
HEIGHT 1
VIEWPOINT 0 0 0 1 0 0 0
POINTS     2436
DATA ascii
0.308 0.030 -0.130
0.322 0.035 -0.136
0.316 0.037 -0.133
0.314 0.040 -0.133
0.313 0.042 -0.132
0.314 0.046 -0.133
0.313 0.048 -0.133
0.319 0.052 -0.135
0.305 0.053 -0.129
0.294 0.054 -0.125
0.298 0.057 -0.127
0.321 0.065 -0.136
0.325 0.069 -0.138
0.334 0.074 -0.142
0.326 0.075 -0.139
0.324 0.078 -0.138
0.335 0.084 -0.143
0.335 0.087 -0.143
0.316 0.085 -0.136
0.312 0.087 -0.134
0.315 0.091 -0.135
0.326 0.098 -0.140
0.319 0.099 -0.137
0.316 0.101 -0.136
0.311 0.103 -0.134
0.321 0.109 -0.139
0.325 0.114 -0.141
0.326 0.117 -0.142
0.301 0.114 -0.131
0.298 0.165 -0.134
0.278 0.157 -0.126
0.274 0.158 -0.124
0.277 0.163 -0.126
0.272 0.163 -0.124
0.270 0.165 -0.123
0.270 0.168 -0.124
0.271 0.173 -0.125
0.268 0.174 -0.123
0.263 0.174 -0.122
0.257 0.173 -0.119
0.261 0.179 -0.122
0.260 0.182 -0.121
0.256 0.182 -0.120
0.256 0.186 -0.120
0.244 0.180 -0.115
0.282 0.215 -0.134
0.283 0.221 -0.135
0.251 0.199 -0.120
0.247 0.200 -0.119
0.243 0.199 -0.117
0.231 0.193 -0.112
0.223 0.190 -0.109
0.222 0.192 -0.109
0.223 0.197 -0.110
0.224 0.200 -0.111
0.224 0.204 -0.111
0.229 0.212 -0.114
0.231 0.218 -0.116
0.222 0.213 -0.112
0.212 0.207 -0.108
0.218 0.216 -0.111
0.221 0.224 -0.113
0.237 0.248 -0.123
0.229 0.255 -0.121
0.221 0.250 -0.117
0.222 0.256 -0.119
0.318 -0.328 -0.157
0.327 -0.332 -0.161
0.331 -0.331 -0.162
0.332 -0.326 -0.162
0.332 -0.321 -0.161
0.336 -0.320 -0.162
0.339 -0.318 -0.163
0.332 -0.307 -0.159
0.330 -0.300 -0.157
0.327 -0.292 -0.155
0.324 -0.285 -0.153
0.323 -0.280 -0.152
0.326 -0.278 -0.153
0.325 -0.272 -0.152
0.326 -0.269 -0.152
0.324 -0.263 -0.150
0.325 -0.259 -0.150
0.325 -0.255 -0.150
0.323 -0.249 -0.148
0.322 -0.244 -0.147
0.317 -0.236 -0.145
0.315 -0.231 -0.143
0.313 -0.225 -0.142
0.314 -0.222 -0.142
0.312 -0.217 -0.141
0.313 -0.214 -0.141
0.313 -0.210 -0.140
0.221 -0.140 -0.098
0.208 -0.130 -0.092
0.208 -0.127 -0.092
0.211 -0.127 -0.093
0.299 -0.172 -0.131
0.300 -0.170 -0.131
0.301 -0.167 -0.131
0.303 -0.165 -0.132
0.306 -0.163 -0.133
0.308 -0.161 -0.133
0.311 -0.159 -0.134
0.315 -0.157 -0.136
0.317 -0.155 -0.136
0.321 -0.154 -0.138
0.323 -0.151 -0.139
0.326 -0.149 -0.139
0.329 -0.147 -0.141
0.331 -0.144 -0.141
0.315 -0.131 -0.134
0.356 -0.134 -0.150
0.364 -0.133 -0.153
0.373 -0.133 -0.157
0.377 -0.130 -0.159
0.375 -0.126 -0.158
0.382 -0.124 -0.160
0.390 -0.123 -0.164
0.404 -0.124 -0.169
1.331 -0.395 -0.556
1.318 -0.378 -0.550
1.311 -0.363 -0.547
1.321 -0.353 -0.550
1.320 -0.340 -0.549
0.358 -0.075 -0.148
0.351 -0.070 -0.145
0.306 -0.056 -0.127
0.294 -0.051 -0.121
0.288 -0.047 -0.119
0.279 -0.043 -0.115
0.287 -0.041 -0.119
0.297 -0.040 -0.122
0.295 -0.037 -0.122
0.297 -0.034 -0.122
0.302 -0.032 -0.125
0.311 -0.030 -0.128
0.314 -0.028 -0.129
0.318 -0.025 -0.131
0.309 -0.021 -0.127
0.302 -0.018 -0.124
0.298 -0.015 -0.123
0.297 -0.012 -0.122
0.306 -0.010 -0.126
0.314 -0.007 -0.129
0.314 -0.004 -0.129
0.310 -0.001 -0.128
0.307 0.002 -0.126
0.302 0.004 -0.124
0.306 0.007 -0.126
0.306 0.010 -0.126
0.312 0.013 -0.128
0.326 0.017 -0.134
0.330 0.020 -0.136
0.330 0.023 -0.136
0.320 0.025 -0.132
0.312 0.028 -0.128
0.303 0.032 -0.125
0.325 0.044 -0.134
0.325 0.047 -0.135
0.319 0.052 -0.132
0.317 0.055 -0.132
0.316 0.058 -0.131
0.316 0.061 -0.131
0.320 0.065 -0.133
0.336 0.071 -0.140
0.338 0.075 -0.141
0.322 0.074 -0.134
0.322 0.077 -0.134
0.333 0.083 -0.139
0.335 0.087 -0.140
0.316 0.085 -0.132
0.308 0.086 -0.129
0.311 0.090 -0.130
0.313 0.094 -0.132
0.301 0.093 -0.126
0.304 0.097 -0.128
0.311 0.102 -0.131
0.318 0.108 -0.134
0.325 0.114 -0.138
0.309 0.114 -0.131
0.334 0.144 -0.143
0.312 0.159 -0.136
0.294 0.152 -0.128
0.290 0.153 -0.127
0.292 0.158 -0.128
0.288 0.159 -0.127
0.280 0.158 -0.123
0.278 0.160 -0.123
0.278 0.163 -0.123
0.276 0.165 -0.122
0.276 0.169 -0.123
0.276 0.172 -0.123
0.274 0.174 -0.123
0.276 0.178 -0.124
0.271 0.179 -0.122
0.267 0.180 -0.121
0.269 0.184 -0.122
0.264 0.184 -0.120
0.261 0.186 -0.119
0.258 0.187 -0.118
0.254 0.187 -0.117
0.269 0.202 -0.125
0.274 0.209 -0.127
0.263 0.208 -0.123
0.258 0.208 -0.121
0.255 0.209 -0.120
0.234 0.195 -0.111
0.225 0.191 -0.107
0.224 0.193 -0.107
0.229 0.201 -0.110
0.230 0.205 -0.111
0.230 0.209 -0.112
0.230 0.213 -0.112
0.229 0.216 -0.112
0.220 0.211 -0.108
0.219 0.213 -0.108
0.224 0.222 -0.112
0.223 0.225 -0.112
0.223 0.229 -0.112
0.245 0.255 -0.124
0.326 -0.356 -0.160
0.330 -0.355 -0.161
0.329 -0.349 -0.160
0.329 -0.343 -0.159
0.328 -0.337 -0.158
0.332 -0.336 -0.159
0.333 -0.332 -0.159
0.330 -0.324 -0.157
0.327 -0.316 -0.155
0.328 -0.312 -0.155
0.328 -0.307 -0.154
0.330 -0.304 -0.154
0.327 -0.296 -0.152
0.326 -0.290 -0.151
0.323 -0.284 -0.149
0.323 -0.279 -0.148
0.323 -0.275 -0.148
0.325 -0.272 -0.148
0.317 -0.261 -0.144
0.319 -0.258 -0.144
0.322 -0.256 -0.145
0.323 -0.253 -0.145
0.322 -0.248 -0.144
0.318 -0.241 -0.142
0.317 -0.235 -0.141
0.314 -0.230 -0.139
0.315 -0.226 -0.139
0.312 -0.220 -0.137
0.310 -0.215 -0.136
0.311 -0.212 -0.136
0.311 -0.208 -0.136
0.209 -0.130 -0.090
0.209 -0.127 -0.090
0.209 -0.125 -0.090
0.216 -0.127 -0.093
0.292 -0.168 -0.125
0.297 -0.168 -0.127
0.300 -0.166 -0.127
0.303 -0.164 -0.128
0.304 -0.162 -0.129
0.307 -0.160 -0.130
0.312 -0.159 -0.131
0.314 -0.157 -0.132
0.316 -0.155 -0.133
0.319 -0.152 -0.134
0.324 -0.152 -0.136
0.328 -0.150 -0.137
0.329 -0.147 -0.137
0.334 -0.146 -0.139
0.313 -0.130 -0.130
0.315 -0.121 -0.130
0.357 -0.134 -0.147
0.361 -0.132 -0.148
0.368 -0.130 -0.151
0.374 -0.129 -0.153
0.379 -0.127 -0.155
0.381 -0.124 -0.156
0.391 -0.123 -0.160
0.400 -0.122 -0.163
1.313 -0.376 -0.535
1.317 -0.364 -0.536
1.320 -0.352 -0.536
1.327 -0.341 -0.539
0.364 -0.073 -0.147
0.350 -0.067 -0.141
0.298 -0.054 -0.120
0.295 -0.051 -0.119
0.284 -0.046 -0.115
0.287 -0.044 -0.116
0.294 -0.042 -0.118
0.298 -0.040 -0.120
0.299 -0.037 -0.120
0.292 -0.034 -0.117
0.298 -0.032 -0.120
0.311 -0.030 -0.125
0.315 -0.028 -0.127
0.305 -0.024 -0.123
0.299 -0.021 -0.120
0.303 -0.018 -0.122
0.299 -0.015 -0.120
0.295 -0.012 -0.119
0.301 -0.010 -0.121
0.311 -0.007 -0.125
0.309 -0.004 -0.124
0.308 -0.001 -0.123
0.311 0.002 -0.125
0.309 0.004 -0.124
0.293 0.007 -0.117
0.300 0.010 -0.120
0.321 0.013 -0.129
0.336 0.017 -0.135
0.329 0.020 -0.132
0.320 0.022 -0.129
0.317 0.025 -0.128
0.313 0.028 -0.126
0.313 0.031 -0.126
0.305 0.033 -0.123
0.303 0.035 -0.122
0.309 0.039 -0.125
0.329 0.045 -0.133
0.319 0.049 -0.129
0.324 0.053 -0.131
0.324 0.056 -0.131
0.326 0.060 -0.132
0.316 0.061 -0.128
0.326 0.066 -0.132
0.330 0.070 -0.134
0.326 0.072 -0.132
0.315 0.073 -0.128
0.317 0.076 -0.129
0.325 0.081 -0.133
0.329 0.085 -0.134
0.319 0.086 -0.130
0.323 0.090 -0.132
0.318 0.092 -0.130
0.314 0.094 -0.128
0.298 0.092 -0.122
0.301 0.096 -0.124
0.305 0.100 -0.125
0.310 0.105 -0.128
0.321 0.112 -0.132
0.330 0.118 -0.136
0.321 0.118 -0.133
0.328 0.141 -0.137
0.327 0.144 -0.137
0.311 0.141 -0.131
0.307 0.142 -0.129
0.308 0.146 -0.130
0.308 0.149 -0.130
0.308 0.153 -0.131
0.304 0.154 -0.129
0.295 0.153 -0.126
0.295 0.156 -0.126
0.292 0.158 -0.125
0.290 0.160 -0.124
0.287 0.161 -0.123
0.286 0.164 -0.123
0.281 0.165 -0.121
0.283 0.169 -0.123
0.281 0.171 -0.122
0.278 0.173 -0.121
0.279 0.177 -0.122
0.279 0.180 -0.123
0.273 0.180 -0.120
0.278 0.187 -0.123
0.272 0.186 -0.121
0.269 0.188 -0.120
0.268 0.190 -0.119
0.264 0.190 -0.118
0.265 0.194 -0.119
0.238 0.201 -0.110
0.237 0.208 -0.111
0.236 0.211 -0.111
0.238 0.216 -0.113
0.223 0.213 -0.107
0.221 0.215 -0.107
0.227 0.224 -0.110
0.223 0.224 -0.109
0.326 -0.377 -0.159
0.323 -0.369 -0.157
0.325 -0.365 -0.157
0.329 -0.364 -0.158
0.332 -0.362 -0.159
0.330 -0.355 -0.157
0.329 -0.348 -0.156
0.328 -0.341 -0.155
0.330 -0.338 -0.155
0.332 -0.335 -0.155
0.333 -0.331 -0.155
0.327 -0.320 -0.151
0.326 -0.314 -0.150
0.322 -0.306 -0.148
0.326 -0.305 -0.149
0.326 -0.300 -0.149
0.325 -0.294 -0.147
0.324 -0.289 -0.146
0.325 -0.284 -0.146
0.322 -0.278 -0.144
0.323 -0.274 -0.144
0.320 -0.267 -0.142
0.320 -0.263 -0.142
0.317 -0.256 -0.140
0.319 -0.253 -0.140
0.321 -0.250 -0.140
0.316 -0.243 -0.138
0.317 -0.239 -0.138
0.316 -0.234 -0.137
0.314 -0.229 -0.136
0.313 -0.224 -0.135
0.312 -0.220 -0.134
0.309 -0.213 -0.132
0.309 -0.210 -0.132
0.305 -0.204 -0.130
0.302 -0.198 -0.128
0.251 -0.162 -0.106
0.240 -0.152 -0.101
0.211 -0.131 -0.089
0.210 -0.128 -0.088
0.210 -0.126 -0.088
0.213 -0.125 -0.089
0.257 -0.142 -0.107
0.301 -0.160 -0.124
0.302 -0.157 -0.124
0.306 -0.156 -0.126
0.312 -0.156 -0.128
0.315 -0.154 -0.129
0.318 -0.152 -0.130
0.323 -0.151 -0.132
0.329 -0.150 -0.134
0.331 -0.147 -0.134
0.333 -0.145 -0.135
0.300 -0.125 -0.121
0.297 -0.120 -0.120
0.355 -0.133 -0.143
0.358 -0.130 -0.144
0.365 -0.129 -0.146
0.371 -0.128 -0.149
0.376 -0.126 -0.150
0.382 -0.124 -0.153
0.390 -0.123 -0.155
0.399 -0.122 -0.159
0.410 -0.121 -0.163
0.363 -0.076 -0.143
0.368 -0.074 -0.145
0.361 -0.069 -0.142
0.287 -0.052 -0.113
0.291 -0.050 -0.115
0.293 -0.047 -0.115
0.289 -0.044 -0.114
0.294 -0.042 -0.115
0.301 -0.040 -0.118
0.293 -0.037 -0.115
0.292 -0.034 -0.115
0.292 -0.031 -0.115
0.300 -0.029 -0.117
0.295 -0.026 -0.116
0.284 -0.022 -0.111
0.293 -0.020 -0.115
0.303 -0.018 -0.118
0.299 -0.015 -0.117
0.298 -0.012 -0.117
0.304 -0.010 -0.119
0.307 -0.007 -0.120
0.308 -0.004 -0.121
0.332 -0.001 -0.130
0.316 0.002 -0.124
0.329 0.005 -0.129
0.321 0.007 -0.126
0.312 0.010 -0.122
0.332 0.014 -0.130
0.334 0.020 -0.131
0.323 0.022 -0.127
0.312 0.025 -0.122
0.326 0.032 -0.128
0.328 0.035 -0.129
0.307 0.042 -0.121
0.319 0.046 -0.126
0.319 0.049 -0.126
0.311 0.051 -0.123
0.324 0.056 -0.128
0.320 0.058 -0.126
0.319 0.061 -0.126
0.327 0.066 -0.129
0.332 0.070 -0.131
0.323 0.071 -0.128
0.313 0.072 -0.124
0.317 0.076 -0.126
0.313 0.078 -0.124
0.316 0.082 -0.126
0.324 0.087 -0.129
0.332 0.092 -0.132
0.326 0.094 -0.130
0.319 0.095 -0.128
0.313 0.096 -0.125
0.316 0.100 -0.127
0.316 0.103 -0.127
0.316 0.107 -0.127
0.313 0.109 -0.126
0.328 0.117 -0.132
0.337 0.124 -0.136
0.325 0.123 -0.131
0.328 0.127 -0.133
0.332 0.132 -0.135
0.322 0.132 -0.131
0.318 0.133 -0.129
0.330 0.142 -0.135
0.319 0.141 -0.131
0.313 0.141 -0.128
0.307 0.142 -0.126
0.304 0.144 -0.125
0.307 0.149 -0.127
0.307 0.152 -0.127
0.296 0.149 -0.122
0.295 0.153 -0.123
0.297 0.157 -0.123
0.295 0.159 -0.123
0.293 0.161 -0.122
0.292 0.164 -0.122
0.290 0.166 -0.122
0.292 0.171 -0.123
0.291 0.173 -0.123
0.285 0.173 -0.121
0.281 0.175 -0.120
0.283 0.179 -0.121
0.291 0.188 -0.125
0.330 -0.416 -0.161
0.335 -0.416 -0.163
0.323 -0.395 -0.156
0.323 -0.389 -0.155
0.324 -0.385 -0.155
0.332 -0.390 -0.159
0.328 -0.379 -0.156
0.328 -0.374 -0.155
0.332 -0.372 -0.156
0.332 -0.367 -0.156
0.330 -0.360 -0.154
0.330 -0.354 -0.153
0.328 -0.347 -0.152
0.326 -0.339 -0.150
0.327 -0.335 -0.150
0.329 -0.332 -0.150
0.326 -0.324 -0.148
0.326 -0.318 -0.147
0.326 -0.314 -0.147
0.324 -0.307 -0.145
0.322 -0.300 -0.143
0.324 -0.297 -0.144
0.325 -0.293 -0.144
0.322 -0.286 -0.142
0.321 -0.281 -0.141
0.321 -0.276 -0.140
0.320 -0.271 -0.139
0.320 -0.266 -0.138
0.318 -0.261 -0.137
0.319 -0.257 -0.137
0.318 -0.252 -0.136
0.316 -0.246 -0.135
0.315 -0.242 -0.134
0.316 -0.238 -0.134
0.317 -0.235 -0.134
0.310 -0.225 -0.130
0.309 -0.221 -0.130
0.311 -0.219 -0.130
0.311 -0.215 -0.130
0.303 -0.205 -0.126
0.306 -0.204 -0.127
0.306 -0.200 -0.126
0.212 -0.131 -0.087
0.210 -0.128 -0.086
0.209 -0.125 -0.085
0.213 -0.124 -0.087
0.224 -0.129 -0.091
0.253 -0.143 -0.103
0.247 -0.136 -0.100
0.247 -0.133 -0.099
0.257 -0.136 -0.104
0.299 -0.155 -0.120
0.304 -0.154 -0.122
0.310 -0.154 -0.124
0.314 -0.153 -0.125
0.317 -0.151 -0.126
0.321 -0.149 -0.128
0.325 -0.148 -0.129
0.328 -0.146 -0.130
0.331 -0.144 -0.131
0.310 -0.128 -0.122
0.300 -0.118 -0.118
0.354 -0.132 -0.139
0.357 -0.130 -0.139
0.363 -0.128 -0.142
0.371 -0.128 -0.145
0.376 -0.125 -0.146
0.379 -0.123 -0.148
0.389 -0.122 -0.151
0.395 -0.120 -0.153
0.405 -0.119 -0.157
0.413 -0.118 -0.160
0.369 -0.074 -0.142
0.356 -0.068 -0.137
0.292 -0.050 -0.112
0.295 -0.048 -0.113
0.297 -0.045 -0.114
0.295 -0.042 -0.113
0.289 -0.039 -0.111
0.297 -0.037 -0.114
0.297 -0.034 -0.114
0.296 -0.031 -0.113
0.290 -0.028 -0.111
0.284 -0.025 -0.109
0.285 -0.022 -0.109
0.289 -0.020 -0.110
0.303 -0.018 -0.116
0.306 -0.016 -0.117
0.308 -0.013 -0.117
0.316 -0.010 -0.121
0.315 -0.007 -0.120
0.314 -0.004 -0.120
0.320 -0.001 -0.122
0.336 0.002 -0.128
0.334 0.005 -0.128
0.333 0.008 -0.127
0.320 0.010 -0.122
0.326 0.014 -0.124
0.337 0.017 -0.129
0.333 0.020 -0.127
0.323 0.022 -0.123
0.319 0.025 -0.122
0.325 0.032 -0.124
0.324 0.035 -0.124
0.318 0.037 -0.122
0.310 0.039 -0.119
0.307 0.041 -0.118
0.306 0.044 -0.117
0.311 0.048 -0.119
0.328 0.057 -0.126
0.337 0.061 -0.130
0.334 0.064 -0.129
0.341 0.068 -0.131
0.339 0.071 -0.131
0.336 0.074 -0.130
0.321 0.074 -0.124
0.304 0.073 -0.118
0.306 0.076 -0.119
0.303 0.078 -0.118
0.322 0.086 -0.125
0.334 0.093 -0.130
0.328 0.094 -0.128
0.321 0.096 -0.125
0.323 0.099 -0.126
0.329 0.104 -0.129
0.323 0.106 -0.126
0.323 0.109 -0.126
0.330 0.115 -0.129
0.325 0.116 -0.128
0.334 0.123 -0.131
0.339 0.128 -0.134
0.338 0.131 -0.134
0.326 0.130 -0.129
0.323 0.132 -0.128
0.323 0.135 -0.128
0.321 0.138 -0.128
0.330 0.145 -0.131
0.317 0.143 -0.126
0.312 0.144 -0.125
0.309 0.146 -0.124
0.310 0.149 -0.124
0.307 0.152 -0.124
0.297 0.150 -0.120
0.295 0.152 -0.120
0.298 0.157 -0.121
0.301 0.162 -0.122
0.311 0.171 -0.127
0.299 0.168 -0.122
0.287 0.164 -0.117
0.301 0.175 -0.123
0.323 -0.427 -0.156
0.324 -0.423 -0.155
0.325 -0.419 -0.155
0.326 -0.415 -0.155
0.332 -0.416 -0.157
0.337 -0.418 -0.160
0.334 -0.408 -0.157
0.329 -0.396 -0.154
0.334 -0.396 -0.156
0.333 -0.390 -0.155
0.331 -0.381 -0.153
0.329 -0.374 -0.151
0.331 -0.371 -0.152
0.330 -0.364 -0.150
0.327 -0.355 -0.148
0.327 -0.350 -0.148
0.328 -0.345 -0.147
0.326 -0.339 -0.146
0.327 -0.334 -0.145
0.326 -0.328 -0.144
0.325 -0.322 -0.144
0.324 -0.316 -0.143
0.325 -0.312 -0.142
0.322 -0.304 -0.140
0.320 -0.298 -0.139
0.320 -0.293 -0.138
0.318 -0.287 -0.137
0.322 -0.286 -0.138
0.322 -0.281 -0.137
0.321 -0.275 -0.136
0.320 -0.270 -0.136
0.319 -0.265 -0.135
0.319 -0.260 -0.134
0.318 -0.255 -0.133
0.318 -0.251 -0.133
0.317 -0.246 -0.132
0.314 -0.240 -0.130
0.315 -0.237 -0.130
0.316 -0.233 -0.130
0.310 -0.225 -0.127
0.307 -0.219 -0.125
0.308 -0.216 -0.125
0.311 -0.214 -0.126
0.305 -0.207 -0.124
0.303 -0.201 -0.122
0.299 -0.196 -0.121
0.217 -0.134 -0.087
0.209 -0.127 -0.083
0.209 -0.124 -0.083
0.209 -0.122 -0.083
0.216 -0.124 -0.086
0.247 -0.139 -0.098
0.246 -0.136 -0.097
0.246 -0.133 -0.097
0.248 -0.131 -0.097
0.305 -0.155 -0.119
0.309 -0.154 -0.121
0.313 -0.152 -0.122
0.317 -0.151 -0.123
0.320 -0.149 -0.124
0.324 -0.147 -0.125
0.326 -0.145 -0.126
0.325 -0.141 -0.125
0.294 -0.122 -0.113
0.280 -0.113 -0.108
0.294 -0.116 -0.112
0.351 -0.131 -0.134
0.356 -0.129 -0.136
0.361 -0.128 -0.137
0.368 -0.127 -0.140
0.374 -0.125 -0.142
0.383 -0.124 -0.145
0.388 -0.122 -0.147
0.394 -0.120 -0.149
0.406 -0.120 -0.153
0.407 -0.116 -0.154
0.413 -0.114 -0.156
0.365 -0.076 -0.137
0.369 -0.074 -0.138
0.357 -0.068 -0.134
0.296 -0.053 -0.111
0.294 -0.050 -0.110
0.294 -0.047 -0.110
0.295 -0.045 -0.110
0.293 -0.042 -0.109
0.294 -0.039 -0.110
0.295 -0.037 -0.110
0.301 -0.035 -0.112
0.301 -0.032 -0.112
0.297 -0.029 -0.110
0.289 -0.025 -0.108
0.288 -0.023 -0.107
0.293 -0.020 -0.109
0.300 -0.018 -0.112
0.309 -0.016 -0.115
0.312 -0.013 -0.116
0.323 -0.010 -0.120
0.316 -0.007 -0.118
0.307 -0.004 -0.114
0.323 -0.001 -0.120
0.329 0.002 -0.123
0.333 0.005 -0.124
0.315 0.007 -0.117
0.315 0.010 -0.117
0.320 0.013 -0.119
0.335 0.017 -0.125
0.334 0.020 -0.124
0.330 0.023 -0.123
0.306 0.024 -0.114
0.322 0.028 -0.120
0.315 0.031 -0.118
0.319 0.034 -0.119
0.317 0.037 -0.118
0.322 0.040 -0.120
0.317 0.043 -0.118
0.312 0.045 -0.117
0.313 0.048 -0.117
0.326 0.053 -0.122
0.339 0.058 -0.127
0.343 0.062 -0.129
0.350 0.067 -0.131
0.347 0.070 -0.131
0.323 0.071 -0.121
0.309 0.074 -0.117
0.300 0.075 -0.113
0.309 0.080 -0.117
0.313 0.084 -0.118
0.320 0.089 -0.121
0.322 0.093 -0.122
0.326 0.097 -0.124
0.327 0.100 -0.124
0.333 0.105 -0.127
0.324 0.106 -0.123
0.315 0.106 -0.120
0.329 0.114 -0.126
0.338 0.120 -0.129
0.334 0.122 -0.128
0.320 0.121 -0.123
0.310 0.120 -0.119
0.326 0.129 -0.125
0.328 0.134 -0.127
0.328 0.137 -0.127
0.325 0.139 -0.126
0.319 0.140 -0.124
0.316 0.142 -0.123
0.316 0.145 -0.123
0.314 0.148 -0.123
0.312 0.150 -0.122
0.310 0.153 -0.122
0.307 0.154 -0.121
0.303 0.156 -0.120
0.312 0.164 -0.123
0.317 0.170 -0.125
0.322 0.176 -0.128
0.313 0.175 -0.125
0.321 -0.425 -0.151
0.328 -0.428 -0.153
0.331 -0.426 -0.154
0.330 -0.420 -0.153
0.331 -0.415 -0.153
0.333 -0.412 -0.153
0.332 -0.405 -0.152
0.330 -0.397 -0.151
0.332 -0.394 -0.151
0.333 -0.389 -0.151
0.330 -0.380 -0.149
0.328 -0.372 -0.147
0.329 -0.367 -0.147
0.328 -0.361 -0.146
0.327 -0.354 -0.144
0.325 -0.348 -0.143
0.326 -0.343 -0.143
0.327 -0.338 -0.142
0.322 -0.329 -0.140
0.325 -0.326 -0.140
0.324 -0.321 -0.139
0.322 -0.313 -0.138
0.321 -0.308 -0.137
0.321 -0.303 -0.136
0.319 -0.296 -0.135
0.316 -0.289 -0.133
0.317 -0.285 -0.133
0.320 -0.283 -0.133
0.322 -0.281 -0.134
0.321 -0.275 -0.133
0.318 -0.268 -0.131
0.319 -0.264 -0.131
0.318 -0.259 -0.130
0.317 -0.255 -0.129
0.317 -0.250 -0.129
0.316 -0.245 -0.128
0.313 -0.239 -0.126
0.312 -0.234 -0.125
0.313 -0.231 -0.125
0.311 -0.226 -0.124
0.304 -0.217 -0.121
0.307 -0.215 -0.122
0.303 -0.208 -0.120
0.301 -0.204 -0.119
0.299 -0.199 -0.118
0.297 -0.194 -0.116
0.222 -0.137 -0.086
0.209 -0.126 -0.081
0.209 -0.124 -0.081
0.209 -0.122 -0.081
0.216 -0.123 -0.083
0.247 -0.138 -0.095
0.246 -0.135 -0.094
0.246 -0.133 -0.094
0.247 -0.130 -0.094
0.306 -0.155 -0.116
0.309 -0.153 -0.117
0.313 -0.152 -0.119
0.317 -0.151 -0.120
0.321 -0.149 -0.121
0.324 -0.147 -0.122
0.326 -0.145 -0.122
0.320 -0.139 -0.120
0.317 -0.134 -0.119
0.349 -0.130 -0.130
0.355 -0.129 -0.132
0.362 -0.128 -0.134
0.368 -0.126 -0.136
0.374 -0.125 -0.138
0.379 -0.122 -0.140
0.379 -0.119 -0.140
0.393 -0.120 -0.145
0.401 -0.118 -0.148
0.418 -0.119 -0.154
0.415 -0.114 -0.152
0.417 -0.111 -0.153
0.366 -0.080 -0.134
0.367 -0.076 -0.134
0.368 -0.073 -0.134
0.357 -0.068 -0.130
0.300 -0.054 -0.109
0.292 -0.050 -0.106
0.293 -0.047 -0.106
0.296 -0.045 -0.108
0.295 -0.042 -0.107
0.297 -0.040 -0.108
0.295 -0.037 -0.107
0.295 -0.034 -0.107
0.299 -0.032 -0.109
0.299 -0.029 -0.108
0.300 -0.026 -0.109
0.302 -0.024 -0.109
0.301 -0.021 -0.109
0.302 -0.018 -0.109
0.307 -0.016 -0.111
0.316 -0.013 -0.114
0.307 -0.010 -0.111
0.292 -0.007 -0.106
0.302 -0.004 -0.110
0.315 -0.001 -0.114
0.320 0.002 -0.116
0.318 0.004 -0.115
0.311 0.007 -0.113
0.305 0.010 -0.111
0.316 0.013 -0.115
0.327 0.017 -0.119
0.326 0.020 -0.118
0.319 0.022 -0.116
0.322 0.025 -0.117
0.332 0.029 -0.121
0.325 0.032 -0.118
0.328 0.035 -0.119
0.330 0.038 -0.120
0.332 0.042 -0.121
0.329 0.044 -0.120
0.325 0.047 -0.118
0.317 0.049 -0.116
0.321 0.052 -0.117
0.330 0.057 -0.120
0.335 0.061 -0.122
0.338 0.065 -0.124
0.343 0.069 -0.125
0.325 0.068 -0.119
0.311 0.068 -0.114
0.307 0.070 -0.113
0.312 0.074 -0.114
0.317 0.079 -0.117
0.311 0.080 -0.115
0.312 0.083 -0.115
0.318 0.088 -0.117
0.320 0.092 -0.118
0.328 0.097 -0.121
0.331 0.101 -0.123
0.320 0.101 -0.118
0.324 0.106 -0.120
0.324 0.109 -0.120
0.331 0.115 -0.123
0.334 0.119 -0.124
0.327 0.120 -0.122
0.320 0.120 -0.120
0.311 0.120 -0.116
0.323 0.128 -0.121
0.329 0.134 -0.123
0.327 0.136 -0.123
0.322 0.138 -0.122
0.321 0.141 -0.121
0.323 0.145 -0.122
0.326 0.150 -0.124
0.312 0.147 -0.119
0.311 0.150 -0.119
0.320 0.158 -0.122
0.336 0.169 -0.129
0.329 -0.440 -0.151
0.329 -0.435 -0.150
0.326 -0.425 -0.149
0.330 -0.424 -0.149
0.331 -0.420 -0.149
0.330 -0.413 -0.148
0.330 -0.408 -0.148
0.328 -0.399 -0.146
0.326 -0.391 -0.145
0.327 -0.387 -0.145
0.329 -0.384 -0.145
0.326 -0.374 -0.143
0.327 -0.371 -0.143
0.328 -0.366 -0.142
0.327 -0.359 -0.141
0.327 -0.354 -0.140
0.324 -0.345 -0.139
0.324 -0.340 -0.138
0.321 -0.332 -0.136
0.322 -0.328 -0.136
0.323 -0.323 -0.135
0.322 -0.317 -0.134
0.321 -0.312 -0.134
0.321 -0.307 -0.133
0.320 -0.301 -0.132
0.319 -0.295 -0.131
0.315 -0.287 -0.129
0.317 -0.284 -0.129
0.318 -0.281 -0.129
0.318 -0.276 -0.128
0.313 -0.268 -0.126
0.315 -0.265 -0.126
0.315 -0.261 -0.126
0.315 -0.257 -0.125
0.315 -0.252 -0.125
0.315 -0.248 -0.124
0.314 -0.243 -0.124
0.312 -0.237 -0.122
0.311 -0.233 -0.122
0.313 -0.230 -0.122
0.304 -0.220 -0.118
0.308 -0.219 -0.119
0.299 -0.209 -0.115
0.298 -0.205 -0.115
0.298 -0.201 -0.114
0.296 -0.196 -0.113
0.295 -0.192 -0.112
0.209 -0.126 -0.079
0.208 -0.124 -0.078
0.209 -0.122 -0.078
0.215 -0.123 -0.081
0.253 -0.142 -0.095
0.246 -0.135 -0.092
0.245 -0.132 -0.091
0.247 -0.130 -0.092
0.250 -0.129 -0.093
0.305 -0.154 -0.113
0.308 -0.153 -0.114
0.313 -0.152 -0.115
0.317 -0.151 -0.117
0.320 -0.148 -0.118
0.323 -0.147 -0.118
0.325 -0.144 -0.119
0.330 -0.143 -0.120
0.330 -0.136 -0.120
0.330 -0.126 -0.120
0.346 -0.129 -0.125
0.356 -0.129 -0.129
0.364 -0.128 -0.131
0.367 -0.126 -0.132
0.373 -0.124 -0.134
0.377 -0.122 -0.135
0.382 -0.120 -0.137
0.392 -0.119 -0.140
0.405 -0.119 -0.145
0.419 -0.119 -0.150
0.425 -0.117 -0.152
0.424 -0.112 -0.152
0.419 -0.107 -0.149
0.374 -0.078 -0.133
0.369 -0.073 -0.131
0.302 -0.054 -0.107
0.292 -0.050 -0.104
0.296 -0.048 -0.105
0.296 -0.045 -0.105
0.295 -0.042 -0.104
0.293 -0.039 -0.104
0.292 -0.036 -0.103
0.294 -0.034 -0.104
0.297 -0.031 -0.105
0.303 -0.029 -0.107
0.306 -0.027 -0.108
0.308 -0.024 -0.109
0.304 -0.021 -0.107
0.308 -0.018 -0.109
0.313 -0.016 -0.110
0.304 -0.013 -0.107
0.296 -0.009 -0.104
0.295 -0.007 -0.104
0.294 -0.004 -0.104
0.308 -0.001 -0.108
0.311 0.001 -0.110
0.314 0.004 -0.111
0.314 0.007 -0.111
0.319 0.010 -0.113
0.318 0.013 -0.112
0.324 0.016 -0.114
0.325 0.019 -0.115
0.321 0.022 -0.113
0.317 0.025 -0.112
0.318 0.028 -0.112
0.336 0.033 -0.119
0.335 0.036 -0.118
0.336 0.039 -0.119
0.336 0.042 -0.119
0.335 0.045 -0.119
0.339 0.049 -0.120
0.312 0.048 -0.111
0.313 0.051 -0.111
0.324 0.056 -0.115
0.332 0.060 -0.118
0.329 0.063 -0.117
0.322 0.064 -0.115
0.334 0.070 -0.119
0.322 0.070 -0.115
0.307 0.070 -0.109
0.316 0.075 -0.113
0.331 0.082 -0.118
0.320 0.082 -0.115
0.321 0.086 -0.115
0.328 0.091 -0.118
0.329 0.094 -0.118
0.327 0.097 -0.118
0.343 0.105 -0.124
0.335 0.106 -0.121
0.329 0.107 -0.119
0.337 0.113 -0.122
0.333 0.115 -0.121
0.323 0.115 -0.117
0.322 0.118 -0.117
0.316 0.119 -0.115
0.321 0.124 -0.117
0.329 0.144 -0.121
0.329 0.147 -0.121
0.348 0.186 -0.130
0.360 0.205 -0.136
0.327 -0.442 -0.146
0.325 -0.435 -0.145
0.321 -0.423 -0.143
0.325 -0.424 -0.144
0.328 -0.421 -0.144
0.329 -0.417 -0.144
0.328 -0.410 -0.143
0.328 -0.404 -0.143
0.325 -0.395 -0.141
0.323 -0.388 -0.140
0.323 -0.382 -0.139
0.325 -0.378 -0.139
0.326 -0.374 -0.139
0.325 -0.367 -0.138
0.327 -0.364 -0.138
0.327 -0.359 -0.137
0.322 -0.348 -0.134
0.320 -0.340 -0.133
0.320 -0.336 -0.132
0.323 -0.334 -0.133
0.321 -0.327 -0.132
0.320 -0.320 -0.131
0.321 -0.316 -0.130
0.318 -0.308 -0.129
0.319 -0.304 -0.128
0.319 -0.300 -0.128
0.317 -0.293 -0.127
0.318 -0.289 -0.126
0.315 -0.282 -0.125
0.314 -0.277 -0.124
0.312 -0.270 -0.122
0.313 -0.267 -0.122
0.310 -0.260 -0.121
0.309 -0.255 -0.120
0.311 -0.253 -0.120
0.309 -0.247 -0.119
0.312 -0.246 -0.120
0.310 -0.240 -0.119
0.308 -0.234 -0.117
0.302 -0.226 -0.115
0.302 -0.222 -0.114
0.304 -0.219 -0.115
0.301 -0.214 -0.113
0.294 -0.205 -0.110
0.296 -0.203 -0.111
0.297 -0.200 -0.111
0.295 -0.195 -0.110
0.290 -0.189 -0.108
0.284 -0.181 -0.105
0.210 -0.127 -0.077
0.208 -0.123 -0.076
0.208 -0.121 -0.076
0.209 -0.119 -0.076
0.245 -0.137 -0.089
0.245 -0.135 -0.089
0.246 -0.132 -0.089
0.246 -0.130 -0.089
0.249 -0.129 -0.090
0.304 -0.154 -0.109
0.308 -0.152 -0.111
0.312 -0.151 -0.112
0.316 -0.150 -0.113
0.319 -0.148 -0.114
0.320 -0.145 -0.114
0.321 -0.142 -0.114
0.335 -0.145 -0.119
0.329 -0.135 -0.116
0.332 -0.127 -0.117
0.347 -0.129 -0.122
0.356 -0.129 -0.125
0.361 -0.127 -0.127
0.366 -0.125 -0.128
0.369 -0.123 -0.129
0.378 -0.122 -0.132
0.388 -0.121 -0.135
0.399 -0.121 -0.139
0.408 -0.120 -0.142
0.418 -0.119 -0.146
0.426 -0.117 -0.148
0.427 -0.113 -0.148
0.429 -0.109 -0.149
0.384 -0.080 -0.133
0.366 -0.073 -0.126
0.351 -0.066 -0.121
0.306 -0.055 -0.105
0.294 -0.050 -0.101
0.294 -0.047 -0.101
0.299 -0.045 -0.103
0.295 -0.042 -0.101
0.292 -0.039 -0.100
0.291 -0.036 -0.100
0.292 -0.034 -0.100
0.297 -0.031 -0.102
0.301 -0.029 -0.103
0.301 -0.026 -0.103
0.303 -0.024 -0.104
0.320 -0.022 -0.110
0.334 -0.020 -0.115
0.321 -0.016 -0.110
0.307 -0.013 -0.105
0.300 -0.010 -0.103
0.300 -0.007 -0.103
0.302 -0.004 -0.103
0.305 -0.001 -0.105
0.311 0.001 -0.107
0.310 0.004 -0.106
0.320 0.007 -0.110
0.323 0.010 -0.111
0.317 0.013 -0.109
0.316 0.016 -0.108
0.317 0.019 -0.109
0.318 0.022 -0.109
0.309 0.024 -0.106
0.305 0.027 -0.105
0.298 0.029 -0.102
0.325 0.035 -0.112
0.328 0.038 -0.113
0.329 0.041 -0.113
0.325 0.043 -0.112
0.319 0.046 -0.110
0.313 0.048 -0.108
0.315 0.051 -0.109
0.329 0.056 -0.114
0.339 0.061 -0.117
0.332 0.063 -0.115
0.320 0.064 -0.111
0.320 0.067 -0.111
0.316 0.069 -0.110
0.311 0.071 -0.108
0.313 0.074 -0.109
0.330 0.082 -0.115
0.339 0.087 -0.118
0.334 0.092 -0.117
0.335 0.096 -0.117
0.335 0.099 -0.117
0.339 0.107 -0.119
0.341 0.111 -0.120
0.338 0.113 -0.119
0.332 0.114 -0.117
0.320 0.114 -0.113
0.318 0.116 -0.112
0.325 0.122 -0.115
0.319 0.123 -0.113
0.334 0.146 -0.119
0.332 0.148 -0.119
0.318 0.146 -0.114
0.356 0.186 -0.130
0.356 0.198 -0.130
0.324 -0.437 -0.141
0.319 -0.426 -0.138
0.317 -0.418 -0.137
0.322 -0.418 -0.138
0.325 -0.417 -0.139
0.325 -0.411 -0.139
0.324 -0.404 -0.138
0.326 -0.401 -0.138
0.325 -0.394 -0.137
0.325 -0.389 -0.136
0.325 -0.384 -0.136
0.326 -0.379 -0.135
0.324 -0.371 -0.134
0.321 -0.363 -0.132
0.323 -0.360 -0.132
0.327 -0.358 -0.133
0.323 -0.348 -0.131
0.319 -0.339 -0.129
0.322 -0.336 -0.129
0.322 -0.331 -0.129
0.319 -0.324 -0.127
0.318 -0.317 -0.126
0.317 -0.311 -0.125
0.317 -0.307 -0.125
0.317 -0.302 -0.124
0.317 -0.297 -0.123
0.319 -0.294 -0.123
0.314 -0.285 -0.121
0.314 -0.281 -0.121
0.313 -0.276 -0.120
0.312 -0.271 -0.119
0.309 -0.263 -0.117
0.309 -0.259 -0.117
0.308 -0.254 -0.116
0.304 -0.247 -0.114
0.310 -0.247 -0.116
0.308 -0.242 -0.115
0.306 -0.237 -0.114
0.303 -0.230 -0.112
0.301 -0.225 -0.111
0.302 -0.221 -0.111
0.300 -0.217 -0.110
0.297 -0.211 -0.109
0.281 -0.196 -0.102
0.232 -0.148 -0.084
0.226 -0.141 -0.081
0.225 -0.138 -0.080
0.211 -0.128 -0.075
0.209 -0.123 -0.074
0.209 -0.121 -0.074
0.210 -0.119 -0.074
0.236 -0.132 -0.083
0.245 -0.134 -0.086
0.245 -0.131 -0.086
0.245 -0.129 -0.086
0.246 -0.127 -0.086
0.261 -0.131 -0.091
0.310 -0.153 -0.108
0.312 -0.151 -0.109
0.314 -0.149 -0.109
0.318 -0.147 -0.110
0.319 -0.144 -0.110
0.320 -0.141 -0.111
0.340 -0.147 -0.117
0.343 -0.145 -0.118
0.282 -0.113 -0.097
0.318 -0.121 -0.109
0.352 -0.127 -0.120
0.359 -0.126 -0.122
0.364 -0.124 -0.124
0.369 -0.122 -0.125
0.383 -0.123 -0.130
0.392 -0.122 -0.133
0.403 -0.122 -0.137
0.410 -0.120 -0.139
0.417 -0.118 -0.141
0.424 -0.116 -0.143
0.430 -0.114 -0.145
0.425 -0.108 -0.143
0.391 -0.085 -0.132
0.388 -0.081 -0.130
0.372 -0.074 -0.125
0.306 -0.055 -0.102
0.296 -0.050 -0.099
0.296 -0.048 -0.099
0.295 -0.045 -0.099
0.295 -0.042 -0.099
0.289 -0.039 -0.097
0.291 -0.036 -0.097
0.292 -0.033 -0.097
0.298 -0.031 -0.099
0.298 -0.029 -0.100
0.298 -0.026 -0.099
0.314 -0.024 -0.105
0.337 -0.023 -0.112
0.336 -0.020 -0.112
0.321 -0.016 -0.107
0.307 -0.013 -0.102
0.304 -0.010 -0.101
0.308 -0.007 -0.103
0.316 -0.004 -0.105
0.317 -0.001 -0.106
0.317 0.001 -0.106
0.316 0.004 -0.105
0.311 0.007 -0.104
0.321 0.010 -0.107
0.322 0.013 -0.108
0.310 0.016 -0.103
0.321 0.019 -0.107
0.318 0.022 -0.106
0.321 0.025 -0.107
0.311 0.027 -0.104
0.306 0.030 -0.102
0.306 0.032 -0.102
0.324 0.037 -0.109
0.319 0.040 -0.107
0.311 0.042 -0.104
0.316 0.045 -0.106
0.313 0.048 -0.105
0.315 0.051 -0.106
0.335 0.057 -0.113
0.339 0.061 -0.114
0.320 0.061 -0.108
0.315 0.063 -0.106
0.309 0.065 -0.104
0.310 0.068 -0.104
0.310 0.071 -0.105
0.316 0.075 -0.107
0.329 0.081 -0.111
0.336 0.086 -0.114
0.331 0.088 -0.112
0.322 0.089 -0.109
0.329 0.094 -0.112
0.328 0.097 -0.111
0.333 0.101 -0.113
0.333 0.105 -0.113
0.341 0.111 -0.116
0.329 0.110 -0.112
0.325 0.112 -0.111
0.313 0.111 -0.107
0.322 0.117 -0.111
0.323 0.121 -0.111
0.324 0.124 -0.111
0.339 0.148 -0.118
0.342 0.153 -0.119
0.320 0.153 -0.112
0.358 0.183 -0.126
0.355 0.197 -0.127
0.361 0.205 -0.129
0.363 0.210 -0.130
0.314 -0.424 -0.133
0.315 -0.420 -0.133
0.319 -0.420 -0.134
0.321 -0.417 -0.134
0.322 -0.412 -0.134
0.324 -0.409 -0.134
0.323 -0.403 -0.133
0.323 -0.397 -0.133
0.324 -0.393 -0.132
0.327 -0.390 -0.133
0.327 -0.385 -0.133
0.328 -0.381 -0.132
0.320 -0.366 -0.129
0.320 -0.360 -0.128
0.322 -0.357 -0.128
0.323 -0.353 -0.128
0.324 -0.348 -0.127
0.322 -0.341 -0.126
0.319 -0.333 -0.124
0.317 -0.326 -0.123
0.316 -0.320 -0.122
0.315 -0.314 -0.121
0.316 -0.310 -0.121
0.317 -0.306 -0.121
0.315 -0.299 -0.119
0.316 -0.296 -0.119
0.315 -0.290 -0.119
0.310 -0.282 -0.116
0.313 -0.279 -0.117
0.312 -0.274 -0.116
0.310 -0.268 -0.115
0.310 -0.264 -0.114
0.310 -0.259 -0.114
0.309 -0.254 -0.113
0.308 -0.249 -0.112
0.305 -0.243 -0.111
0.306 -0.240 -0.111
0.303 -0.234 -0.109
0.301 -0.228 -0.108
0.301 -0.224 -0.108
0.301 -0.220 -0.107
0.301 -0.217 -0.107
0.209 -0.143 -0.074
0.205 -0.138 -0.072
0.208 -0.137 -0.073
0.213 -0.138 -0.074
0.224 -0.142 -0.078
0.225 -0.141 -0.078
0.228 -0.140 -0.079
0.214 -0.129 -0.074
0.209 -0.124 -0.072
0.209 -0.121 -0.072
0.210 -0.120 -0.072
0.217 -0.121 -0.075
0.243 -0.133 -0.083
0.245 -0.131 -0.084
0.244 -0.128 -0.083
0.245 -0.126 -0.083
0.249 -0.125 -0.084
0.312 -0.154 -0.106
0.312 -0.151 -0.106
0.313 -0.148 -0.106
0.314 -0.145 -0.106
0.318 -0.144 -0.107
0.319 -0.141 -0.107
0.336 -0.145 -0.112
0.298 -0.117 -0.099
0.293 -0.112 -0.098
0.350 -0.126 -0.116
0.357 -0.125 -0.118
0.362 -0.124 -0.120
0.370 -0.123 -0.122
0.384 -0.124 -0.127
0.394 -0.123 -0.130
0.402 -0.122 -0.132
0.408 -0.119 -0.134
0.413 -0.117 -0.136
0.423 -0.116 -0.139
0.426 -0.112 -0.140
0.428 -0.109 -0.140
0.388 -0.084 -0.127
0.390 -0.081 -0.127
0.382 -0.076 -0.125
0.309 -0.055 -0.101
0.299 -0.051 -0.097
0.296 -0.048 -0.096
0.294 -0.044 -0.095
0.294 -0.042 -0.096
0.297 -0.039 -0.096
0.298 -0.037 -0.097
0.296 -0.034 -0.096
0.296 -0.031 -0.096
0.296 -0.029 -0.096
0.313 -0.027 -0.102
0.329 -0.026 -0.107
0.334 -0.023 -0.108
0.294 -0.015 -0.095
0.288 -0.012 -0.093
0.329 -0.008 -0.107
0.328 -0.004 -0.106
0.321 -0.001 -0.104
0.318 0.001 -0.103
0.316 0.004 -0.102
0.311 0.007 -0.101
0.310 0.010 -0.100
0.325 0.013 -0.105
0.317 0.016 -0.103
0.303 0.018 -0.098
0.315 0.022 -0.102
0.314 0.025 -0.102
0.325 0.028 -0.106
0.322 0.031 -0.104
0.320 0.034 -0.104
0.313 0.036 -0.102
0.307 0.038 -0.100
0.319 0.043 -0.104
0.321 0.046 -0.104
0.319 0.049 -0.104
0.318 0.051 -0.104
0.322 0.055 -0.105
0.325 0.059 -0.106
0.321 0.061 -0.105
0.304 0.061 -0.099
0.304 0.063 -0.100
0.309 0.067 -0.101
0.313 0.071 -0.103
0.316 0.075 -0.104
0.320 0.079 -0.105
0.324 0.083 -0.106
0.318 0.085 -0.105
0.298 0.082 -0.098
0.311 0.089 -0.103
0.310 0.091 -0.103
0.311 0.095 -0.103
0.320 0.101 -0.106
0.316 0.106 -0.105
0.308 0.106 -0.102
0.309 0.109 -0.103
0.306 0.111 -0.102
0.316 0.118 -0.106
0.318 0.122 -0.106
0.346 0.154 -0.117
0.366 0.191 -0.126
0.361 0.192 -0.124
0.365 0.198 -0.126
0.361 0.200 -0.125
0.311 -0.425 -0.128
0.313 -0.422 -0.128
0.316 -0.421 -0.129
0.320 -0.420 -0.130
0.321 -0.416 -0.130
0.323 -0.413 -0.130
0.326 -0.411 -0.131
0.322 -0.401 -0.129
0.321 -0.394 -0.128
0.320 -0.387 -0.127
0.324 -0.386 -0.128
0.327 -0.385 -0.129
0.322 -0.373 -0.126
0.319 -0.365 -0.124
0.319 -0.359 -0.124
0.320 -0.355 -0.123
0.321 -0.350 -0.123
0.319 -0.343 -0.122
0.318 -0.336 -0.121
0.314 -0.327 -0.119
0.312 -0.321 -0.118
0.314 -0.317 -0.118
0.314 -0.313 -0.117
0.314 -0.308 -0.117
0.313 -0.302 -0.116
0.313 -0.297 -0.115
0.313 -0.292 -0.115
0.310 -0.285 -0.113
0.310 -0.281 -0.113
0.309 -0.275 -0.112
0.309 -0.271 -0.111
0.309 -0.267 -0.111
0.309 -0.262 -0.110
0.310 -0.259 -0.110
0.311 -0.256 -0.110
0.306 -0.248 -0.108
0.305 -0.243 -0.108
0.303 -0.237 -0.106
0.301 -0.232 -0.105
0.300 -0.227 -0.105
0.298 -0.222 -0.104
0.301 -0.220 -0.104
0.295 -0.213 -0.102
0.209 -0.143 -0.072
0.207 -0.139 -0.071
0.209 -0.137 -0.071
0.213 -0.138 -0.072
0.224 -0.142 -0.076
0.224 -0.140 -0.076
0.227 -0.139 -0.077
0.225 -0.135 -0.076
0.208 -0.123 -0.070
0.209 -0.121 -0.070
0.210 -0.119 -0.070
0.216 -0.121 -0.072
0.243 -0.133 -0.081
0.245 -0.131 -0.081
0.245 -0.128 -0.081
0.245 -0.126 -0.081
0.248 -0.125 -0.082
0.310 -0.153 -0.102
0.312 -0.150 -0.102
0.312 -0.147 -0.102
0.314 -0.145 -0.103
0.318 -0.143 -0.104
0.319 -0.141 -0.104
0.320 -0.138 -0.104
0.321 -0.135 -0.104
0.280 -0.115 -0.091
0.289 -0.116 -0.094
0.293 -0.114 -0.095
0.289 -0.110 -0.093
0.300 -0.111 -0.097
0.351 -0.126 -0.113
0.354 -0.124 -0.114
0.363 -0.124 -0.116
0.371 -0.123 -0.119
0.386 -0.124 -0.124
0.392 -0.122 -0.125
0.400 -0.121 -0.128
0.405 -0.118 -0.129
0.412 -0.116 -0.131
0.419 -0.114 -0.133
0.424 -0.112 -0.135
0.431 -0.109 -0.137
0.429 -0.105 -0.136
0.414 -0.097 -0.131
0.385 -0.083 -0.122
0.390 -0.081 -0.123
0.390 -0.077 -0.123
0.377 -0.071 -0.119
0.305 -0.055 -0.096
0.296 -0.050 -0.093
0.295 -0.047 -0.093
0.291 -0.044 -0.092
0.295 -0.042 -0.093
0.302 -0.040 -0.095
0.305 -0.038 -0.096
0.297 -0.034 -0.094
0.299 -0.031 -0.094
0.296 -0.028 -0.093
0.300 -0.026 -0.094
0.324 -0.025 -0.102
0.322 -0.022 -0.101
0.303 -0.018 -0.095
0.289 -0.015 -0.091
0.297 -0.012 -0.093
0.321 -0.010 -0.101
0.334 -0.008 -0.105
0.333 -0.005 -0.105
0.318 -0.001 -0.100
0.314 0.001 -0.099
0.316 0.004 -0.099
0.329 0.008 -0.103
0.319 0.013 -0.100
0.317 0.016 -0.100
0.307 0.018 -0.097
0.302 0.021 -0.095
0.314 0.024 -0.099
0.317 0.028 -0.100
0.324 0.031 -0.102
0.325 0.034 -0.102
0.312 0.036 -0.099
0.324 0.040 -0.102
0.327 0.044 -0.103
0.323 0.046 -0.102
0.319 0.049 -0.101
0.316 0.051 -0.100
0.315 0.054 -0.100
0.318 0.057 -0.101
0.313 0.059 -0.099
0.310 0.062 -0.098
0.312 0.065 -0.099
0.315 0.069 -0.100
0.322 0.073 -0.102
0.321 0.076 -0.102
0.316 0.078 -0.101
0.314 0.080 -0.100
0.313 0.083 -0.100
0.314 0.086 -0.100
0.300 0.085 -0.096
0.302 0.089 -0.097
0.306 0.093 -0.098
0.301 0.095 -0.097
0.302 0.098 -0.097
0.307 0.102 -0.099
0.319 0.110 -0.103
0.308 0.109 -0.100
0.309 0.112 -0.100
0.303 0.113 -0.098
0.307 0.118 -0.100
0.345 0.154 -0.113
0.367 0.199 -0.123
0.340 0.192 -0.114
0.327 0.188 -0.110
0.329 0.194 -0.111
0.392 0.249 -0.134
0.314 -0.428 -0.125
0.314 -0.423 -0.125
0.316 -0.420 -0.125
0.318 -0.417 -0.125
0.322 -0.417 -0.127
0.325 -0.416 -0.127
0.324 -0.409 -0.126
0.323 -0.401 -0.125
0.320 -0.392 -0.123
0.318 -0.384 -0.122
0.319 -0.380 -0.122
0.321 -0.376 -0.122
0.322 -0.373 -0.122
0.319 -0.364 -0.120
0.317 -0.356 -0.119
0.318 -0.352 -0.119
0.318 -0.347 -0.118
0.317 -0.340 -0.117
0.315 -0.332 -0.116
0.310 -0.323 -0.114
0.311 -0.319 -0.113
0.314 -0.316 -0.114
0.316 -0.314 -0.114
0.313 -0.306 -0.113
0.311 -0.299 -0.111
0.310 -0.294 -0.111
0.308 -0.287 -0.109
0.308 -0.283 -0.109
0.308 -0.279 -0.109
0.308 -0.274 -0.108
0.307 -0.269 -0.107
0.306 -0.264 -0.107
0.306 -0.259 -0.106
0.308 -0.257 -0.106
0.308 -0.253 -0.106
0.306 -0.247 -0.105
0.304 -0.241 -0.104
0.301 -0.235 -0.102
0.299 -0.230 -0.101
0.299 -0.226 -0.101
0.298 -0.221 -0.100
0.296 -0.216 -0.099
0.290 -0.208 -0.097
0.209 -0.143 -0.069
0.208 -0.139 -0.069
0.209 -0.137 -0.069
0.211 -0.136 -0.070
0.221 -0.140 -0.073
0.224 -0.139 -0.073
0.226 -0.138 -0.074
0.229 -0.137 -0.074
0.209 -0.123 -0.068
0.209 -0.121 -0.068
0.210 -0.119 -0.068
0.212 -0.118 -0.069
0.241 -0.131 -0.078
0.244 -0.130 -0.078
0.245 -0.128 -0.078
0.246 -0.126 -0.079
0.247 -0.124 -0.079
0.311 -0.150 -0.099
0.312 -0.147 -0.099
0.316 -0.146 -0.100
0.320 -0.144 -0.101
0.319 -0.140 -0.101
0.317 -0.136 -0.100
0.276 -0.113 -0.087
0.287 -0.115 -0.090
0.294 -0.115 -0.092
0.293 -0.111 -0.092
0.286 -0.106 -0.089
0.351 -0.126 -0.110
0.355 -0.124 -0.111
0.368 -0.125 -0.115
0.377 -0.125 -0.117
0.384 -0.123 -0.119
0.390 -0.121 -0.121
0.401 -0.121 -0.124
0.408 -0.119 -0.126
0.412 -0.116 -0.127
0.417 -0.114 -0.129
0.424 -0.112 -0.131
0.436 -0.111 -0.134
0.437 -0.107 -0.135
0.424 -0.100 -0.131
0.387 -0.084 -0.119
0.391 -0.081 -0.120
0.392 -0.078 -0.120
0.289 -0.052 -0.089
0.290 -0.049 -0.089
0.288 -0.046 -0.088
0.292 -0.044 -0.089
0.296 -0.042 -0.090
0.299 -0.040 -0.091
0.296 -0.037 -0.090
0.299 -0.034 -0.091
0.302 -0.032 -0.092
0.292 -0.028 -0.089
0.290 -0.025 -0.088
0.301 -0.023 -0.092
0.322 -0.022 -0.098
0.325 -0.019 -0.099
0.313 -0.016 -0.095
0.334 -0.011 -0.102
0.339 -0.008 -0.103
0.325 -0.004 -0.099
0.313 -0.001 -0.095
0.308 0.001 -0.094
0.318 0.004 -0.097
0.323 0.007 -0.098
0.311 0.010 -0.095
0.322 0.013 -0.098
0.322 0.016 -0.098
0.313 0.019 -0.095
0.308 0.021 -0.094
0.311 0.024 -0.095
0.317 0.028 -0.097
0.324 0.031 -0.099
0.314 0.033 -0.096
0.321 0.037 -0.098
0.331 0.041 -0.101
0.331 0.044 -0.101
0.322 0.046 -0.099
0.321 0.049 -0.099
0.320 0.052 -0.098
0.320 0.055 -0.098
0.316 0.057 -0.097
0.312 0.059 -0.096
0.311 0.062 -0.096
0.318 0.066 -0.098
0.327 0.071 -0.101
0.332 0.075 -0.102
0.333 0.079 -0.103
0.323 0.079 -0.100
0.322 0.082 -0.100
0.305 0.081 -0.094
0.308 0.084 -0.095
0.323 0.092 -0.100
0.309 0.091 -0.096
0.311 0.094 -0.097
0.314 0.098 -0.098
0.313 0.101 -0.098
0.329 0.116 -0.103
0.322 0.117 -0.101
0.323 0.120 -0.102
0.340 0.151 -0.108
0.325 0.148 -0.103
0.361 0.191 -0.117
0.353 0.195 -0.115
0.348 0.196 -0.113
0.364 0.218 -0.120
0.350 0.230 -0.117
0.310 -0.423 -0.120
0.312 -0.420 -0.120
0.315 -0.418 -0.121
0.319 -0.418 -0.122
0.323 -0.418 -0.123
0.323 -0.412 -0.122
0.323 -0.407 -0.122
0.321 -0.398 -0.121
0.318 -0.389 -0.119
0.319 -0.384 -0.119
0.317 -0.377 -0.117
0.316 -0.370 -0.117
0.319 -0.368 -0.117
0.318 -0.362 -0.116
0.315 -0.353 -0.114
0.315 -0.348 -0.114
0.317 -0.344 -0.114
0.317 -0.340 -0.114
0.316 -0.333 -0.113
0.314 -0.327 -0.112
0.310 -0.318 -0.110
0.314 -0.316 -0.110
0.314 -0.311 -0.110
0.309 -0.301 -0.108
0.310 -0.298 -0.108
0.310 -0.294 -0.107
0.309 -0.288 -0.106
0.309 -0.283 -0.106
0.308 -0.278 -0.105
0.308 -0.273 -0.105
0.306 -0.268 -0.104
0.304 -0.262 -0.103
0.304 -0.257 -0.102
0.305 -0.254 -0.102
0.305 -0.250 -0.102
0.305 -0.246 -0.101
0.303 -0.241 -0.100
0.298 -0.233 -0.098
0.298 -0.228 -0.098
0.297 -0.224 -0.097
0.296 -0.220 -0.097
0.294 -0.214 -0.096
0.286 -0.205 -0.093
0.256 -0.181 -0.083
0.244 -0.169 -0.079
0.214 -0.145 -0.069
0.209 -0.140 -0.067
0.209 -0.137 -0.067
0.210 -0.136 -0.067
0.219 -0.139 -0.070
0.224 -0.139 -0.071
0.227 -0.139 -0.072
0.229 -0.137 -0.072
0.211 -0.124 -0.066
0.208 -0.120 -0.065
0.209 -0.118 -0.065
0.211 -0.117 -0.066
0.238 -0.130 -0.074
0.241 -0.128 -0.075
0.244 -0.128 -0.076
0.245 -0.126 -0.076
0.247 -0.124 -0.076
0.261 -0.128 -0.080
0.310 -0.149 -0.096
0.313 -0.147 -0.096
0.316 -0.146 -0.097
0.319 -0.144 -0.098
0.322 -0.141 -0.099
0.318 -0.136 -0.097
0.301 -0.126 -0.092
0.287 -0.117 -0.087
0.290 -0.116 -0.088
0.292 -0.114 -0.089
0.284 -0.108 -0.086
0.281 -0.104 -0.085
0.352 -0.126 -0.106
0.358 -0.125 -0.108
0.369 -0.125 -0.111
0.377 -0.125 -0.114
0.384 -0.123 -0.116
0.391 -0.122 -0.117
0.400 -0.120 -0.120
0.409 -0.119 -0.123
0.414 -0.117 -0.124
0.418 -0.114 -0.125
0.429 -0.113 -0.128
0.438 -0.111 -0.131
0.440 -0.107 -0.131
0.385 -0.083 -0.115
0.392 -0.081 -0.117
0.390 -0.077 -0.116
0.377 -0.071 -0.112
0.285 -0.051 -0.085
0.281 -0.048 -0.083
0.283 -0.045 -0.084
0.283 -0.043 -0.084
0.293 -0.042 -0.087
0.288 -0.038 -0.085
0.293 -0.036 -0.087
0.300 -0.034 -0.089
0.311 -0.033 -0.092
0.294 -0.028 -0.087
0.289 -0.025 -0.085
0.304 -0.024 -0.090
0.317 -0.022 -0.094
0.316 -0.019 -0.093
0.325 -0.016 -0.096
0.339 -0.014 -0.100
0.347 -0.011 -0.103
0.336 -0.008 -0.099
0.317 -0.004 -0.094
0.308 -0.001 -0.091
0.314 0.001 -0.093
0.317 0.004 -0.094
0.313 0.007 -0.093
0.312 0.010 -0.092
0.318 0.013 -0.094
0.328 0.016 -0.097
0.322 0.019 -0.095
0.311 0.021 -0.092
0.312 0.024 -0.092
0.307 0.027 -0.091
0.305 0.029 -0.090
0.305 0.032 -0.090
0.306 0.035 -0.091
0.307 0.038 -0.091
0.309 0.041 -0.092
0.312 0.044 -0.093
0.315 0.048 -0.093
0.327 0.053 -0.097
0.321 0.055 -0.095
0.319 0.057 -0.095
0.319 0.060 -0.095
0.314 0.062 -0.094
0.312 0.065 -0.093
0.311 0.067 -0.093
0.327 0.074 -0.098
0.335 0.079 -0.100
0.332 0.082 -0.100
0.321 0.082 -0.096
0.305 0.081 -0.092
0.304 0.083 -0.091
0.318 0.090 -0.096
0.320 0.094 -0.096
0.320 0.097 -0.096
0.329 0.103 -0.099
0.336 0.109 -0.102
0.328 0.116 -0.100
0.331 0.120 -0.101
0.337 0.126 -0.103
0.334 0.128 -0.102
0.342 0.152 -0.105
0.335 0.152 -0.103
0.359 0.194 -0.113
0.361 0.199 -0.114
0.357 0.201 -0.113
0.346 0.199 -0.110
0.349 0.205 -0.111
0.361 0.216 -0.115
0.369 0.225 -0.118
0.356 0.226 -0.114
0.309 -0.420 -0.115
0.314 -0.422 -0.117
0.317 -0.420 -0.117
0.319 -0.418 -0.118
0.321 -0.415 -0.118
0.320 -0.408 -0.117
0.318 -0.400 -0.116
0.314 -0.389 -0.114
0.317 -0.388 -0.115
0.318 -0.383 -0.114
0.318 -0.378 -0.114
0.316 -0.370 -0.113
0.314 -0.362 -0.112
0.315 -0.358 -0.111
0.314 -0.352 -0.111
0.314 -0.347 -0.110
0.315 -0.342 -0.110
0.315 -0.337 -0.109
0.316 -0.333 -0.109
0.315 -0.326 -0.108
0.314 -0.321 -0.107
0.309 -0.311 -0.105
0.310 -0.307 -0.105
0.310 -0.302 -0.104
0.309 -0.297 -0.104
0.311 -0.294 -0.104
0.311 -0.290 -0.104
0.311 -0.284 -0.103
0.307 -0.276 -0.101
0.306 -0.271 -0.100
0.307 -0.268 -0.100
0.302 -0.260 -0.099
0.300 -0.253 -0.097
0.300 -0.250 -0.097
0.303 -0.248 -0.098
0.302 -0.243 -0.097
0.301 -0.238 -0.096
0.299 -0.233 -0.096
0.297 -0.227 -0.094
0.296 -0.223 -0.094
0.295 -0.218 -0.093
0.293 -0.213 -0.092
0.281 -0.201 -0.088
0.214 -0.146 -0.067
0.208 -0.139 -0.065
0.209 -0.137 -0.065
0.211 -0.136 -0.065
0.219 -0.139 -0.067
0.225 -0.140 -0.069
0.226 -0.138 -0.069
0.227 -0.136 -0.069
0.214 -0.126 -0.065
0.208 -0.120 -0.063
0.209 -0.118 -0.063
0.210 -0.116 -0.063
0.227 -0.123 -0.069
0.241 -0.128 -0.072
0.244 -0.128 -0.073
0.244 -0.125 -0.073
0.245 -0.123 -0.073
0.251 -0.123 -0.075
0.306 -0.147 -0.091
0.313 -0.147 -0.093
0.316 -0.145 -0.094
0.318 -0.143 -0.094
0.318 -0.140 -0.094
0.315 -0.135 -0.093
0.315 -0.132 -0.093
0.299 -0.122 -0.088
0.291 -0.116 -0.086
0.287 -0.111 -0.084
0.273 -0.103 -0.080
0.269 -0.099 -0.079
0.355 -0.127 -0.104
0.355 -0.124 -0.104
0.368 -0.125 -0.107
0.376 -0.124 -0.110
0.387 -0.124 -0.113
0.392 -0.122 -0.114
0.394 -0.119 -0.115
0.400 -0.117 -0.116
0.411 -0.116 -0.119
0.418 -0.114 -0.121
0.424 -0.111 -0.123
0.437 -0.111 -0.126
0.440 -0.107 -0.127
0.427 -0.100 -0.123
0.388 -0.084 -0.112
0.391 -0.081 -0.113
0.388 -0.076 -0.112
0.375 -0.070 -0.108
0.285 -0.051 -0.082
0.282 -0.048 -0.081
0.279 -0.045 -0.080
0.287 -0.043 -0.082
0.287 -0.041 -0.082
0.292 -0.039 -0.084
0.294 -0.036 -0.084
0.307 -0.035 -0.088
0.294 -0.028 -0.084
0.295 -0.026 -0.084
0.309 -0.024 -0.089
0.308 -0.021 -0.088
0.308 -0.018 -0.088
0.326 -0.016 -0.093
0.343 -0.014 -0.098
0.342 -0.011 -0.098
0.315 -0.007 -0.090
0.308 -0.004 -0.088
0.315 -0.001 -0.090
0.314 0.001 -0.090
0.320 0.004 -0.091
0.317 0.007 -0.091
0.316 0.010 -0.091
0.324 0.013 -0.093
0.308 0.015 -0.088
0.302 0.018 -0.087
0.304 0.021 -0.087
0.308 0.024 -0.088
0.307 0.027 -0.088
0.307 0.029 -0.088
0.307 0.032 -0.088
0.307 0.035 -0.088
0.309 0.038 -0.089
0.310 0.041 -0.089
0.310 0.044 -0.089
0.311 0.047 -0.089
0.311 0.050 -0.089
0.311 0.053 -0.089
0.319 0.057 -0.092
0.319 0.060 -0.092
0.322 0.064 -0.093
0.317 0.066 -0.092
0.304 0.066 -0.088
0.303 0.069 -0.088
0.319 0.075 -0.092
0.332 0.082 -0.096
0.335 0.085 -0.097
0.319 0.084 -0.093
0.309 0.085 -0.090
0.312 0.088 -0.091
0.302 0.088 -0.088
0.319 0.097 -0.093
0.325 0.102 -0.095
0.330 0.106 -0.097
0.320 0.106 -0.094
0.312 0.107 -0.092
0.320 0.113 -0.094
0.332 0.120 -0.098
0.337 0.126 -0.099
0.340 0.130 -0.100
0.338 0.150 -0.101
0.339 0.154 -0.101
0.364 0.193 -0.111
0.372 0.201 -0.113
0.359 0.198 -0.109
0.348 0.196 -0.106
0.340 0.195 -0.104
0.348 0.204 -0.107
0.368 0.220 -0.113
0.312 -0.430 -0.113
0.315 -0.428 -0.114
0.314 -0.421 -0.113
0.316 -0.419 -0.113
0.317 -0.415 -0.113
0.316 -0.408 -0.113
0.315 -0.401 -0.112
0.310 -0.389 -0.109
0.312 -0.386 -0.110
0.315 -0.385 -0.110
0.318 -0.382 -0.111
0.317 -0.376 -0.110
0.316 -0.370 -0.109
0.312 -0.360 -0.107
0.312 -0.354 -0.107
0.315 -0.352 -0.107
0.315 -0.347 -0.107
0.314 -0.340 -0.106
0.313 -0.334 -0.105
0.311 -0.327 -0.104
0.312 -0.323 -0.103
0.315 -0.321 -0.104
0.309 -0.310 -0.101
0.307 -0.304 -0.101
0.309 -0.300 -0.101
0.309 -0.296 -0.100
0.309 -0.291 -0.100
0.311 -0.289 -0.100
0.307 -0.280 -0.098
0.304 -0.274 -0.097
0.304 -0.269 -0.097
0.302 -0.264 -0.096
0.309 -0.265 -0.097
0.298 -0.252 -0.094
0.299 -0.249 -0.094
0.300 -0.245 -0.093
0.298 -0.240 -0.093
0.297 -0.235 -0.092
0.297 -0.231 -0.092
0.297 -0.227 -0.091
0.292 -0.220 -0.090
0.292 -0.216 -0.089
0.281 -0.204 -0.086
0.243 -0.174 -0.074
0.239 -0.168 -0.072
0.231 -0.160 -0.070
0.214 -0.146 -0.064
0.209 -0.139 -0.063
0.209 -0.137 -0.062
0.212 -0.136 -0.063
0.215 -0.136 -0.064
0.223 -0.138 -0.066
0.225 -0.137 -0.067
0.226 -0.135 -0.067
0.219 -0.129 -0.065
0.209 -0.120 -0.061
0.209 -0.118 -0.061
0.210 -0.116 -0.061
0.243 -0.129 -0.071
0.244 -0.127 -0.071
0.243 -0.124 -0.071
0.245 -0.123 -0.071
0.248 -0.122 -0.072
0.295 -0.142 -0.085
0.310 -0.146 -0.089
0.315 -0.145 -0.091
0.317 -0.142 -0.091
0.318 -0.140 -0.091
0.320 -0.137 -0.091
0.309 -0.129 -0.088
0.292 -0.119 -0.083
0.284 -0.113 -0.081
0.280 -0.109 -0.080
0.269 -0.102 -0.076
0.262 -0.097 -0.074
0.353 -0.127 -0.100
0.359 -0.125 -0.102
0.367 -0.124 -0.104
0.373 -0.123 -0.105
0.384 -0.123 -0.108
0.389 -0.121 -0.110
0.394 -0.119 -0.111
0.400 -0.117 -0.112
0.407 -0.115 -0.114
0.413 -0.112 -0.116
0.419 -0.110 -0.117
0.432 -0.109 -0.121
0.443 -0.108 -0.124
0.415 -0.097 -0.116
0.390 -0.084 -0.109
0.391 -0.081 -0.109
0.377 -0.074 -0.105
0.362 -0.068 -0.101
0.292 -0.052 -0.081
0.287 -0.049 -0.080
0.288 -0.046 -0.080
0.289 -0.044 -0.080
0.293 -0.042 -0.081
0.294 -0.039 -0.082
0.297 -0.037 -0.082
0.306 -0.035 -0.085
0.307 -0.032 -0.085
0.302 -0.029 -0.084
0.306 -0.026 -0.085
0.307 -0.024 -0.085
0.303 -0.021 -0.084
0.317 -0.019 -0.088
0.331 -0.017 -0.091
0.319 -0.013 -0.088
0.316 -0.010 -0.087
0.315 -0.007 -0.087
0.316 -0.004 -0.087
0.309 -0.001 -0.085
0.318 0.001 -0.088
0.320 0.004 -0.089
0.318 0.007 -0.088
0.315 0.010 -0.087
0.303 0.012 -0.084
0.304 0.015 -0.084
0.307 0.018 -0.085
0.307 0.021 -0.085
0.308 0.024 -0.085
0.309 0.027 -0.086
0.308 0.030 -0.085
0.308 0.032 -0.086
0.309 0.035 -0.086
0.310 0.038 -0.086
0.311 0.041 -0.086
0.311 0.044 -0.087
0.312 0.047 -0.087
0.312 0.050 -0.087
0.311 0.053 -0.087
0.311 0.056 -0.087
0.312 0.059 -0.087
0.325 0.064 -0.091
0.321 0.066 -0.090
0.311 0.067 -0.087
0.307 0.069 -0.086
0.317 0.075 -0.089
0.329 0.081 -0.092
0.336 0.085 -0.094
0.329 0.087 -0.092
0.314 0.086 -0.088
0.305 0.086 -0.086
0.312 0.091 -0.088
0.322 0.097 -0.091
0.334 0.104 -0.094
0.327 0.105 -0.093
0.318 0.106 -0.090
0.314 0.107 -0.089
0.325 0.114 -0.092
0.335 0.121 -0.095
0.340 0.126 -0.097
0.348 0.133 -0.099
0.337 0.153 -0.097
0.352 0.182 -0.103
0.352 0.186 -0.103
0.350 0.189 -0.103
0.349 0.192 -0.103
0.342 0.192 -0.101
0.344 0.201 -0.102
0.348 0.208 -0.104
0.379 0.230 -0.113
0.371 0.230 -0.111
0.370 0.233 -0.111
0.313 -0.431 -0.110
0.314 -0.427 -0.110
0.314 -0.421 -0.109
0.314 -0.416 -0.109
0.314 -0.410 -0.108
0.312 -0.402 -0.107
0.308 -0.392 -0.106
0.307 -0.386 -0.105
0.310 -0.383 -0.105
0.314 -0.382 -0.106
0.316 -0.379 -0.106
0.315 -0.374 -0.106
0.314 -0.366 -0.104
0.312 -0.359 -0.103
0.311 -0.353 -0.103
0.312 -0.349 -0.102
0.314 -0.346 -0.103
0.315 -0.341 -0.102
0.313 -0.333 -0.101
0.310 -0.326 -0.100
0.308 -0.318 -0.099
0.310 -0.316 -0.099
0.308 -0.308 -0.098
0.307 -0.303 -0.097
0.307 -0.298 -0.097
0.306 -0.293 -0.096
0.308 -0.290 -0.096
0.308 -0.286 -0.096
0.303 -0.277 -0.094
0.303 -0.272 -0.093
0.302 -0.267 -0.093
0.306 -0.267 -0.094
0.300 -0.257 -0.091
0.299 -0.252 -0.091
0.300 -0.248 -0.090
0.297 -0.243 -0.090
0.296 -0.237 -0.089
0.294 -0.232 -0.088
0.294 -0.228 -0.088
0.288 -0.220 -0.086
0.287 -0.215 -0.085
0.281 -0.208 -0.083
0.241 -0.172 -0.071
0.241 -0.169 -0.070
0.216 -0.149 -0.063
0.212 -0.144 -0.062
0.208 -0.138 -0.060
0.208 -0.136 -0.060
0.211 -0.136 -0.061
0.217 -0.137 -0.062
0.220 -0.136 -0.063
0.219 -0.133 -0.063
0.220 -0.131 -0.063
0.222 -0.130 -0.063
0.209 -0.120 -0.059
0.210 -0.118 -0.059
0.210 -0.116 -0.059
0.217 -0.118 -0.061
0.241 -0.128 -0.068
0.243 -0.127 -0.068
0.243 -0.124 -0.068
0.245 -0.122 -0.068
0.247 -0.121 -0.069
0.309 -0.145 -0.086
0.316 -0.145 -0.088
0.318 -0.142 -0.088
0.320 -0.140 -0.089
0.325 -0.139 -0.090
