VERSION .7
FIELDS x y z
SIZE 4 4 4
TYPE F F F
COUNT 1 1 1
WIDTH     2436
HEIGHT 1
VIEWPOINT 0 0 0 1 0 0 0
POINTS     2436
DATA ascii
0.320 0.041 -0.148
0.321 0.062 -0.150
0.318 0.068 -0.149
0.315 0.070 -0.147
0.315 0.082 -0.148
0.326 0.089 -0.153
0.326 0.092 -0.153
0.229 0.190 -0.122
0.218 0.184 -0.117
0.216 0.186 -0.116
0.216 0.189 -0.116
0.218 0.195 -0.118
0.216 0.196 -0.118
0.213 0.196 -0.116
0.218 0.204 -0.120
0.223 0.213 -0.123
0.221 0.214 -0.122
0.218 0.216 -0.122
0.209 0.210 -0.117
0.199 0.203 -0.112
0.191 0.198 -0.108
0.185 0.196 -0.106
0.214 0.241 -0.125
0.188 0.233 -0.113
0.184 0.231 -0.111
0.182 0.232 -0.110
0.180 0.233 -0.109
0.323 -0.255 -0.163
0.324 -0.252 -0.164
0.322 -0.246 -0.162
0.320 -0.240 -0.160
0.321 -0.237 -0.160
0.320 -0.232 -0.159
0.321 -0.229 -0.159
0.319 -0.224 -0.158
0.314 -0.216 -0.155
0.230 -0.153 -0.113
0.223 -0.145 -0.109
0.210 -0.134 -0.102
0.210 -0.132 -0.102
0.210 -0.129 -0.102
0.213 -0.129 -0.103
0.300 -0.178 -0.145
0.311 -0.181 -0.150
0.312 -0.178 -0.150
0.311 -0.174 -0.149
0.313 -0.171 -0.150
0.316 -0.170 -0.151
0.315 -0.166 -0.150
0.315 -0.162 -0.149
0.318 -0.160 -0.150
0.321 -0.158 -0.152
0.324 -0.156 -0.153
0.327 -0.154 -0.154
0.332 -0.153 -0.156
0.334 -0.150 -0.157
0.336 -0.148 -0.158
0.279 -0.111 -0.130
0.281 -0.109 -0.131
0.360 -0.136 -0.167
0.362 -0.133 -0.168
0.361 -0.129 -0.167
1.328 -0.462 -0.613
1.340 -0.453 -0.618
1.336 -0.438 -0.615
1.328 -0.422 -0.611
1.320 -0.407 -0.606
1.319 -0.394 -0.605
1.323 -0.382 -0.606
1.328 -0.370 -0.608
1.328 -0.357 -0.607
1.317 -0.342 -0.602
0.294 -0.054 -0.133
0.297 -0.051 -0.135
0.307 -0.050 -0.139
0.313 -0.048 -0.142
0.304 -0.044 -0.138
0.304 -0.041 -0.137
0.309 -0.039 -0.140
0.304 -0.035 -0.137
0.303 -0.032 -0.137
0.305 -0.030 -0.138
0.307 -0.027 -0.139
0.315 -0.025 -0.142
0.313 -0.022 -0.141
0.309 -0.019 -0.139
0.308 -0.016 -0.139
0.313 -0.013 -0.141
0.336 -0.011 -0.152
0.339 -0.008 -0.153
0.314 -0.004 -0.142
0.306 -0.001 -0.138
0.315 0.002 -0.142
0.321 0.005 -0.145
0.307 0.016 -0.138
0.331 0.042 -0.150
0.331 0.055 -0.151
0.347 0.067 -0.158
0.313 0.067 -0.143
0.310 0.069 -0.142
0.314 0.073 -0.143
0.309 0.078 -0.142
0.319 0.083 -0.146
0.325 0.088 -0.149
0.330 0.093 -0.152
0.314 0.114 -0.146
0.245 0.183 -0.124
0.242 0.183 -0.123
0.235 0.184 -0.120
0.234 0.187 -0.120
0.237 0.193 -0.122
0.227 0.188 -0.118
0.221 0.186 -0.115
0.222 0.190 -0.116
0.221 0.193 -0.116
0.219 0.194 -0.116
0.215 0.194 -0.114
0.213 0.196 -0.114
0.221 0.207 -0.119
0.222 0.211 -0.120
0.226 0.219 -0.123
0.218 0.215 -0.119
0.208 0.208 -0.114
0.227 0.239 -0.126
0.219 0.242 -0.124
0.215 0.241 -0.122
0.213 0.244 -0.122
0.213 0.247 -0.122
0.189 0.233 -0.111
0.184 0.231 -0.108
0.181 0.230 -0.107
0.184 0.237 -0.109
0.321 -0.266 -0.161
0.328 -0.267 -0.164
0.331 -0.265 -0.164
0.327 -0.258 -0.162
0.326 -0.253 -0.161
0.326 -0.248 -0.160
0.323 -0.242 -0.158
0.324 -0.239 -0.158
0.326 -0.236 -0.159
0.323 -0.230 -0.157
0.324 -0.227 -0.157
0.328 -0.225 -0.158
0.211 -0.134 -0.100
0.209 -0.131 -0.099
0.209 -0.129 -0.099
0.211 -0.128 -0.100
0.309 -0.180 -0.146
0.310 -0.177 -0.146
0.310 -0.173 -0.145
0.311 -0.170 -0.145
0.313 -0.168 -0.146
0.315 -0.165 -0.146
0.316 -0.162 -0.147
0.319 -0.160 -0.147
0.321 -0.158 -0.148
0.324 -0.156 -0.149
0.327 -0.154 -0.151
0.330 -0.152 -0.151
0.333 -0.150 -0.153
0.341 -0.150 -0.156
0.275 -0.109 -0.125
0.290 -0.112 -0.132
0.364 -0.137 -0.165
0.370 -0.136 -0.167
0.373 -0.133 -0.168
0.373 -0.130 -0.168
1.331 -0.436 -0.599
1.325 -0.421 -0.596
1.324 -0.407 -0.594
1.328 -0.396 -0.596
1.321 -0.380 -0.592
1.331 -0.370 -0.595
1.330 -0.357 -0.594
1.315 -0.341 -0.587
0.303 -0.055 -0.134
0.292 -0.051 -0.130
0.295 -0.048 -0.131
0.295 -0.045 -0.131
0.296 -0.043 -0.131
0.296 -0.040 -0.131
0.305 -0.038 -0.135
0.305 -0.035 -0.135
0.302 -0.032 -0.134
0.305 -0.030 -0.135
0.310 -0.027 -0.137
0.309 -0.024 -0.136
0.312 -0.022 -0.138
0.300 -0.018 -0.132
0.308 -0.016 -0.136
0.315 -0.013 -0.139
0.318 -0.010 -0.140
0.332 -0.008 -0.147
0.312 -0.004 -0.138
0.305 -0.001 -0.135
0.308 0.002 -0.136
0.314 0.005 -0.138
0.327 0.008 -0.144
0.315 0.022 -0.139
0.312 0.028 -0.138
0.326 0.051 -0.145
0.322 0.056 -0.143
0.303 0.065 -0.135
0.311 0.069 -0.139
0.316 0.073 -0.141
0.315 0.079 -0.141
0.328 0.095 -0.148
0.330 0.099 -0.149
0.321 0.106 -0.145
0.325 0.117 -0.148
0.363 0.157 -0.167
0.268 0.181 -0.130
0.250 0.179 -0.123
0.243 0.177 -0.120
0.245 0.182 -0.121
0.247 0.187 -0.123
0.248 0.191 -0.124
0.243 0.190 -0.122
0.240 0.192 -0.121
0.235 0.190 -0.119
0.230 0.190 -0.117
0.227 0.190 -0.115
0.222 0.190 -0.114
0.221 0.192 -0.114
0.215 0.190 -0.111
0.216 0.194 -0.112
0.214 0.196 -0.112
0.219 0.204 -0.115
0.226 0.215 -0.119
0.227 0.219 -0.120
0.224 0.220 -0.119
0.208 0.208 -0.111
0.208 0.212 -0.112
0.221 0.228 -0.120
0.214 0.233 -0.118
0.213 0.235 -0.117
0.212 0.238 -0.118
0.213 0.243 -0.119
0.213 0.246 -0.119
0.212 0.250 -0.120
0.204 0.248 -0.117
0.196 0.241 -0.112
0.176 0.220 -0.101
0.178 0.226 -0.103
0.186 0.239 -0.108
0.315 -0.278 -0.156
0.325 -0.283 -0.161
0.332 -0.284 -0.163
0.331 -0.278 -0.162
0.329 -0.272 -0.161
0.333 -0.271 -0.162
0.330 -0.264 -0.160
0.328 -0.258 -0.158
0.327 -0.253 -0.157
0.326 -0.248 -0.156
0.324 -0.243 -0.155
0.326 -0.239 -0.155
0.326 -0.236 -0.155
0.325 -0.230 -0.154
0.323 -0.225 -0.152
0.322 -0.220 -0.151
0.212 -0.135 -0.099
0.207 -0.129 -0.096
0.208 -0.128 -0.097
0.211 -0.127 -0.097
0.308 -0.179 -0.142
0.308 -0.175 -0.141
0.309 -0.172 -0.141
0.310 -0.169 -0.141
0.312 -0.167 -0.142
0.313 -0.164 -0.142
0.315 -0.161 -0.143
0.316 -0.159 -0.143
0.319 -0.157 -0.144
0.321 -0.154 -0.144
0.325 -0.153 -0.146
0.329 -0.151 -0.147
0.332 -0.149 -0.148
0.337 -0.148 -0.151
0.365 -0.138 -0.162
0.369 -0.135 -0.163
0.371 -0.132 -0.164
0.377 -0.131 -0.166
0.382 -0.129 -0.168
1.320 -0.418 -0.580
1.325 -0.407 -0.581
1.327 -0.394 -0.581
1.323 -0.380 -0.579
1.325 -0.368 -0.579
1.329 -0.356 -0.580
1.325 -0.342 -0.578
0.298 -0.054 -0.129
0.283 -0.049 -0.123
0.281 -0.046 -0.122
0.289 -0.044 -0.125
0.294 -0.042 -0.127
0.295 -0.040 -0.128
0.299 -0.038 -0.129
0.300 -0.035 -0.130
0.306 -0.033 -0.132
0.305 -0.030 -0.132
0.307 -0.027 -0.133
0.308 -0.024 -0.133
0.302 -0.021 -0.130
0.301 -0.018 -0.130
0.308 -0.016 -0.133
0.320 -0.013 -0.138
0.313 -0.010 -0.135
0.304 -0.007 -0.131
0.301 -0.004 -0.130
0.298 -0.001 -0.129
0.300 0.001 -0.129
0.305 0.004 -0.131
0.304 0.007 -0.131
0.319 0.010 -0.137
0.349 0.015 -0.151
0.333 0.017 -0.144
0.320 0.025 -0.138
0.309 0.027 -0.134
0.316 0.031 -0.137
0.331 0.051 -0.144
0.306 0.056 -0.133
0.310 0.066 -0.135
0.313 0.069 -0.137
0.318 0.074 -0.139
0.323 0.078 -0.141
0.316 0.079 -0.138
0.316 0.082 -0.139
0.322 0.087 -0.141
0.323 0.091 -0.142
0.331 0.099 -0.146
0.321 0.103 -0.142
0.320 0.109 -0.142
0.320 0.116 -0.142
0.329 0.122 -0.146
0.357 0.155 -0.161
0.277 0.170 -0.130
0.273 0.171 -0.128
0.274 0.178 -0.129
0.257 0.170 -0.122
0.255 0.172 -0.121
0.262 0.180 -0.125
0.252 0.176 -0.120
0.247 0.176 -0.118
0.244 0.178 -0.118
0.245 0.181 -0.118
0.254 0.191 -0.123
0.263 0.202 -0.128
0.249 0.198 -0.122
0.242 0.196 -0.119
0.241 0.199 -0.119
0.228 0.191 -0.113
0.225 0.192 -0.112
0.222 0.193 -0.111
0.221 0.195 -0.111
0.219 0.197 -0.111
0.217 0.198 -0.110
0.225 0.210 -0.115
0.225 0.213 -0.116
0.232 0.223 -0.120
0.228 0.223 -0.118
0.214 0.214 -0.112
0.212 0.215 -0.111
0.217 0.224 -0.115
0.217 0.227 -0.115
0.211 0.228 -0.113
0.216 0.242 -0.117
0.210 0.254 -0.117
0.215 0.264 -0.120
0.187 0.237 -0.106
0.190 0.244 -0.108
0.318 -0.304 -0.158
0.325 -0.306 -0.160
0.329 -0.305 -0.162
0.329 -0.300 -0.161
0.330 -0.296 -0.161
0.328 -0.289 -0.159
0.329 -0.285 -0.159
0.331 -0.283 -0.159
0.334 -0.281 -0.160
0.334 -0.276 -0.159
0.332 -0.270 -0.158
0.327 -0.261 -0.155
0.325 -0.255 -0.153
0.325 -0.251 -0.153
0.324 -0.246 -0.152
0.324 -0.242 -0.151
0.325 -0.238 -0.151
0.324 -0.233 -0.150
0.321 -0.227 -0.149
0.319 -0.222 -0.147
0.309 -0.212 -0.142
0.305 -0.205 -0.140
0.216 -0.137 -0.098
0.207 -0.129 -0.094
0.209 -0.128 -0.095
0.209 -0.126 -0.094
0.301 -0.174 -0.135
0.306 -0.173 -0.137
0.306 -0.170 -0.137
0.309 -0.168 -0.137
0.310 -0.166 -0.138
0.309 -0.161 -0.137
0.311 -0.159 -0.138
0.315 -0.158 -0.139
0.318 -0.156 -0.140
0.320 -0.154 -0.141
0.323 -0.152 -0.142
0.328 -0.150 -0.144
0.331 -0.148 -0.145
0.336 -0.147 -0.147
0.360 -0.135 -0.156
0.364 -0.133 -0.157
0.367 -0.131 -0.158
0.373 -0.129 -0.161
0.381 -0.128 -0.164
0.391 -0.127 -0.168
0.399 -0.126 -0.171
1.315 -0.403 -0.564
1.315 -0.390 -0.563
1.295 -0.372 -0.554
1.300 -0.361 -0.555
1.322 -0.354 -0.564
1.314 -0.339 -0.560
0.293 -0.053 -0.124
0.281 -0.048 -0.119
0.280 -0.046 -0.118
0.290 -0.044 -0.123
0.297 -0.043 -0.126
0.302 -0.041 -0.128
0.299 -0.037 -0.126
0.304 -0.035 -0.128
0.304 -0.032 -0.128
0.307 -0.030 -0.129
0.307 -0.027 -0.130
0.301 -0.024 -0.127
0.299 -0.021 -0.126
0.302 -0.018 -0.127
0.308 -0.016 -0.130
0.305 -0.013 -0.128
0.310 -0.010 -0.131
0.304 -0.007 -0.128
0.301 -0.004 -0.127
0.294 -0.001 -0.124
0.304 0.002 -0.128
0.306 0.004 -0.129
0.294 0.007 -0.124
0.303 0.010 -0.128
0.317 0.013 -0.134
0.335 0.017 -0.141
0.325 0.020 -0.137
0.325 0.023 -0.137
0.327 0.029 -0.138
0.333 0.042 -0.141
0.348 0.047 -0.147
0.304 0.050 -0.129
0.310 0.066 -0.132
0.321 0.074 -0.137
0.328 0.079 -0.140
0.319 0.080 -0.137
0.320 0.083 -0.137
0.323 0.090 -0.138
0.325 0.094 -0.139
0.318 0.095 -0.137
0.334 0.117 -0.145
0.317 0.114 -0.138
0.350 0.151 -0.154
0.299 0.169 -0.135
0.288 0.166 -0.130
0.284 0.167 -0.129
0.276 0.166 -0.126
0.272 0.166 -0.124
0.269 0.168 -0.123
0.267 0.170 -0.123
0.265 0.172 -0.122
0.266 0.176 -0.123
0.261 0.176 -0.121
0.262 0.180 -0.122
0.259 0.181 -0.121
0.252 0.180 -0.118
0.252 0.183 -0.119
0.244 0.180 -0.115
0.267 0.201 -0.126
0.272 0.208 -0.129
0.280 0.218 -0.134
0.258 0.204 -0.124
0.251 0.203 -0.121
0.247 0.203 -0.119
0.232 0.194 -0.113
0.225 0.192 -0.110
0.224 0.194 -0.110
0.225 0.199 -0.111
0.229 0.205 -0.113
0.226 0.206 -0.112
0.230 0.213 -0.115
0.234 0.221 -0.118
0.237 0.227 -0.119
0.229 0.223 -0.116
0.222 0.220 -0.113
0.214 0.217 -0.110
0.213 0.219 -0.110
0.208 0.218 -0.108
0.202 0.214 -0.105
0.203 0.219 -0.106
0.320 -0.335 -0.159
0.322 -0.332 -0.159
0.336 -0.341 -0.165
0.337 -0.337 -0.165
0.332 -0.327 -0.162
0.331 -0.320 -0.160
0.328 -0.313 -0.159
0.331 -0.310 -0.159
0.332 -0.306 -0.159
0.332 -0.302 -0.158
0.330 -0.295 -0.157
0.330 -0.290 -0.156
0.329 -0.285 -0.155
0.329 -0.281 -0.155
0.327 -0.274 -0.153
0.332 -0.273 -0.155
0.332 -0.269 -0.154
0.324 -0.258 -0.150
0.323 -0.253 -0.149
0.321 -0.248 -0.147
0.322 -0.244 -0.147
0.323 -0.241 -0.147
0.323 -0.236 -0.147
0.319 -0.229 -0.144
0.317 -0.224 -0.143
0.314 -0.218 -0.142
0.312 -0.213 -0.140
0.309 -0.207 -0.138
0.207 -0.129 -0.091
0.209 -0.128 -0.092
0.211 -0.127 -0.093
0.296 -0.171 -0.130
0.300 -0.170 -0.131
0.303 -0.168 -0.132
0.306 -0.166 -0.133
0.306 -0.163 -0.133
0.307 -0.160 -0.133
0.310 -0.158 -0.134
0.315 -0.157 -0.136
0.318 -0.156 -0.137
0.321 -0.154 -0.138
0.324 -0.152 -0.139
0.328 -0.150 -0.140
0.331 -0.148 -0.142
0.334 -0.146 -0.142
0.320 -0.133 -0.136
0.357 -0.134 -0.151
0.362 -0.132 -0.153
0.366 -0.130 -0.154
0.372 -0.128 -0.156
0.377 -0.127 -0.158
0.390 -0.127 -0.164
0.403 -0.127 -0.169
0.407 -0.125 -0.170
1.286 -0.369 -0.537
1.292 -0.358 -0.539
1.296 -0.346 -0.540
0.373 -0.075 -0.154
0.306 -0.056 -0.127
0.292 -0.050 -0.121
0.287 -0.047 -0.119
0.290 -0.044 -0.120
0.300 -0.043 -0.124
0.305 -0.041 -0.126
0.313 -0.039 -0.129
0.298 -0.034 -0.123
0.298 -0.032 -0.123
0.301 -0.029 -0.124
0.302 -0.027 -0.124
0.303 -0.024 -0.125
0.302 -0.021 -0.124
0.303 -0.018 -0.125
0.303 -0.015 -0.124
0.305 -0.013 -0.126
0.307 -0.010 -0.126
0.308 -0.007 -0.127
0.306 -0.004 -0.126
0.306 -0.001 -0.126
0.303 0.001 -0.125
0.295 0.004 -0.121
0.306 0.007 -0.126
0.303 0.010 -0.125
0.319 0.013 -0.131
0.325 0.017 -0.134
0.331 0.020 -0.136
0.319 0.022 -0.132
0.327 0.026 -0.135
0.336 0.030 -0.139
0.328 0.032 -0.135
0.321 0.040 -0.133
0.331 0.051 -0.137
0.295 0.048 -0.122
0.298 0.052 -0.123
0.336 0.065 -0.140
0.332 0.067 -0.138
0.299 0.066 -0.125
0.314 0.072 -0.131
0.327 0.079 -0.136
0.327 0.082 -0.136
0.321 0.083 -0.134
0.323 0.087 -0.135
0.320 0.089 -0.134
0.307 0.098 -0.129
0.331 0.112 -0.140
0.329 0.142 -0.141
0.339 0.150 -0.146
0.277 0.138 -0.120
0.303 0.157 -0.132
0.300 0.162 -0.132
0.296 0.164 -0.130
0.286 0.161 -0.126
0.281 0.162 -0.124
0.281 0.165 -0.124
0.279 0.167 -0.124
0.276 0.169 -0.123
0.272 0.169 -0.121
0.269 0.171 -0.121
0.271 0.175 -0.122
0.273 0.180 -0.123
0.267 0.180 -0.121
0.267 0.183 -0.121
0.262 0.183 -0.119
0.259 0.184 -0.119
0.260 0.188 -0.119
0.250 0.184 -0.115
0.283 0.216 -0.131
0.293 0.228 -0.137
0.259 0.209 -0.122
0.250 0.205 -0.118
0.236 0.197 -0.112
0.231 0.196 -0.110
0.226 0.195 -0.108
0.234 0.206 -0.113
0.241 0.216 -0.116
0.237 0.216 -0.115
0.236 0.218 -0.115
0.237 0.223 -0.116
0.234 0.224 -0.115
0.232 0.226 -0.115
0.220 0.218 -0.109
0.220 0.221 -0.110
0.221 0.226 -0.111
0.328 -0.358 -0.161
0.330 -0.355 -0.161
0.328 -0.348 -0.159
0.331 -0.345 -0.160
0.335 -0.344 -0.161
0.339 -0.343 -0.163
0.337 -0.335 -0.161
0.333 -0.327 -0.158
0.330 -0.319 -0.156
0.329 -0.313 -0.155
0.330 -0.309 -0.155
0.329 -0.303 -0.154
0.327 -0.297 -0.152
0.328 -0.293 -0.152
0.329 -0.289 -0.152
0.328 -0.283 -0.151
0.326 -0.277 -0.149
0.326 -0.272 -0.148
0.329 -0.271 -0.150
0.326 -0.264 -0.148
0.322 -0.256 -0.145
0.320 -0.250 -0.144
0.321 -0.247 -0.144
0.321 -0.243 -0.143
0.323 -0.240 -0.144
0.322 -0.235 -0.142
0.318 -0.229 -0.141
0.313 -0.221 -0.138
0.313 -0.217 -0.138
0.313 -0.213 -0.137
0.315 -0.211 -0.137
0.209 -0.130 -0.090
0.207 -0.127 -0.089
0.208 -0.125 -0.089
0.215 -0.126 -0.092
0.292 -0.168 -0.125
0.297 -0.168 -0.127
0.300 -0.166 -0.128
0.301 -0.164 -0.128
0.303 -0.161 -0.128
0.306 -0.159 -0.129
0.310 -0.158 -0.131
0.313 -0.156 -0.132
0.319 -0.156 -0.134
0.321 -0.154 -0.135
0.324 -0.152 -0.136
0.328 -0.150 -0.137
0.332 -0.148 -0.138
0.334 -0.146 -0.139
0.318 -0.132 -0.132
0.359 -0.135 -0.148
0.362 -0.132 -0.149
0.368 -0.130 -0.151
0.369 -0.127 -0.151
0.379 -0.127 -0.155
0.384 -0.125 -0.157
0.396 -0.125 -0.162
0.403 -0.123 -0.165
0.413 -0.122 -0.168
1.318 -0.365 -0.536
1.296 -0.346 -0.527
1.282 -0.330 -0.521
0.373 -0.075 -0.151
0.365 -0.070 -0.147
0.302 -0.055 -0.122
0.291 -0.050 -0.117
0.288 -0.047 -0.116
0.293 -0.045 -0.118
0.305 -0.044 -0.123
0.305 -0.041 -0.123
0.301 -0.038 -0.121
0.301 -0.035 -0.121
0.298 -0.032 -0.120
0.301 -0.029 -0.121
0.306 -0.027 -0.123
0.306 -0.024 -0.123
0.303 -0.021 -0.121
0.301 -0.018 -0.121
0.298 -0.015 -0.120
0.301 -0.012 -0.121
0.308 -0.010 -0.123
0.307 -0.007 -0.123
0.297 -0.004 -0.119
0.302 -0.001 -0.121
0.301 0.001 -0.121
0.311 0.004 -0.125
0.312 0.007 -0.125
0.323 0.011 -0.130
0.323 0.014 -0.130
0.322 0.016 -0.129
0.321 0.019 -0.129
0.316 0.022 -0.127
0.327 0.026 -0.131
0.326 0.029 -0.131
0.327 0.035 -0.132
0.310 0.042 -0.125
0.309 0.048 -0.125
0.296 0.051 -0.120
0.317 0.058 -0.128
0.329 0.063 -0.133
0.338 0.068 -0.137
0.307 0.065 -0.125
0.306 0.068 -0.124
0.305 0.070 -0.124
0.320 0.077 -0.130
0.327 0.082 -0.133
0.330 0.086 -0.135
0.318 0.089 -0.130
0.324 0.097 -0.133
0.328 0.101 -0.134
0.314 0.100 -0.129
0.324 0.106 -0.133
0.334 0.113 -0.138
0.330 0.142 -0.138
0.324 0.143 -0.136
0.311 0.141 -0.131
0.306 0.141 -0.129
0.297 0.141 -0.125
0.291 0.141 -0.123
0.285 0.141 -0.121
0.292 0.148 -0.124
0.293 0.152 -0.125
0.291 0.154 -0.124
0.295 0.159 -0.126
0.290 0.160 -0.124
0.286 0.161 -0.123
0.283 0.162 -0.122
0.283 0.166 -0.122
0.285 0.170 -0.123
0.282 0.172 -0.122
0.277 0.172 -0.121
0.275 0.174 -0.120
0.279 0.180 -0.122
0.272 0.179 -0.120
0.275 0.185 -0.121
0.270 0.184 -0.119
0.265 0.184 -0.118
0.262 0.186 -0.117
0.256 0.185 -0.115
0.260 0.191 -0.117
0.268 0.200 -0.121
0.273 0.219 -0.125
0.261 0.213 -0.120
0.243 0.202 -0.112
0.235 0.199 -0.109
0.237 0.204 -0.110
0.240 0.210 -0.112
0.247 0.220 -0.116
0.254 0.238 -0.121
0.235 0.224 -0.113
0.224 0.218 -0.108
0.339 -0.387 -0.165
0.330 -0.371 -0.159
0.331 -0.366 -0.159
0.334 -0.365 -0.160
0.335 -0.360 -0.159
0.332 -0.352 -0.157
0.331 -0.345 -0.156
0.333 -0.341 -0.156
0.335 -0.339 -0.157
0.333 -0.331 -0.155
0.330 -0.324 -0.153
0.328 -0.317 -0.151
0.326 -0.309 -0.150
0.322 -0.301 -0.147
0.321 -0.295 -0.146
0.326 -0.295 -0.148
0.327 -0.291 -0.148
0.328 -0.287 -0.147
0.327 -0.282 -0.147
0.325 -0.276 -0.145
0.326 -0.272 -0.145
0.328 -0.269 -0.145
0.328 -0.264 -0.144
0.321 -0.255 -0.141
0.321 -0.250 -0.140
0.321 -0.247 -0.140
0.321 -0.242 -0.140
0.321 -0.238 -0.139
0.321 -0.234 -0.139
0.316 -0.226 -0.136
0.313 -0.220 -0.134
0.310 -0.215 -0.133
0.311 -0.212 -0.133
0.304 -0.203 -0.129
0.308 -0.202 -0.131
0.212 -0.132 -0.089
0.208 -0.127 -0.088
0.209 -0.125 -0.088
0.212 -0.124 -0.089
0.256 -0.142 -0.106
0.299 -0.159 -0.124
0.306 -0.159 -0.126
0.309 -0.158 -0.127
0.314 -0.156 -0.129
0.316 -0.154 -0.130
0.321 -0.153 -0.131
0.324 -0.151 -0.132
0.327 -0.149 -0.133
0.330 -0.147 -0.134
0.330 -0.144 -0.134
0.354 -0.136 -0.142
0.361 -0.135 -0.145
0.364 -0.133 -0.146
0.366 -0.130 -0.147
0.370 -0.128 -0.148
0.376 -0.126 -0.150
0.381 -0.124 -0.152
0.387 -0.122 -0.154
0.398 -0.122 -0.159
0.406 -0.120 -0.162
0.414 -0.118 -0.164
1.294 -0.357 -0.514
1.305 -0.348 -0.517
1.298 -0.333 -0.514
0.364 -0.073 -0.144
0.363 -0.069 -0.143
0.291 -0.053 -0.114
0.285 -0.049 -0.112
0.284 -0.046 -0.112
0.295 -0.045 -0.116
0.301 -0.043 -0.118
0.300 -0.040 -0.118
0.302 -0.038 -0.118
0.304 -0.035 -0.119
0.304 -0.032 -0.119
0.304 -0.029 -0.119
0.303 -0.027 -0.119
0.300 -0.024 -0.118
0.302 -0.021 -0.118
0.303 -0.018 -0.119
0.301 -0.015 -0.118
0.306 -0.013 -0.120
0.309 -0.010 -0.121
0.302 -0.007 -0.118
0.297 -0.004 -0.116
0.312 -0.001 -0.122
0.319 0.002 -0.125
0.322 0.005 -0.126
0.334 0.008 -0.131
0.338 0.011 -0.132
0.340 0.014 -0.133
0.328 0.017 -0.128
0.329 0.020 -0.129
0.329 0.023 -0.129
0.332 0.026 -0.130
0.337 0.030 -0.132
0.335 0.033 -0.131
0.337 0.036 -0.132
0.324 0.038 -0.127
0.303 0.038 -0.119
0.304 0.041 -0.119
0.318 0.046 -0.125
0.303 0.050 -0.120
0.287 0.052 -0.113
0.311 0.066 -0.123
0.302 0.067 -0.120
0.303 0.070 -0.120
0.311 0.075 -0.124
0.321 0.080 -0.128
0.324 0.084 -0.129
0.315 0.085 -0.125
0.313 0.087 -0.125
0.315 0.091 -0.126
0.325 0.097 -0.130
0.324 0.100 -0.130
0.325 0.103 -0.130
0.332 0.112 -0.134
0.333 0.116 -0.134
0.324 0.116 -0.131
0.320 0.118 -0.129
0.309 0.117 -0.125
0.320 0.124 -0.130
0.333 0.133 -0.135
0.339 0.139 -0.138
0.336 0.141 -0.137
0.326 0.140 -0.133
0.311 0.137 -0.127
0.304 0.137 -0.125
0.307 0.142 -0.126
0.303 0.143 -0.125
0.300 0.145 -0.124
0.301 0.149 -0.124
0.294 0.149 -0.122
0.292 0.151 -0.121
0.293 0.155 -0.122
0.294 0.159 -0.123
0.294 0.162 -0.123
0.292 0.164 -0.122
0.292 0.167 -0.123
0.289 0.169 -0.122
0.289 0.172 -0.122
0.290 0.176 -0.123
0.285 0.177 -0.121
0.285 0.180 -0.121
0.293 0.189 -0.125
0.286 0.188 -0.123
0.277 0.186 -0.119
0.277 0.189 -0.120
0.271 0.188 -0.118
0.271 0.192 -0.118
0.337 -0.413 -0.163
0.342 -0.412 -0.164
0.350 -0.416 -0.168
0.340 -0.399 -0.162
0.341 -0.394 -0.162
0.337 -0.383 -0.159
0.330 -0.370 -0.155
0.329 -0.364 -0.154
0.335 -0.365 -0.156
0.337 -0.362 -0.156
0.335 -0.354 -0.155
0.331 -0.344 -0.152
0.330 -0.338 -0.151
0.332 -0.334 -0.151
0.332 -0.330 -0.151
0.329 -0.321 -0.148
0.327 -0.315 -0.147
0.324 -0.307 -0.145
0.320 -0.298 -0.142
0.323 -0.296 -0.143
0.325 -0.293 -0.143
0.324 -0.288 -0.142
0.327 -0.286 -0.143
0.327 -0.281 -0.143
0.323 -0.273 -0.140
0.323 -0.269 -0.140
0.328 -0.268 -0.141
0.321 -0.259 -0.138
0.321 -0.254 -0.137
0.320 -0.250 -0.137
0.321 -0.246 -0.137
0.320 -0.241 -0.136
0.319 -0.236 -0.135
0.314 -0.228 -0.132
0.314 -0.225 -0.132
0.311 -0.218 -0.130
0.308 -0.213 -0.129
0.302 -0.205 -0.126
0.300 -0.200 -0.124
0.297 -0.194 -0.123
0.216 -0.134 -0.089
0.209 -0.127 -0.086
0.209 -0.125 -0.085
0.210 -0.123 -0.086
0.246 -0.136 -0.099
0.247 -0.133 -0.099
0.260 -0.138 -0.105
0.305 -0.158 -0.123
0.309 -0.157 -0.124
0.313 -0.156 -0.125
0.317 -0.154 -0.126
0.319 -0.152 -0.127
0.322 -0.150 -0.128
0.325 -0.148 -0.129
0.327 -0.146 -0.130
0.337 -0.147 -0.133
0.326 -0.138 -0.129
0.362 -0.135 -0.142
0.363 -0.132 -0.142
0.365 -0.129 -0.143
0.368 -0.127 -0.144
0.373 -0.125 -0.145
0.380 -0.123 -0.148
0.392 -0.123 -0.152
0.398 -0.121 -0.154
0.404 -0.119 -0.157
0.409 -0.117 -0.159
1.288 -0.343 -0.498
1.295 -0.332 -0.500
0.355 -0.074 -0.136
0.357 -0.071 -0.137
0.348 -0.066 -0.134
0.298 -0.054 -0.114
0.288 -0.049 -0.111
0.286 -0.046 -0.110
0.291 -0.044 -0.112
0.301 -0.043 -0.115
0.301 -0.040 -0.115
0.305 -0.038 -0.117
0.306 -0.035 -0.117
0.308 -0.033 -0.118
0.305 -0.030 -0.117
0.302 -0.026 -0.115
0.301 -0.024 -0.115
0.302 -0.021 -0.115
0.302 -0.018 -0.115
0.298 -0.015 -0.114
0.303 -0.013 -0.116
0.302 -0.010 -0.115
0.305 -0.007 -0.117
0.312 -0.004 -0.119
0.331 0.002 -0.126
0.328 0.005 -0.125
0.338 0.008 -0.129
0.337 0.011 -0.129
0.339 0.014 -0.129
0.329 0.017 -0.126
0.329 0.020 -0.126
0.332 0.023 -0.127
0.343 0.027 -0.131
0.334 0.033 -0.128
0.318 0.034 -0.122
0.321 0.037 -0.123
0.309 0.039 -0.119
0.308 0.041 -0.118
0.311 0.045 -0.119
0.311 0.051 -0.120
0.290 0.053 -0.112
0.296 0.057 -0.114
0.307 0.062 -0.118
0.307 0.065 -0.118
0.305 0.067 -0.118
0.313 0.072 -0.121
0.320 0.077 -0.124
0.322 0.080 -0.125
0.315 0.081 -0.122
0.314 0.084 -0.122
0.313 0.087 -0.122
0.325 0.094 -0.127
0.326 0.097 -0.127
0.323 0.099 -0.126
0.328 0.104 -0.128
0.315 0.103 -0.123
0.318 0.107 -0.125
0.344 0.119 -0.135
0.351 0.125 -0.138
0.338 0.124 -0.133
0.316 0.122 -0.125
0.324 0.129 -0.128
0.333 0.136 -0.132
0.325 0.136 -0.129
0.320 0.137 -0.127
0.313 0.138 -0.125
0.303 0.137 -0.121
0.302 0.139 -0.121
0.306 0.144 -0.123
0.305 0.147 -0.123
0.303 0.150 -0.122
0.299 0.151 -0.121
0.296 0.153 -0.120
0.299 0.157 -0.121
0.299 0.161 -0.122
0.303 0.167 -0.124
0.306 0.172 -0.125
0.300 0.172 -0.123
0.301 0.176 -0.124
0.336 -0.439 -0.161
0.340 -0.438 -0.163
0.339 -0.431 -0.161
0.337 -0.424 -0.160
0.336 -0.416 -0.159
0.336 -0.410 -0.158
0.340 -0.410 -0.160
0.345 -0.410 -0.161
0.343 -0.402 -0.159
0.342 -0.394 -0.158
0.335 -0.381 -0.154
0.330 -0.370 -0.151
0.329 -0.363 -0.150
0.330 -0.358 -0.150
0.332 -0.356 -0.150
0.331 -0.349 -0.149
0.330 -0.343 -0.148
0.328 -0.335 -0.146
0.330 -0.332 -0.146
0.330 -0.327 -0.146
0.326 -0.318 -0.143
0.325 -0.312 -0.142
0.323 -0.305 -0.141
0.323 -0.301 -0.140
0.323 -0.296 -0.139
0.319 -0.288 -0.137
0.320 -0.284 -0.137
0.323 -0.282 -0.138
0.324 -0.279 -0.138
0.321 -0.271 -0.136
0.317 -0.264 -0.134
0.317 -0.259 -0.133
0.318 -0.256 -0.133
0.318 -0.252 -0.133
0.317 -0.246 -0.132
0.317 -0.242 -0.131
0.318 -0.239 -0.131
0.312 -0.231 -0.129
0.311 -0.226 -0.127
0.308 -0.220 -0.126
0.308 -0.216 -0.126
0.304 -0.210 -0.124
0.302 -0.205 -0.122
0.300 -0.199 -0.121
0.298 -0.195 -0.120
0.214 -0.132 -0.086
0.209 -0.127 -0.083
0.208 -0.124 -0.083
0.208 -0.122 -0.083
0.218 -0.125 -0.086
0.243 -0.137 -0.096
0.245 -0.135 -0.096
0.245 -0.132 -0.096
0.247 -0.131 -0.097
0.308 -0.156 -0.120
0.312 -0.155 -0.121
0.315 -0.153 -0.123
0.317 -0.151 -0.123
0.320 -0.149 -0.124
0.322 -0.147 -0.125
0.325 -0.144 -0.125
0.339 -0.147 -0.131
0.360 -0.134 -0.137
0.363 -0.132 -0.138
0.364 -0.129 -0.139
0.366 -0.126 -0.139
0.373 -0.124 -0.141
0.381 -0.123 -0.145
0.394 -0.124 -0.149
0.403 -0.123 -0.153
0.406 -0.120 -0.153
0.411 -0.117 -0.155
0.413 -0.114 -0.156
1.299 -0.333 -0.489
0.355 -0.074 -0.133
0.364 -0.072 -0.136
0.294 -0.050 -0.110
0.289 -0.047 -0.108
0.293 -0.045 -0.109
0.299 -0.043 -0.112
0.295 -0.039 -0.110
0.300 -0.037 -0.112
0.299 -0.034 -0.112
0.301 -0.032 -0.112
0.300 -0.029 -0.112
0.306 -0.027 -0.114
0.307 -0.024 -0.114
0.308 -0.021 -0.115
0.304 -0.018 -0.113
0.301 -0.015 -0.112
0.301 -0.012 -0.112
0.323 -0.010 -0.120
0.324 -0.001 -0.120
0.309 0.001 -0.115
0.331 0.005 -0.123
0.322 0.016 -0.120
0.327 0.020 -0.122
0.325 0.023 -0.121
0.338 0.027 -0.126
0.334 0.029 -0.125
0.329 0.032 -0.123
0.309 0.033 -0.115
0.319 0.040 -0.119
0.319 0.043 -0.119
0.313 0.045 -0.117
0.307 0.047 -0.115
0.311 0.051 -0.117
0.312 0.054 -0.117
0.310 0.056 -0.116
0.308 0.059 -0.116
0.304 0.064 -0.114
0.306 0.067 -0.115
0.326 0.078 -0.123
0.323 0.080 -0.122
0.320 0.083 -0.121
0.319 0.085 -0.121
0.323 0.090 -0.122
0.321 0.092 -0.122
0.331 0.101 -0.126
0.334 0.106 -0.127
0.326 0.107 -0.124
0.352 0.122 -0.135
0.357 0.127 -0.137
0.346 0.127 -0.133
0.329 0.124 -0.126
0.324 0.126 -0.125
0.334 0.133 -0.129
0.328 0.134 -0.127
0.325 0.136 -0.126
0.321 0.138 -0.124
0.318 0.139 -0.123
0.305 0.137 -0.119
0.307 0.142 -0.120
0.307 0.145 -0.120
0.303 0.146 -0.119
0.302 0.149 -0.118
0.305 0.153 -0.120
0.311 0.160 -0.122
0.333 0.186 -0.132
0.330 -0.442 -0.156
0.337 -0.446 -0.158
0.332 -0.433 -0.155
0.342 -0.440 -0.159
0.341 -0.433 -0.158
0.335 -0.420 -0.155
0.334 -0.414 -0.154
0.337 -0.411 -0.155
0.336 -0.405 -0.154
0.338 -0.400 -0.153
0.342 -0.400 -0.155
0.334 -0.385 -0.151
0.334 -0.379 -0.150
0.334 -0.374 -0.149
0.329 -0.362 -0.146
0.329 -0.357 -0.145
0.330 -0.352 -0.145
0.328 -0.345 -0.144
0.324 -0.336 -0.141
0.324 -0.331 -0.141
0.327 -0.328 -0.141
0.326 -0.322 -0.140
0.322 -0.314 -0.138
0.322 -0.309 -0.137
0.323 -0.305 -0.137
0.322 -0.299 -0.136
0.320 -0.292 -0.134
0.318 -0.286 -0.133
0.316 -0.280 -0.132
0.317 -0.276 -0.132
0.319 -0.273 -0.132
0.315 -0.265 -0.130
0.313 -0.259 -0.128
0.314 -0.256 -0.128
0.317 -0.254 -0.129
0.315 -0.249 -0.128
0.312 -0.242 -0.126
0.311 -0.237 -0.125
0.312 -0.234 -0.125
0.309 -0.228 -0.124
0.306 -0.222 -0.122
0.305 -0.218 -0.122
0.304 -0.213 -0.120
0.303 -0.208 -0.120
0.300 -0.203 -0.118
0.299 -0.199 -0.118
0.295 -0.193 -0.116
0.220 -0.136 -0.086
0.208 -0.126 -0.081
0.207 -0.123 -0.080
0.209 -0.122 -0.081
0.214 -0.122 -0.082
0.244 -0.137 -0.094
0.244 -0.134 -0.093
0.244 -0.132 -0.093
0.245 -0.129 -0.094
0.308 -0.156 -0.117
0.309 -0.153 -0.117
0.313 -0.152 -0.118
0.316 -0.150 -0.119
0.320 -0.148 -0.121
0.323 -0.146 -0.121
0.323 -0.143 -0.121
0.339 -0.147 -0.127
0.353 -0.131 -0.131
0.361 -0.131 -0.134
0.364 -0.128 -0.135
0.366 -0.126 -0.136
0.375 -0.125 -0.139
0.380 -0.123 -0.140
0.395 -0.124 -0.146
0.404 -0.123 -0.149
0.414 -0.122 -0.152
0.418 -0.119 -0.153
0.418 -0.115 -0.153
0.423 -0.112 -0.155
0.384 -0.080 -0.140
0.392 -0.078 -0.143
0.305 -0.055 -0.111
0.294 -0.050 -0.107
0.290 -0.047 -0.106
0.286 -0.044 -0.104
0.287 -0.041 -0.104
0.285 -0.038 -0.104
0.291 -0.036 -0.106
0.295 -0.034 -0.107
0.299 -0.032 -0.108
0.298 -0.029 -0.108
0.304 -0.027 -0.110
0.304 -0.024 -0.110
0.302 -0.021 -0.109
0.300 -0.018 -0.109
0.297 -0.015 -0.108
0.324 -0.013 -0.117
0.337 -0.011 -0.122
0.342 -0.008 -0.124
0.336 -0.005 -0.122
0.320 -0.001 -0.116
0.320 0.002 -0.116
0.322 0.004 -0.117
0.301 0.010 -0.109
0.302 0.013 -0.109
0.309 0.016 -0.112
0.325 0.019 -0.118
0.327 0.023 -0.119
0.326 0.026 -0.118
0.336 0.029 -0.122
0.326 0.032 -0.118
0.316 0.034 -0.115
0.325 0.038 -0.118
0.336 0.042 -0.122
0.340 0.046 -0.124
0.330 0.047 -0.120
0.319 0.049 -0.116
0.315 0.051 -0.115
0.315 0.054 -0.115
0.315 0.057 -0.115
0.312 0.060 -0.114
0.308 0.062 -0.113
0.310 0.065 -0.113
0.306 0.067 -0.112
0.316 0.075 -0.116
0.331 0.085 -0.122
0.334 0.089 -0.123
0.334 0.092 -0.123
0.332 0.095 -0.122
0.331 0.098 -0.122
0.328 0.101 -0.122
0.335 0.106 -0.124
0.329 0.107 -0.122
0.333 0.112 -0.124
0.324 0.119 -0.121
0.328 0.127 -0.123
0.333 0.132 -0.125
0.335 0.136 -0.126
0.330 0.138 -0.124
0.328 0.140 -0.124
0.324 0.142 -0.122
0.321 0.144 -0.122
0.307 0.141 -0.117
0.306 0.144 -0.116
0.300 0.144 -0.114
0.307 0.151 -0.117
0.343 -0.458 -0.157
0.346 -0.457 -0.158
0.340 -0.443 -0.155
0.339 -0.436 -0.154
0.338 -0.429 -0.153
0.336 -0.421 -0.151
0.337 -0.416 -0.151
0.338 -0.412 -0.151
0.338 -0.405 -0.150
0.337 -0.399 -0.149
0.334 -0.390 -0.147
0.332 -0.381 -0.145
0.333 -0.377 -0.145
0.333 -0.371 -0.144
0.330 -0.362 -0.142
0.328 -0.355 -0.141
0.329 -0.351 -0.141
0.327 -0.344 -0.139
0.323 -0.334 -0.137
0.323 -0.329 -0.136
0.324 -0.324 -0.136
0.322 -0.318 -0.135
0.322 -0.313 -0.134
0.319 -0.305 -0.132
0.319 -0.300 -0.131
0.321 -0.297 -0.132
0.318 -0.290 -0.130
0.315 -0.283 -0.128
0.312 -0.275 -0.126
0.313 -0.272 -0.127
0.314 -0.268 -0.126
0.312 -0.263 -0.125
0.311 -0.257 -0.124
0.312 -0.254 -0.124
0.313 -0.251 -0.124
0.310 -0.244 -0.122
0.307 -0.238 -0.121
0.309 -0.235 -0.121
0.310 -0.232 -0.121
0.308 -0.227 -0.120
0.304 -0.220 -0.118
0.302 -0.215 -0.117
0.300 -0.210 -0.116
0.299 -0.205 -0.115
0.297 -0.200 -0.114
0.296 -0.196 -0.113
0.291 -0.189 -0.111
0.284 -0.182 -0.108
0.209 -0.127 -0.079
0.208 -0.123 -0.078
0.208 -0.121 -0.078
0.212 -0.121 -0.080
0.242 -0.136 -0.091
0.244 -0.134 -0.091
0.244 -0.131 -0.091
0.244 -0.128 -0.090
0.245 -0.127 -0.091
0.307 -0.155 -0.113
0.308 -0.152 -0.114
0.312 -0.151 -0.115
0.317 -0.150 -0.116
0.320 -0.148 -0.117
0.322 -0.146 -0.118
0.325 -0.144 -0.119
0.324 -0.140 -0.118
0.286 -0.118 -0.104
0.340 -0.130 -0.123
0.354 -0.132 -0.128
0.358 -0.130 -0.129
0.363 -0.128 -0.131
0.367 -0.126 -0.132
0.375 -0.125 -0.135
0.377 -0.122 -0.135
0.383 -0.120 -0.137
0.406 -0.123 -0.146
0.415 -0.122 -0.149
0.423 -0.120 -0.151
0.429 -0.118 -0.153
0.438 -0.116 -0.156
0.442 -0.113 -0.158
0.383 -0.083 -0.136
0.388 -0.081 -0.138
0.398 -0.079 -0.141
0.303 -0.055 -0.108
0.293 -0.050 -0.104
0.289 -0.047 -0.102
0.287 -0.044 -0.101
0.286 -0.041 -0.101
0.287 -0.038 -0.101
0.291 -0.036 -0.103
0.303 -0.035 -0.107
0.297 -0.031 -0.105
0.294 -0.028 -0.104
0.303 -0.026 -0.107
0.302 -0.024 -0.107
0.301 -0.021 -0.106
0.297 -0.018 -0.105
0.309 -0.016 -0.109
0.324 -0.013 -0.114
0.338 -0.011 -0.119
0.338 -0.008 -0.119
0.325 -0.004 -0.115
0.316 -0.001 -0.112
0.314 0.001 -0.111
0.319 0.004 -0.113
0.318 0.007 -0.112
0.311 0.010 -0.110
0.312 0.013 -0.110
0.328 0.017 -0.116
0.334 0.020 -0.118
0.332 0.023 -0.117
0.326 0.026 -0.115
0.328 0.029 -0.116
0.339 0.033 -0.120
0.334 0.035 -0.118
0.338 0.039 -0.119
0.343 0.043 -0.121
0.345 0.046 -0.122
0.340 0.049 -0.120
0.333 0.051 -0.118
0.326 0.053 -0.116
0.322 0.055 -0.114
0.314 0.057 -0.112
0.311 0.059 -0.111
0.310 0.062 -0.110
0.307 0.064 -0.109
0.306 0.067 -0.109
0.308 0.070 -0.110
0.316 0.081 -0.113
0.339 0.091 -0.122
0.346 0.096 -0.124
0.342 0.098 -0.123
0.342 0.101 -0.123
0.329 0.101 -0.118
0.343 0.108 -0.124
0.338 0.110 -0.122
0.327 0.110 -0.118
0.317 0.109 -0.115
0.315 0.112 -0.114
0.314 0.115 -0.114
0.324 0.122 -0.118
0.331 0.128 -0.121
0.334 0.146 -0.123
0.325 0.145 -0.120
0.358 0.183 -0.134
0.341 -0.455 -0.152
0.341 -0.449 -0.151
0.338 -0.440 -0.150
0.333 -0.427 -0.147
0.339 -0.430 -0.149
0.338 -0.423 -0.148
0.336 -0.414 -0.146
0.336 -0.409 -0.146
0.337 -0.404 -0.146
0.335 -0.396 -0.144
0.333 -0.387 -0.142
0.331 -0.380 -0.141
0.330 -0.374 -0.140
0.328 -0.365 -0.138
0.330 -0.362 -0.138
0.327 -0.353 -0.136
0.327 -0.348 -0.136
0.327 -0.343 -0.135
0.326 -0.336 -0.134
0.324 -0.329 -0.133
0.320 -0.320 -0.131
0.320 -0.315 -0.130
0.318 -0.308 -0.129
0.319 -0.305 -0.128
0.320 -0.301 -0.128
0.317 -0.294 -0.127
0.318 -0.290 -0.126
0.312 -0.280 -0.124
0.309 -0.273 -0.122
0.312 -0.270 -0.122
0.315 -0.269 -0.123
0.314 -0.264 -0.122
0.312 -0.258 -0.121
0.309 -0.251 -0.119
0.310 -0.248 -0.119
0.310 -0.244 -0.119
0.308 -0.238 -0.118
0.309 -0.235 -0.118
0.308 -0.230 -0.117
0.305 -0.224 -0.115
0.303 -0.219 -0.114
0.300 -0.213 -0.113
0.298 -0.208 -0.112
0.296 -0.203 -0.111
0.295 -0.199 -0.110
0.294 -0.195 -0.109
0.291 -0.189 -0.108
0.283 -0.181 -0.105
0.209 -0.126 -0.077
0.207 -0.123 -0.076
0.208 -0.121 -0.076
0.209 -0.119 -0.076
0.247 -0.138 -0.090
0.247 -0.135 -0.090
0.243 -0.131 -0.088
0.244 -0.128 -0.088
0.245 -0.127 -0.088
0.302 -0.153 -0.109
0.309 -0.153 -0.111
0.312 -0.151 -0.112
0.318 -0.151 -0.114
0.320 -0.148 -0.114
0.320 -0.145 -0.114
0.319 -0.141 -0.113
0.323 -0.140 -0.115
0.292 -0.120 -0.103
0.338 -0.129 -0.119
0.354 -0.132 -0.125
0.357 -0.129 -0.125
0.363 -0.128 -0.127
0.367 -0.125 -0.128
0.371 -0.123 -0.130
0.378 -0.122 -0.132
0.386 -0.121 -0.135
0.401 -0.122 -0.140
0.415 -0.122 -0.144
0.424 -0.120 -0.148
0.433 -0.119 -0.151
0.443 -0.117 -0.154
0.449 -0.115 -0.156
0.387 -0.084 -0.134
0.403 -0.084 -0.139
0.389 -0.077 -0.134
0.298 -0.053 -0.103
0.291 -0.050 -0.100
0.291 -0.047 -0.100
0.292 -0.044 -0.101
0.300 -0.043 -0.103
0.303 -0.040 -0.104
0.306 -0.038 -0.105
0.301 -0.035 -0.103
0.293 -0.031 -0.101
0.291 -0.028 -0.100
0.298 -0.026 -0.102
0.311 -0.024 -0.107
0.310 -0.021 -0.106
0.308 -0.016 -0.106
0.323 -0.013 -0.111
0.332 -0.011 -0.114
0.325 -0.007 -0.111
0.312 -0.004 -0.107
0.311 -0.001 -0.107
0.320 0.002 -0.110
0.317 0.004 -0.109
0.314 0.007 -0.108
0.316 0.010 -0.109
0.333 0.014 -0.114
0.333 0.017 -0.114
0.333 0.020 -0.114
0.329 0.023 -0.113
0.335 0.026 -0.115
0.329 0.029 -0.113
0.332 0.032 -0.114
0.337 0.036 -0.116
0.326 0.038 -0.112
0.336 0.045 -0.116
0.334 0.048 -0.115
0.338 0.052 -0.117
0.339 0.055 -0.117
0.331 0.057 -0.114
0.312 0.056 -0.108
0.313 0.060 -0.108
0.311 0.062 -0.108
0.313 0.065 -0.108
0.312 0.068 -0.108
0.310 0.071 -0.108
0.333 0.082 -0.116
0.329 0.085 -0.115
0.335 0.089 -0.117
0.349 0.096 -0.122
0.340 0.104 -0.119
0.345 0.109 -0.121
0.330 0.107 -0.116
0.323 0.108 -0.114
0.311 0.107 -0.109
0.320 0.114 -0.113
0.321 0.117 -0.113
0.326 0.122 -0.115
0.332 0.128 -0.118
0.331 0.144 -0.118
0.344 0.154 -0.123
0.359 0.192 -0.131
0.333 -0.450 -0.145
0.334 -0.446 -0.145
0.334 -0.440 -0.144
0.332 -0.431 -0.143
0.335 -0.429 -0.143
0.335 -0.425 -0.143
0.335 -0.419 -0.142
0.330 -0.406 -0.140
0.329 -0.399 -0.139
0.331 -0.396 -0.139
0.332 -0.392 -0.139
0.330 -0.384 -0.137
0.329 -0.377 -0.136
0.327 -0.369 -0.135
0.328 -0.364 -0.134
0.323 -0.354 -0.132
0.324 -0.350 -0.132
0.326 -0.347 -0.132
0.327 -0.342 -0.131
0.324 -0.333 -0.129
0.321 -0.326 -0.128
0.316 -0.316 -0.125
0.315 -0.310 -0.124
0.317 -0.307 -0.124
0.318 -0.303 -0.124
0.320 -0.300 -0.125
0.321 -0.296 -0.124
0.315 -0.286 -0.122
0.310 -0.277 -0.119
0.311 -0.273 -0.119
0.312 -0.271 -0.119
0.315 -0.268 -0.120
0.318 -0.267 -0.121
0.308 -0.254 -0.116
0.308 -0.250 -0.116
0.309 -0.247 -0.116
0.309 -0.242 -0.115
0.309 -0.238 -0.115
0.308 -0.234 -0.114
0.307 -0.229 -0.113
0.302 -0.222 -0.111
0.299 -0.216 -0.110
0.298 -0.211 -0.109
0.292 -0.203 -0.106
0.283 -0.193 -0.103
0.226 -0.142 -0.081
0.227 -0.139 -0.081
0.208 -0.125 -0.074
0.208 -0.123 -0.074
0.208 -0.121 -0.074
0.209 -0.119 -0.074
0.223 -0.125 -0.079
0.247 -0.135 -0.087
0.244 -0.131 -0.086
0.244 -0.128 -0.085
0.247 -0.127 -0.087
0.309 -0.153 -0.108
0.312 -0.151 -0.109
0.316 -0.149 -0.110
0.319 -0.147 -0.111
0.319 -0.144 -0.111
0.320 -0.142 -0.111
0.323 -0.139 -0.111
0.307 -0.117 -0.105
0.356 -0.129 -0.122
0.360 -0.127 -0.123
0.366 -0.125 -0.125
0.372 -0.124 -0.127
0.379 -0.122 -0.129
0.391 -0.122 -0.133
0.403 -0.122 -0.137
0.411 -0.121 -0.139
0.420 -0.119 -0.142
0.429 -0.118 -0.145
0.438 -0.116 -0.148
0.447 -0.114 -0.151
0.446 -0.109 -0.150
0.391 -0.085 -0.131
0.402 -0.084 -0.135
0.384 -0.076 -0.129
0.371 -0.070 -0.125
0.291 -0.052 -0.098
0.288 -0.049 -0.097
0.291 -0.047 -0.097
0.302 -0.046 -0.101
0.304 -0.043 -0.102
0.310 -0.041 -0.104
0.308 -0.038 -0.103
0.296 -0.034 -0.099
0.289 -0.030 -0.097
0.291 -0.028 -0.097
0.288 -0.025 -0.096
0.313 -0.024 -0.104
0.321 -0.022 -0.107
0.315 -0.019 -0.105
0.318 -0.016 -0.106
0.311 -0.013 -0.104
0.325 -0.010 -0.109
0.309 -0.004 -0.103
0.315 -0.001 -0.105
0.328 0.002 -0.109
0.326 0.005 -0.109
0.319 0.007 -0.106
0.316 0.010 -0.105
0.323 0.013 -0.108
0.318 0.016 -0.106
0.313 0.019 -0.105
0.331 0.023 -0.110
0.339 0.027 -0.113
0.335 0.029 -0.112
0.312 0.030 -0.104
0.304 0.032 -0.102
0.290 0.033 -0.097
0.305 0.038 -0.102
0.317 0.042 -0.106
0.320 0.046 -0.107
0.333 0.051 -0.112
0.340 0.055 -0.114
0.312 0.059 -0.105
0.313 0.062 -0.105
0.318 0.066 -0.107
0.319 0.070 -0.107
0.313 0.071 -0.106
0.301 0.071 -0.102
0.311 0.077 -0.105
0.318 0.085 -0.108
0.340 0.094 -0.115
0.328 0.097 -0.112
0.317 0.097 -0.108
0.325 0.102 -0.111
0.325 0.105 -0.111
0.320 0.107 -0.109
0.332 0.114 -0.114
0.326 0.116 -0.112
0.319 0.116 -0.109
0.328 0.123 -0.113
0.330 0.127 -0.114
0.355 0.185 -0.125
0.324 -0.438 -0.137
0.327 -0.436 -0.138
0.333 -0.439 -0.140
0.335 -0.435 -0.140
0.333 -0.426 -0.138
0.335 -0.423 -0.139
0.329 -0.410 -0.136
0.325 -0.400 -0.134
0.325 -0.394 -0.133
0.329 -0.393 -0.134
0.330 -0.389 -0.134
0.327 -0.380 -0.132
0.327 -0.374 -0.131
0.327 -0.369 -0.131
0.326 -0.362 -0.129
0.322 -0.352 -0.128
0.323 -0.348 -0.127
0.329 -0.349 -0.129
0.323 -0.337 -0.126
0.319 -0.328 -0.124
0.316 -0.320 -0.122
0.315 -0.314 -0.121
0.315 -0.309 -0.121
0.316 -0.305 -0.120
0.317 -0.301 -0.120
0.317 -0.297 -0.120
0.315 -0.290 -0.119
0.311 -0.282 -0.116
0.311 -0.278 -0.116
0.311 -0.273 -0.116
0.312 -0.269 -0.115
0.314 -0.267 -0.116
0.311 -0.260 -0.114
0.306 -0.252 -0.112
0.306 -0.248 -0.112
0.308 -0.245 -0.112
0.308 -0.241 -0.111
0.306 -0.236 -0.111
0.305 -0.231 -0.110
0.304 -0.227 -0.109
0.298 -0.218 -0.106
0.296 -0.213 -0.105
0.290 -0.205 -0.103
0.208 -0.142 -0.074
0.205 -0.138 -0.072
0.208 -0.137 -0.073
0.212 -0.137 -0.074
0.224 -0.143 -0.078
0.226 -0.141 -0.079
0.226 -0.139 -0.078
0.217 -0.131 -0.075
0.208 -0.123 -0.072
0.208 -0.121 -0.072
0.210 -0.119 -0.072
0.223 -0.124 -0.077
0.245 -0.134 -0.084
0.244 -0.131 -0.083
0.243 -0.128 -0.083
0.244 -0.126 -0.083
0.255 -0.129 -0.087
0.310 -0.153 -0.105
0.312 -0.151 -0.106
0.316 -0.149 -0.107
0.318 -0.147 -0.107
0.320 -0.144 -0.107
0.322 -0.142 -0.108
0.325 -0.140 -0.109
0.320 -0.135 -0.107
0.308 -0.126 -0.103
0.293 -0.117 -0.098
0.292 -0.111 -0.097
0.309 -0.115 -0.103
0.355 -0.128 -0.118
0.359 -0.126 -0.119
0.364 -0.124 -0.120
0.371 -0.123 -0.123
0.380 -0.122 -0.125
0.394 -0.123 -0.130
0.400 -0.121 -0.132
0.407 -0.119 -0.134
0.413 -0.117 -0.136
0.425 -0.116 -0.140
0.436 -0.115 -0.143
0.445 -0.113 -0.146
0.457 -0.112 -0.149
0.380 -0.082 -0.124
0.405 -0.084 -0.132
0.400 -0.079 -0.130
0.287 -0.051 -0.093
0.289 -0.049 -0.094
0.293 -0.047 -0.095
0.291 -0.044 -0.094
0.299 -0.042 -0.097
0.299 -0.040 -0.097
0.302 -0.037 -0.098
0.298 -0.034 -0.097
0.294 -0.031 -0.095
0.292 -0.028 -0.095
0.306 -0.027 -0.099
0.317 -0.022 -0.103
0.318 -0.019 -0.103
0.290 -0.015 -0.094
0.291 -0.012 -0.094
0.299 -0.007 -0.097
0.309 -0.004 -0.100
0.319 -0.001 -0.103
0.325 0.002 -0.105
0.325 0.004 -0.105
0.329 0.008 -0.107
0.323 0.010 -0.105
0.315 0.013 -0.102
0.306 0.015 -0.099
0.308 0.018 -0.100
0.326 0.022 -0.106
0.337 0.026 -0.109
0.316 0.028 -0.103
0.309 0.030 -0.100
0.301 0.032 -0.098
0.298 0.034 -0.097
0.300 0.037 -0.098
0.311 0.042 -0.101
0.319 0.046 -0.104
0.316 0.048 -0.103
0.316 0.051 -0.103
0.313 0.053 -0.102
0.305 0.055 -0.100
0.310 0.059 -0.101
0.315 0.063 -0.103
0.322 0.067 -0.105
0.320 0.070 -0.105
0.321 0.073 -0.105
0.313 0.074 -0.103
0.302 0.075 -0.099
0.306 0.078 -0.100
0.324 0.086 -0.107
0.320 0.088 -0.105
0.326 0.093 -0.107
0.325 0.099 -0.107
0.314 0.099 -0.104
0.322 0.105 -0.107
0.341 0.114 -0.113
0.342 0.118 -0.114
0.330 0.117 -0.110
0.324 0.118 -0.108
0.338 0.130 -0.113
0.353 0.184 -0.121
0.319 -0.435 -0.131
0.324 -0.436 -0.133
0.326 -0.434 -0.133
0.328 -0.432 -0.134
0.334 -0.433 -0.135
0.334 -0.427 -0.135
0.323 -0.408 -0.130
0.325 -0.405 -0.130
0.324 -0.397 -0.129
0.325 -0.394 -0.129
0.328 -0.391 -0.129
0.330 -0.387 -0.129
0.328 -0.380 -0.128
0.323 -0.369 -0.126
0.324 -0.365 -0.126
0.326 -0.361 -0.126
0.325 -0.354 -0.125
0.322 -0.346 -0.123
0.323 -0.341 -0.123
0.324 -0.338 -0.123
0.318 -0.326 -0.120
0.316 -0.320 -0.119
0.316 -0.315 -0.118
0.314 -0.308 -0.117
0.315 -0.304 -0.116
0.315 -0.299 -0.116
0.313 -0.293 -0.115
0.313 -0.288 -0.114
0.312 -0.282 -0.113
0.310 -0.276 -0.112
0.310 -0.272 -0.112
0.311 -0.269 -0.112
0.310 -0.263 -0.111
0.306 -0.256 -0.109
0.305 -0.251 -0.108
0.305 -0.246 -0.108
0.307 -0.244 -0.108
0.307 -0.240 -0.108
0.303 -0.233 -0.106
0.302 -0.229 -0.106
0.302 -0.224 -0.105
0.299 -0.218 -0.104
0.288 -0.207 -0.099
0.210 -0.143 -0.072
0.207 -0.139 -0.071
0.208 -0.137 -0.071
0.211 -0.137 -0.072
0.223 -0.142 -0.076
0.225 -0.141 -0.076
0.226 -0.138 -0.076
0.225 -0.135 -0.076
0.208 -0.123 -0.070
0.208 -0.121 -0.070
0.209 -0.119 -0.070
0.218 -0.121 -0.073
0.239 -0.130 -0.079
0.244 -0.131 -0.081
0.244 -0.128 -0.081
0.244 -0.125 -0.081
0.246 -0.124 -0.081
0.308 -0.152 -0.101
0.312 -0.150 -0.102
0.315 -0.149 -0.103
0.318 -0.147 -0.104
0.320 -0.144 -0.104
0.322 -0.142 -0.105
0.327 -0.141 -0.106
0.294 -0.121 -0.095
0.286 -0.114 -0.092
0.281 -0.107 -0.091
0.357 -0.129 -0.115
0.359 -0.126 -0.115
0.364 -0.124 -0.117
0.370 -0.123 -0.119
0.381 -0.122 -0.122
0.392 -0.122 -0.125
0.400 -0.121 -0.128
0.405 -0.118 -0.129
0.412 -0.117 -0.131
0.426 -0.117 -0.136
0.431 -0.114 -0.137
0.442 -0.112 -0.141
0.454 -0.111 -0.144
0.381 -0.082 -0.121
0.412 -0.085 -0.131
0.401 -0.079 -0.127
0.298 -0.053 -0.094
0.295 -0.050 -0.093
0.293 -0.047 -0.093
0.293 -0.044 -0.093
0.294 -0.042 -0.093
0.295 -0.039 -0.093
0.295 -0.036 -0.093
0.301 -0.034 -0.095
0.305 -0.032 -0.096
0.304 -0.029 -0.096
0.317 -0.025 -0.100
0.319 -0.022 -0.100
0.306 -0.018 -0.096
0.294 -0.015 -0.092
0.303 -0.012 -0.095
0.317 -0.010 -0.100
0.313 -0.007 -0.098
0.298 -0.004 -0.094
0.308 -0.001 -0.097
0.316 0.001 -0.099
0.316 0.004 -0.099
0.325 0.007 -0.102
0.328 0.011 -0.103
0.319 0.013 -0.100
0.312 0.016 -0.098
0.314 0.019 -0.099
0.320 0.022 -0.101
0.324 0.025 -0.102
0.316 0.028 -0.100
0.313 0.030 -0.099
0.318 0.034 -0.100
0.315 0.036 -0.099
0.308 0.038 -0.097
0.320 0.043 -0.101
0.317 0.045 -0.100
0.315 0.048 -0.100
0.310 0.050 -0.098
0.305 0.052 -0.097
0.303 0.054 -0.096
0.309 0.059 -0.098
0.317 0.063 -0.101
0.316 0.066 -0.100
0.326 0.071 -0.104
0.330 0.075 -0.105
0.327 0.077 -0.104
0.317 0.078 -0.101
0.325 0.083 -0.104
0.324 0.086 -0.103
0.325 0.089 -0.104
0.330 0.094 -0.106
0.339 0.100 -0.109
0.330 0.100 -0.106
0.317 0.100 -0.102
0.321 0.104 -0.103
0.326 0.115 -0.105
0.333 0.121 -0.108
0.341 0.127 -0.111
0.338 0.130 -0.110
0.344 0.153 -0.113
0.357 0.163 -0.117
0.382 0.199 -0.127
0.367 0.203 -0.123
0.358 0.215 -0.121
0.325 -0.444 -0.130
0.326 -0.439 -0.129
0.327 -0.435 -0.130
0.328 -0.430 -0.129
0.328 -0.425 -0.129
0.324 -0.414 -0.127
0.324 -0.409 -0.126
0.321 -0.399 -0.125
0.324 -0.397 -0.125
0.325 -0.393 -0.125
0.326 -0.388 -0.125
0.326 -0.383 -0.124
0.327 -0.378 -0.124
0.318 -0.362 -0.120
0.320 -0.359 -0.120
0.324 -0.358 -0.121
0.324 -0.353 -0.120
0.320 -0.344 -0.119
0.320 -0.338 -0.118
0.319 -0.332 -0.117
0.317 -0.325 -0.116
0.319 -0.322 -0.116
0.315 -0.313 -0.114
0.314 -0.307 -0.113
0.314 -0.302 -0.113
0.313 -0.297 -0.112
0.310 -0.289 -0.110
0.312 -0.286 -0.110
0.310 -0.280 -0.109
0.308 -0.274 -0.108
0.308 -0.270 -0.108
0.308 -0.266 -0.107
0.303 -0.257 -0.105
0.305 -0.255 -0.105
0.304 -0.250 -0.105
0.305 -0.246 -0.104
0.305 -0.243 -0.104
0.305 -0.239 -0.104
0.301 -0.231 -0.102
0.301 -0.227 -0.102
0.301 -0.224 -0.101
0.299 -0.218 -0.100
0.288 -0.207 -0.096
0.210 -0.143 -0.070
0.208 -0.140 -0.069
0.209 -0.137 -0.069
0.212 -0.137 -0.070
0.222 -0.141 -0.073
0.224 -0.140 -0.073
0.226 -0.138 -0.074
0.228 -0.137 -0.074
0.210 -0.124 -0.068
0.208 -0.120 -0.067
0.209 -0.119 -0.068
0.212 -0.118 -0.068
0.240 -0.131 -0.077
0.244 -0.130 -0.078
0.244 -0.128 -0.078
0.245 -0.126 -0.078
0.246 -0.124 -0.079
0.309 -0.149 -0.098
0.315 -0.148 -0.100
0.318 -0.146 -0.101
0.320 -0.144 -0.101
0.321 -0.141 -0.101
0.322 -0.139 -0.102
0.314 -0.132 -0.099
0.280 -0.106 -0.088
0.283 -0.105 -0.088
0.356 -0.128 -0.111
0.360 -0.126 -0.112
0.365 -0.124 -0.114
0.372 -0.123 -0.116
0.383 -0.123 -0.119
0.390 -0.121 -0.121
0.402 -0.121 -0.124
0.403 -0.118 -0.125
0.412 -0.116 -0.127
0.418 -0.114 -0.129
0.429 -0.113 -0.133
0.434 -0.110 -0.134
0.446 -0.109 -0.137
0.411 -0.089 -0.126
0.400 -0.083 -0.123
0.386 -0.076 -0.119
0.294 -0.053 -0.090
0.294 -0.050 -0.090
0.300 -0.048 -0.092
0.305 -0.046 -0.093
0.298 -0.042 -0.091
0.296 -0.039 -0.091
0.296 -0.037 -0.090
0.298 -0.034 -0.091
0.304 -0.032 -0.093
0.314 -0.030 -0.096
0.313 -0.027 -0.095
0.311 -0.024 -0.095
0.312 -0.021 -0.095
0.303 -0.018 -0.092
0.298 -0.015 -0.091
0.310 -0.013 -0.094
0.331 -0.011 -0.101
0.330 -0.008 -0.100
0.314 -0.004 -0.096
0.307 -0.001 -0.093
0.311 0.001 -0.095
0.316 0.004 -0.096
0.321 0.007 -0.098
0.307 0.010 -0.094
0.313 0.013 -0.096
0.317 0.016 -0.097
0.322 0.019 -0.098
0.324 0.022 -0.099
0.319 0.025 -0.097
0.315 0.027 -0.096
0.317 0.031 -0.097
0.321 0.034 -0.098
0.322 0.037 -0.098
0.321 0.043 -0.098
0.320 0.046 -0.098
0.321 0.049 -0.098
0.319 0.051 -0.098
0.314 0.054 -0.096
0.312 0.056 -0.096
0.313 0.059 -0.096
0.324 0.064 -0.100
0.318 0.066 -0.098
0.325 0.071 -0.100
0.325 0.074 -0.100
0.322 0.076 -0.099
0.324 0.080 -0.100
0.313 0.080 -0.097
0.324 0.086 -0.100
0.328 0.090 -0.102
0.336 0.096 -0.104
0.335 0.098 -0.104
0.320 0.097 -0.099
0.315 0.099 -0.098
0.317 0.103 -0.099
0.322 0.107 -0.100
0.321 0.110 -0.101
0.325 0.115 -0.102
0.356 0.129 -0.112
0.351 0.131 -0.110
0.340 0.130 -0.107
0.356 0.162 -0.113
0.382 0.199 -0.123
0.378 0.200 -0.122
0.364 0.197 -0.118
0.364 0.201 -0.118
0.366 0.206 -0.119
0.353 0.203 -0.116
0.327 -0.446 -0.126
0.325 -0.438 -0.125
0.324 -0.430 -0.124
0.327 -0.429 -0.125
0.325 -0.420 -0.123
0.324 -0.413 -0.123
0.320 -0.403 -0.121
0.321 -0.398 -0.120
0.319 -0.391 -0.119
0.321 -0.388 -0.120
0.322 -0.384 -0.119
0.321 -0.376 -0.118
0.317 -0.366 -0.116
0.316 -0.359 -0.115
0.318 -0.356 -0.115
0.318 -0.351 -0.115
0.317 -0.345 -0.114
0.318 -0.340 -0.114
0.317 -0.335 -0.113
0.314 -0.327 -0.112
0.316 -0.323 -0.112
0.316 -0.319 -0.111
0.316 -0.314 -0.111
0.314 -0.306 -0.109
0.311 -0.299 -0.108
0.310 -0.293 -0.107
0.310 -0.288 -0.107
0.307 -0.281 -0.105
0.307 -0.277 -0.105
0.307 -0.273 -0.104
0.306 -0.268 -0.104
0.304 -0.261 -0.102
0.304 -0.258 -0.102
0.303 -0.253 -0.101
0.304 -0.249 -0.101
0.305 -0.246 -0.101
0.304 -0.241 -0.100
0.300 -0.234 -0.099
0.300 -0.230 -0.099
0.301 -0.227 -0.098
0.300 -0.223 -0.098
0.294 -0.215 -0.096
0.291 -0.208 -0.094
0.210 -0.143 -0.067
0.209 -0.140 -0.067
0.210 -0.138 -0.067
0.211 -0.136 -0.067
0.219 -0.139 -0.070
0.222 -0.138 -0.071
0.225 -0.137 -0.071
0.230 -0.138 -0.072
0.214 -0.126 -0.067
0.208 -0.120 -0.065
0.209 -0.118 -0.065
0.210 -0.117 -0.066
0.239 -0.130 -0.075
0.243 -0.130 -0.076
0.245 -0.128 -0.076
0.245 -0.125 -0.076
0.246 -0.124 -0.076
0.256 -0.126 -0.079
0.309 -0.149 -0.095
0.312 -0.147 -0.096
0.318 -0.146 -0.098
0.319 -0.143 -0.098
0.319 -0.140 -0.098
0.328 -0.141 -0.100
0.319 -0.134 -0.097
0.280 -0.112 -0.085
0.279 -0.109 -0.085
0.279 -0.106 -0.085
0.278 -0.103 -0.084
0.355 -0.127 -0.107
0.359 -0.125 -0.108
0.366 -0.124 -0.110
0.375 -0.124 -0.113
0.381 -0.122 -0.115
0.391 -0.121 -0.117
0.391 -0.118 -0.117
0.405 -0.118 -0.121
0.410 -0.116 -0.123
0.415 -0.113 -0.124
0.419 -0.110 -0.125
0.439 -0.111 -0.131
0.443 -0.108 -0.132
0.438 -0.103 -0.131
0.407 -0.084 -0.121
0.394 -0.078 -0.117
0.293 -0.052 -0.087
0.293 -0.050 -0.087
0.298 -0.048 -0.088
0.301 -0.045 -0.089
0.300 -0.043 -0.089
0.299 -0.040 -0.088
0.298 -0.037 -0.088
0.294 -0.034 -0.087
0.300 -0.032 -0.089
0.312 -0.030 -0.092
0.311 -0.027 -0.092
0.308 -0.024 -0.091
0.310 -0.021 -0.091
0.302 -0.018 -0.089
0.308 -0.015 -0.091
0.316 -0.013 -0.093
0.331 -0.011 -0.098
0.331 -0.008 -0.098
0.320 -0.004 -0.094
0.315 -0.001 -0.093
0.320 0.001 -0.095
0.322 0.004 -0.095
0.308 0.007 -0.091
0.305 0.010 -0.090
0.309 0.013 -0.091
0.319 0.016 -0.094
0.326 0.019 -0.096
0.320 0.022 -0.095
0.315 0.024 -0.093
0.309 0.027 -0.092
0.307 0.030 -0.091
0.304 0.032 -0.090
0.304 0.035 -0.090
0.306 0.038 -0.091
0.307 0.041 -0.091
0.315 0.045 -0.093
0.316 0.048 -0.094
0.331 0.053 -0.098
0.321 0.055 -0.095
0.320 0.057 -0.095
0.327 0.062 -0.097
0.319 0.063 -0.095
0.316 0.066 -0.094
0.315 0.068 -0.094
0.313 0.071 -0.094
0.315 0.074 -0.094
0.318 0.078 -0.095
0.321 0.082 -0.096
0.320 0.085 -0.096
0.324 0.089 -0.097
0.324 0.092 -0.097
0.316 0.093 -0.095
0.320 0.097 -0.096
0.316 0.099 -0.095
0.314 0.102 -0.095
0.313 0.104 -0.095
0.315 0.108 -0.096
0.339 0.120 -0.103
0.355 0.129 -0.108
0.340 0.127 -0.103
0.328 0.125 -0.100
0.371 0.193 -0.116
0.368 0.199 -0.116
0.321 -0.437 -0.120
0.318 -0.427 -0.118
0.319 -0.423 -0.118
0.321 -0.420 -0.119
0.322 -0.416 -0.118
0.322 -0.410 -0.118
0.323 -0.406 -0.118
0.317 -0.393 -0.115
0.314 -0.384 -0.114
0.316 -0.381 -0.114
0.318 -0.377 -0.114
0.318 -0.373 -0.114
0.316 -0.364 -0.112
0.315 -0.358 -0.111
0.316 -0.353 -0.111
0.316 -0.348 -0.111
0.315 -0.342 -0.110
0.314 -0.336 -0.109
0.314 -0.330 -0.108
0.314 -0.325 -0.108
0.312 -0.319 -0.107
0.313 -0.315 -0.107
0.315 -0.312 -0.107
0.314 -0.306 -0.106
0.309 -0.296 -0.104
0.307 -0.290 -0.103
0.307 -0.286 -0.102
0.306 -0.280 -0.102
0.307 -0.277 -0.101
0.307 -0.273 -0.101
0.304 -0.265 -0.100
0.303 -0.261 -0.099
0.303 -0.256 -0.098
0.303 -0.252 -0.098
0.303 -0.248 -0.098
0.302 -0.243 -0.097
0.300 -0.237 -0.096
