VERSION .7
FIELDS x y z
SIZE 4 4 4
TYPE F F F
COUNT 1 1 1
WIDTH     2586
HEIGHT 1
VIEWPOINT 0 0 0 1 0 0 0
POINTS     2586
DATA ascii
0.298 0.078 0.043
0.303 0.082 0.043
0.297 0.083 0.043
0.293 0.085 0.042
0.292 0.087 0.042
0.298 0.092 0.043
0.302 0.096 0.044
0.304 0.100 0.044
0.313 0.106 0.045
0.317 0.110 0.046
0.316 0.113 0.046
0.310 0.114 0.045
0.299 0.113 0.044
0.299 0.116 0.044
0.312 0.124 0.046
0.319 0.130 0.047
0.325 0.136 0.048
0.331 0.141 0.049
0.394 0.177 0.058
0.396 0.181 0.058
0.384 0.180 0.057
0.376 0.180 0.056
0.369 0.181 0.055
0.364 0.182 0.054
0.359 0.184 0.054
0.350 0.183 0.052
0.343 0.183 0.052
0.337 0.183 0.051
0.330 0.183 0.050
0.324 0.183 0.049
0.318 0.184 0.048
0.314 0.185 0.048
0.305 0.183 0.047
0.301 0.184 0.046
0.296 0.185 0.046
0.292 0.185 0.045
0.285 0.184 0.044
0.282 0.186 0.044
0.279 0.187 0.043
0.274 0.187 0.043
0.268 0.186 0.042
0.265 0.187 0.042
0.262 0.189 0.041
0.261 0.192 0.041
0.261 0.195 0.042
0.260 0.197 0.042
0.260 0.201 0.042
0.260 0.204 0.042
0.259 0.207 0.042
0.258 0.209 0.042
0.259 0.214 0.042
0.257 0.216 0.042
0.256 0.219 0.042
0.256 0.223 0.042
0.257 0.227 0.043
0.255 0.229 0.043
0.256 0.234 0.043
0.256 0.238 0.043
0.256 0.242 0.043
0.255 0.245 0.044
0.256 0.250 0.044
0.255 0.253 0.044
0.257 0.259 0.045
0.285 0.298 0.050
0.288 0.306 0.051
0.292 0.315 0.052
0.279 0.312 0.051
0.279 0.317 0.051
0.289 0.334 0.053
0.290 0.340 0.054
0.291 0.347 0.054
0.292 0.353 0.055
0.299 0.368 0.056
0.302 0.377 0.057
0.296 0.377 0.057
0.295 0.381 0.057
0.293 0.384 0.057
0.170 -0.236 0.035
0.175 -0.239 0.036
0.182 -0.246 0.037
0.277 -0.359 0.055
0.279 -0.357 0.056
0.281 -0.354 0.056
0.282 -0.350 0.055
0.284 -0.348 0.056
0.286 -0.345 0.056
0.285 -0.339 0.055
0.291 -0.341 0.056
0.290 -0.335 0.056
0.291 -0.331 0.055
0.288 -0.323 0.054
0.289 -0.319 0.054
0.291 -0.316 0.054
0.292 -0.312 0.054
0.290 -0.306 0.054
0.288 -0.300 0.053
0.288 -0.295 0.053
0.289 -0.291 0.053
0.289 -0.286 0.052
0.288 -0.281 0.052
0.286 -0.275 0.051
0.287 -0.271 0.051
0.286 -0.266 0.051
0.286 -0.262 0.050
0.285 -0.257 0.050
0.285 -0.253 0.050
0.284 -0.249 0.050
0.284 -0.245 0.049
0.284 -0.241 0.049
0.282 -0.235 0.048
0.283 -0.232 0.048
0.282 -0.227 0.048
0.213 -0.163 0.036
0.207 -0.157 0.035
0.205 -0.153 0.034
0.202 -0.148 0.034
0.203 -0.146 0.034
0.205 -0.145 0.034
0.210 -0.146 0.035
0.214 -0.146 0.035
0.210 -0.141 0.034
0.209 -0.138 0.034
0.210 -0.136 0.034
0.209 -0.133 0.034
0.202 -0.126 0.033
0.203 -0.125 0.033
0.208 -0.125 0.034
0.211 -0.125 0.034
0.210 -0.122 0.034
0.208 -0.119 0.033
0.209 -0.117 0.033
0.211 -0.115 0.034
0.206 -0.111 0.033
0.210 -0.111 0.033
0.214 -0.111 0.034
0.215 -0.109 0.034
0.217 -0.107 0.034
0.218 -0.106 0.034
0.214 -0.102 0.034
0.209 -0.097 0.033
0.208 -0.095 0.033
0.210 -0.093 0.033
0.206 -0.090 0.032
0.211 -0.090 0.033
0.207 -0.086 0.032
0.216 -0.087 0.033
0.218 -0.086 0.034
0.215 -0.083 0.033
0.212 -0.079 0.033
0.214 -0.078 0.033
0.220 -0.078 0.034
0.220 -0.076 0.034
0.229 -0.077 0.035
0.229 -0.075 0.035
0.237 -0.075 0.036
0.247 -0.076 0.038
0.251 -0.075 0.038
0.256 -0.074 0.039
0.263 -0.073 0.040
0.405 -0.109 0.062
0.410 -0.107 0.062
0.404 -0.101 0.061
0.404 -0.098 0.061
0.405 -0.094 0.061
0.400 -0.089 0.061
0.403 -0.086 0.061
0.341 -0.067 0.051
0.332 -0.062 0.050
0.281 -0.047 0.042
0.282 -0.045 0.042
0.285 -0.043 0.043
0.288 -0.040 0.043
0.288 -0.038 0.043
0.286 -0.035 0.043
0.286 -0.032 0.043
0.287 -0.030 0.043
0.286 -0.027 0.043
0.285 -0.025 0.043
0.287 -0.022 0.043
0.286 -0.019 0.043
0.286 -0.017 0.043
0.288 -0.014 0.043
0.291 -0.012 0.044
0.293 -0.009 0.044
0.291 -0.007 0.044
0.292 -0.004 0.044
0.291 -0.001 0.044
0.289 0.001 0.043
0.289 0.004 0.043
0.292 0.007 0.044
0.299 0.009 0.045
0.295 0.012 0.044
0.291 0.014 0.044
0.285 0.017 0.043
0.279 0.019 0.042
0.296 0.023 0.044
0.292 0.025 0.044
0.298 0.028 0.045
0.294 0.031 0.044
0.292 0.033 0.044
0.276 0.034 0.042
0.285 0.037 0.043
0.296 0.042 0.045
0.299 0.045 0.045
0.294 0.047 0.044
0.307 0.052 0.046
0.306 0.054 0.046
0.304 0.057 0.046
0.302 0.059 0.046
0.303 0.062 0.046
0.303 0.065 0.046
0.305 0.068 0.046
0.309 0.072 0.047
0.307 0.075 0.047
0.302 0.076 0.046
0.296 0.077 0.045
0.294 0.080 0.045
0.291 0.082 0.045
0.288 0.083 0.044
0.288 0.086 0.044
0.291 0.090 0.045
0.297 0.095 0.046
0.305 0.100 0.047
0.312 0.106 0.048
0.321 0.112 0.050
0.312 0.112 0.048
0.290 0.107 0.045
0.295 0.111 0.046
0.294 0.114 0.046
0.301 0.120 0.047
0.319 0.130 0.050
0.331 0.138 0.052
0.340 0.146 0.053
0.385 0.173 0.061
0.393 0.180 0.062
0.386 0.181 0.061
0.378 0.181 0.060
0.369 0.181 0.058
0.364 0.182 0.058
0.359 0.184 0.057
0.350 0.183 0.056
0.343 0.183 0.055
0.334 0.182 0.054
0.328 0.182 0.053
0.324 0.184 0.052
0.319 0.184 0.052
0.310 0.183 0.050
0.307 0.184 0.050
0.301 0.184 0.049
0.296 0.185 0.048
0.292 0.186 0.048
0.287 0.185 0.047
0.283 0.186 0.047
0.277 0.186 0.046
0.274 0.187 0.046
0.266 0.185 0.044
0.264 0.187 0.044
0.262 0.189 0.044
0.261 0.192 0.044
0.261 0.194 0.044
0.260 0.197 0.044
0.259 0.200 0.044
0.260 0.204 0.045
0.259 0.207 0.045
0.258 0.210 0.045
0.258 0.214 0.045
0.257 0.216 0.045
0.257 0.220 0.045
0.256 0.223 0.045
0.255 0.226 0.045
0.256 0.231 0.046
0.256 0.234 0.046
0.256 0.238 0.046
0.256 0.242 0.046
0.256 0.246 0.047
0.255 0.250 0.047
0.254 0.253 0.047
0.254 0.256 0.047
0.277 0.284 0.052
0.283 0.296 0.053
0.286 0.304 0.054
0.285 0.308 0.054
0.272 0.299 0.052
0.267 0.299 0.051
0.270 0.307 0.052
0.283 0.327 0.055
0.291 0.342 0.057
0.290 0.346 0.057
0.293 0.355 0.058
0.301 0.371 0.060
0.299 0.374 0.060
0.294 0.373 0.060
0.292 0.378 0.060
0.292 0.383 0.060
0.139 -0.192 0.030
0.164 -0.225 0.036
0.277 -0.359 0.059
0.279 -0.357 0.059
0.278 -0.351 0.058
0.279 -0.347 0.058
0.283 -0.347 0.059
0.285 -0.345 0.059
0.290 -0.345 0.059
0.287 -0.337 0.059
0.290 -0.336 0.059
0.291 -0.332 0.059
0.291 -0.326 0.058
0.291 -0.321 0.058
0.292 -0.318 0.058
0.293 -0.314 0.058
0.289 -0.305 0.057
0.290 -0.301 0.057
0.290 -0.297 0.056
0.290 -0.292 0.056
0.289 -0.287 0.055
0.290 -0.283 0.055
0.291 -0.280 0.055
0.292 -0.277 0.055
0.287 -0.268 0.054
0.287 -0.263 0.054
0.285 -0.258 0.053
0.284 -0.253 0.053
0.284 -0.249 0.053
0.284 -0.244 0.052
0.283 -0.240 0.052
0.281 -0.235 0.051
0.280 -0.230 0.051
0.276 -0.223 0.050
0.266 -0.211 0.048
0.212 -0.163 0.038
0.204 -0.155 0.036
0.202 -0.151 0.036
0.201 -0.147 0.035
0.203 -0.146 0.036
0.206 -0.146 0.036
0.207 -0.144 0.036
0.204 -0.140 0.036
0.201 -0.135 0.035
0.204 -0.135 0.035
0.208 -0.135 0.036
0.207 -0.132 0.036
0.204 -0.128 0.035
0.203 -0.124 0.035
0.205 -0.124 0.035
0.207 -0.123 0.035
0.208 -0.121 0.035
0.208 -0.119 0.035
0.210 -0.118 0.036
0.209 -0.115 0.035
0.205 -0.110 0.035
0.210 -0.111 0.035
0.211 -0.109 0.035
0.212 -0.107 0.036
0.218 -0.108 0.036
0.217 -0.105 0.036
0.197 -0.093 0.033
0.206 -0.096 0.034
0.207 -0.094 0.034
0.209 -0.093 0.035
0.201 -0.088 0.033
0.216 -0.091 0.036
0.206 -0.085 0.034
0.211 -0.085 0.035
0.215 -0.085 0.035
0.213 -0.082 0.035
0.213 -0.080 0.035
0.211 -0.077 0.035
0.215 -0.076 0.035
0.224 -0.077 0.036
0.218 -0.073 0.035
0.231 -0.075 0.038
0.241 -0.076 0.039
0.245 -0.075 0.040
0.242 -0.072 0.039
0.255 -0.073 0.041
0.266 -0.074 0.043
0.375 -0.101 0.060
0.385 -0.100 0.062
0.399 -0.100 0.064
0.401 -0.097 0.064
0.401 -0.093 0.064
0.407 -0.091 0.065
0.393 -0.084 0.063
0.337 -0.066 0.054
0.326 -0.061 0.052
0.283 -0.048 0.045
0.281 -0.045 0.045
0.284 -0.043 0.045
0.286 -0.040 0.046
0.286 -0.038 0.046
0.285 -0.035 0.045
0.284 -0.032 0.045
0.284 -0.030 0.045
0.284 -0.027 0.045
0.283 -0.024 0.045
0.285 -0.022 0.045
0.287 -0.019 0.046
0.287 -0.017 0.046
0.286 -0.014 0.045
0.288 -0.012 0.046
0.290 -0.009 0.046
0.291 -0.007 0.046
0.294 -0.004 0.047
0.295 -0.001 0.047
0.291 0.001 0.046
0.288 0.004 0.046
0.294 0.007 0.047
0.294 0.009 0.047
0.292 0.012 0.047
0.288 0.014 0.046
0.286 0.017 0.046
0.282 0.019 0.045
0.288 0.022 0.046
0.297 0.026 0.047
0.299 0.028 0.048
0.299 0.031 0.048
0.290 0.033 0.046
0.283 0.035 0.045
0.287 0.038 0.046
0.304 0.043 0.049
0.298 0.045 0.048
0.299 0.047 0.048
0.297 0.050 0.048
0.310 0.055 0.050
0.308 0.057 0.049
0.308 0.060 0.050
0.303 0.062 0.049
0.308 0.066 0.050
0.309 0.069 0.050
0.309 0.072 0.050
0.299 0.072 0.048
0.296 0.075 0.048
0.289 0.076 0.047
0.291 0.079 0.047
0.290 0.081 0.047
0.296 0.086 0.048
0.286 0.086 0.046
0.278 0.086 0.045
0.282 0.090 0.046
0.292 0.096 0.048
0.306 0.104 0.050
0.295 0.103 0.048
0.295 0.106 0.048
0.288 0.106 0.047
0.285 0.108 0.047
0.295 0.115 0.049
0.331 0.135 0.055
0.338 0.141 0.056
0.357 0.153 0.059
0.372 0.163 0.062
0.379 0.170 0.063
0.385 0.177 0.064
0.384 0.180 0.064
0.378 0.181 0.063
0.372 0.183 0.063
0.361 0.181 0.061
0.352 0.180 0.059
0.347 0.182 0.059
0.340 0.182 0.058
0.332 0.181 0.056
0.328 0.182 0.056
0.325 0.184 0.056
0.316 0.183 0.054
0.312 0.184 0.054
0.307 0.185 0.053
0.301 0.185 0.052
0.295 0.184 0.051
0.291 0.185 0.051
0.287 0.186 0.050
0.281 0.186 0.049
0.278 0.187 0.049
0.270 0.185 0.048
0.265 0.185 0.047
0.263 0.187 0.047
0.262 0.189 0.047
0.261 0.191 0.047
0.260 0.194 0.047
0.259 0.197 0.047
0.261 0.201 0.047
0.260 0.205 0.047
0.259 0.207 0.047
0.260 0.212 0.048
0.259 0.214 0.048
0.258 0.217 0.048
0.257 0.220 0.048
0.257 0.223 0.048
0.256 0.227 0.048
0.256 0.230 0.048
0.256 0.234 0.049
0.256 0.238 0.049
0.256 0.242 0.049
0.256 0.247 0.049
0.255 0.250 0.050
0.253 0.252 0.049
0.260 0.263 0.051
0.278 0.286 0.055
0.282 0.296 0.056
0.289 0.308 0.058
0.291 0.315 0.059
0.280 0.308 0.057
0.259 0.290 0.053
0.266 0.302 0.055
0.287 0.338 0.060
0.290 0.347 0.061
0.292 0.355 0.062
0.295 0.363 0.063
0.293 0.368 0.063
0.289 0.368 0.062
0.288 0.373 0.062
0.292 0.384 0.064
0.123 -0.171 0.028
0.121 -0.165 0.028
0.123 -0.167 0.028
0.271 -0.342 0.060
0.277 -0.344 0.061
0.280 -0.344 0.061
0.284 -0.344 0.062
0.287 -0.342 0.062
0.290 -0.340 0.062
0.290 -0.336 0.062
0.292 -0.332 0.062
0.291 -0.327 0.062
0.292 -0.323 0.062
0.293 -0.319 0.061
0.292 -0.314 0.061
0.292 -0.308 0.061
0.292 -0.304 0.060
0.291 -0.298 0.060
0.290 -0.292 0.059
0.290 -0.288 0.059
0.290 -0.284 0.059
0.291 -0.281 0.059
0.291 -0.276 0.058
0.288 -0.269 0.057
0.288 -0.265 0.057
0.286 -0.259 0.056
0.287 -0.255 0.056
0.285 -0.250 0.056
0.286 -0.246 0.056
0.284 -0.241 0.055
0.283 -0.237 0.055
0.279 -0.229 0.054
0.277 -0.224 0.053
0.271 -0.215 0.052
0.261 -0.205 0.050
0.199 -0.153 0.038
0.201 -0.153 0.038
0.201 -0.150 0.038
0.203 -0.149 0.038
0.206 -0.148 0.038
0.207 -0.147 0.038
0.204 -0.142 0.038
0.199 -0.136 0.037
0.199 -0.134 0.037
0.203 -0.134 0.037
0.205 -0.133 0.038
0.210 -0.134 0.038
0.210 -0.131 0.038
0.205 -0.126 0.037
0.203 -0.122 0.037
0.203 -0.120 0.037
0.206 -0.120 0.037
0.207 -0.118 0.037
0.208 -0.116 0.037
0.201 -0.110 0.036
0.205 -0.110 0.036
0.203 -0.107 0.036
0.208 -0.108 0.037
0.211 -0.107 0.037
0.214 -0.106 0.038
0.213 -0.104 0.038
0.212 -0.101 0.037
0.202 -0.094 0.036
0.204 -0.093 0.036
0.199 -0.089 0.035
0.213 -0.092 0.037
0.208 -0.086 0.036
0.205 -0.083 0.036
0.212 -0.084 0.037
0.215 -0.083 0.037
0.207 -0.078 0.036
0.205 -0.075 0.035
0.216 -0.077 0.037
0.224 -0.077 0.039
0.229 -0.077 0.039
0.218 -0.071 0.037
0.237 -0.075 0.041
0.239 -0.074 0.041
0.244 -0.073 0.042
0.252 -0.073 0.043
0.267 -0.075 0.046
0.387 -0.101 0.066
0.387 -0.097 0.066
0.398 -0.096 0.068
0.397 -0.092 0.068
0.395 -0.088 0.067
0.389 -0.083 0.066
0.344 -0.067 0.058
0.330 -0.061 0.056
0.285 -0.048 0.048
0.280 -0.044 0.047
0.281 -0.042 0.048
0.281 -0.040 0.048
0.281 -0.037 0.047
0.282 -0.034 0.047
0.282 -0.032 0.048
0.282 -0.029 0.047
0.283 -0.027 0.048
0.283 -0.024 0.048
0.287 -0.022 0.048
0.290 -0.020 0.049
0.290 -0.017 0.049
0.286 -0.014 0.048
0.285 -0.012 0.048
0.290 -0.009 0.049
0.291 -0.007 0.049
0.294 -0.004 0.050
0.295 -0.001 0.050
0.291 0.001 0.049
0.286 0.004 0.048
0.290 0.006 0.049
0.295 0.009 0.050
0.289 0.012 0.049
0.288 0.014 0.049
0.289 0.017 0.049
0.292 0.020 0.049
0.295 0.023 0.050
0.296 0.025 0.050
0.302 0.029 0.051
0.302 0.031 0.051
0.300 0.034 0.051
0.293 0.036 0.050
0.300 0.039 0.051
0.303 0.043 0.051
0.301 0.045 0.051
0.296 0.047 0.050
0.301 0.051 0.051
0.305 0.054 0.052
0.305 0.057 0.052
0.299 0.059 0.051
0.302 0.062 0.051
0.303 0.065 0.051
0.308 0.069 0.052
0.308 0.072 0.053
0.306 0.074 0.052
0.296 0.075 0.051
0.293 0.077 0.050
0.291 0.079 0.050
0.295 0.083 0.051
0.309 0.090 0.053
0.300 0.090 0.051
0.270 0.084 0.047
0.270 0.086 0.047
0.274 0.090 0.047
0.278 0.094 0.048
0.281 0.098 0.049
0.284 0.102 0.049
0.291 0.107 0.050
0.284 0.107 0.049
0.285 0.111 0.050
0.333 0.136 0.058
0.342 0.143 0.060
0.361 0.155 0.063
0.374 0.164 0.066
0.373 0.168 0.066
0.374 0.172 0.066
0.373 0.175 0.066
0.373 0.179 0.066
0.365 0.179 0.065
0.358 0.180 0.064
0.351 0.180 0.063
0.345 0.180 0.062
0.338 0.180 0.061
0.330 0.180 0.059
0.327 0.182 0.059
0.322 0.182 0.058
0.314 0.182 0.057
0.310 0.183 0.056
0.305 0.183 0.056
0.299 0.183 0.055
0.295 0.184 0.054
0.290 0.185 0.053
0.284 0.184 0.052
0.281 0.185 0.052
0.277 0.186 0.052
0.270 0.185 0.050
0.266 0.185 0.050
0.264 0.187 0.050
0.262 0.189 0.049
0.261 0.192 0.049
0.260 0.194 0.049
0.259 0.197 0.049
0.259 0.201 0.050
0.260 0.205 0.050
0.260 0.208 0.050
0.259 0.211 0.050
0.259 0.214 0.050
0.258 0.217 0.051
0.258 0.221 0.051
0.257 0.224 0.051
0.256 0.227 0.051
0.255 0.230 0.051
0.255 0.234 0.051
0.255 0.238 0.052
0.255 0.241 0.052
0.257 0.248 0.052
0.255 0.250 0.052
0.253 0.252 0.052
0.266 0.269 0.055
0.272 0.281 0.057
0.281 0.294 0.059
0.283 0.301 0.060
0.282 0.305 0.060
0.272 0.300 0.058
0.253 0.284 0.055
0.261 0.297 0.057
0.275 0.318 0.060
0.283 0.333 0.062
0.289 0.345 0.064
0.290 0.352 0.065
0.290 0.358 0.065
0.288 0.361 0.065
0.285 0.363 0.065
0.284 0.367 0.065
0.283 0.372 0.065
0.110 -0.152 0.027
0.114 -0.157 0.028
0.119 -0.161 0.029
0.273 -0.330 0.063
0.284 -0.339 0.065
0.289 -0.340 0.066
0.292 -0.338 0.066
0.291 -0.332 0.065
0.291 -0.328 0.065
0.291 -0.323 0.065
0.293 -0.320 0.065
0.296 -0.318 0.065
0.293 -0.310 0.064
0.292 -0.304 0.063
0.290 -0.298 0.063
0.291 -0.293 0.062
0.291 -0.289 0.062
0.291 -0.285 0.062
0.290 -0.280 0.061
0.290 -0.275 0.061
0.290 -0.271 0.061
0.289 -0.266 0.060
0.288 -0.261 0.060
0.287 -0.255 0.059
0.288 -0.253 0.059
0.286 -0.247 0.059
0.286 -0.243 0.058
0.285 -0.238 0.058
0.284 -0.233 0.057
0.277 -0.224 0.056
0.270 -0.215 0.054
0.262 -0.205 0.052
0.198 -0.153 0.040
0.199 -0.151 0.039
0.202 -0.150 0.040
0.202 -0.148 0.040
0.207 -0.149 0.041
0.207 -0.147 0.041
0.198 -0.138 0.039
0.199 -0.136 0.039
0.202 -0.136 0.039
0.204 -0.135 0.039
0.221 -0.144 0.043
0.221 -0.141 0.042
0.215 -0.135 0.041
0.211 -0.130 0.040
0.203 -0.122 0.039
0.204 -0.121 0.039
0.208 -0.121 0.040
0.209 -0.119 0.040
0.207 -0.116 0.039
0.204 -0.112 0.038
0.201 -0.108 0.038
0.208 -0.110 0.039
0.207 -0.107 0.039
0.210 -0.106 0.039
0.210 -0.104 0.039
0.212 -0.103 0.039
0.211 -0.100 0.039
0.204 -0.095 0.038
0.208 -0.095 0.038
0.206 -0.092 0.038
0.210 -0.091 0.039
0.222 -0.094 0.041
0.205 -0.085 0.038
0.215 -0.087 0.039
0.212 -0.084 0.039
0.212 -0.082 0.039
0.216 -0.081 0.039
0.214 -0.078 0.039
0.224 -0.080 0.041
0.229 -0.079 0.042
0.227 -0.076 0.041
0.226 -0.074 0.041
0.229 -0.073 0.041
0.241 -0.074 0.044
0.243 -0.073 0.044
0.249 -0.072 0.045
0.262 -0.073 0.047
0.380 -0.103 0.068
0.386 -0.101 0.069
0.388 -0.098 0.070
0.383 -0.093 0.069
0.386 -0.090 0.069
0.385 -0.086 0.069
0.374 -0.080 0.067
0.363 -0.074 0.065
0.347 -0.068 0.062
0.283 -0.048 0.050
0.281 -0.045 0.050
0.283 -0.042 0.050
0.282 -0.040 0.050
0.280 -0.037 0.050
0.281 -0.034 0.050
0.283 -0.032 0.050
0.282 -0.029 0.050
0.283 -0.027 0.050
0.285 -0.025 0.051
0.288 -0.022 0.051
0.291 -0.020 0.052
0.289 -0.017 0.051
0.287 -0.014 0.051
0.287 -0.012 0.051
0.291 -0.009 0.052
0.291 -0.007 0.052
0.291 -0.004 0.052
0.292 -0.001 0.052
0.290 0.001 0.052
0.288 0.004 0.051
0.296 0.007 0.052
0.295 0.009 0.052
0.288 0.012 0.051
0.286 0.014 0.051
0.291 0.017 0.052
0.294 0.020 0.052
0.297 0.023 0.053
0.304 0.026 0.054
0.302 0.029 0.054
0.300 0.031 0.053
0.296 0.034 0.053
0.299 0.037 0.053
0.298 0.039 0.053
0.301 0.042 0.054
0.301 0.045 0.054
0.299 0.048 0.053
0.300 0.050 0.054
0.301 0.054 0.054
0.295 0.055 0.053
0.293 0.058 0.053
0.294 0.060 0.053
0.291 0.063 0.052
0.294 0.066 0.053
0.303 0.071 0.054
0.303 0.074 0.055
0.296 0.075 0.053
0.293 0.077 0.053
0.296 0.080 0.053
0.298 0.084 0.054
0.295 0.086 0.053
0.286 0.088 0.052
0.271 0.086 0.049
0.276 0.091 0.050
0.272 0.092 0.050
0.268 0.093 0.049
0.279 0.100 0.051
0.284 0.105 0.052
0.287 0.108 0.053
0.330 0.135 0.061
0.337 0.141 0.062
0.342 0.147 0.063
0.349 0.153 0.065
0.367 0.165 0.068
0.359 0.165 0.067
0.355 0.167 0.066
0.361 0.174 0.068
0.356 0.175 0.067
0.354 0.178 0.066
0.350 0.179 0.066
0.345 0.181 0.065
0.331 0.177 0.063
0.328 0.179 0.062
0.324 0.181 0.062
0.319 0.181 0.061
0.315 0.182 0.060
0.308 0.182 0.059
0.303 0.182 0.058
0.298 0.183 0.058
0.295 0.184 0.057
0.292 0.186 0.057
0.285 0.185 0.056
0.280 0.185 0.055
0.276 0.186 0.054
0.270 0.185 0.053
0.266 0.185 0.052
0.264 0.187 0.052
0.262 0.189 0.052
0.261 0.192 0.052
0.260 0.195 0.052
0.260 0.198 0.052
0.259 0.201 0.052
0.260 0.205 0.053
0.260 0.208 0.053
0.259 0.211 0.053
0.258 0.214 0.053
0.257 0.217 0.053
0.257 0.221 0.053
0.257 0.224 0.054
0.256 0.227 0.054
0.255 0.230 0.054
0.255 0.234 0.054
0.255 0.238 0.054
0.256 0.243 0.055
0.256 0.247 0.055
0.255 0.250 0.055
0.253 0.253 0.055
0.267 0.271 0.059
0.268 0.277 0.059
0.269 0.282 0.060
0.266 0.283 0.059
0.268 0.291 0.060
0.261 0.288 0.059
0.258 0.289 0.059
0.255 0.291 0.058
0.285 0.336 0.066
0.285 0.341 0.067
0.284 0.346 0.067
0.284 0.351 0.067
0.282 0.354 0.067
0.280 0.358 0.067
0.279 0.362 0.067
0.277 0.364 0.067
0.103 -0.144 0.026
0.106 -0.146 0.027
0.107 -0.145 0.027
0.107 -0.143 0.027
0.108 -0.142 0.027
0.107 -0.139 0.027
0.115 -0.148 0.029
0.290 -0.336 0.069
0.292 -0.333 0.069
0.289 -0.325 0.068
0.291 -0.322 0.068
0.292 -0.319 0.068
0.293 -0.315 0.068
0.293 -0.310 0.067
0.291 -0.304 0.067
0.291 -0.299 0.066
0.291 -0.294 0.066
0.291 -0.290 0.066
0.292 -0.286 0.065
0.291 -0.280 0.065
0.290 -0.275 0.064
0.291 -0.272 0.064
0.292 -0.269 0.064
0.288 -0.261 0.063
0.289 -0.258 0.063
0.288 -0.253 0.062
0.288 -0.249 0.062
0.286 -0.244 0.062
0.285 -0.239 0.061
0.284 -0.234 0.060
0.278 -0.225 0.059
0.204 -0.158 0.043
0.199 -0.151 0.042
0.197 -0.147 0.041
0.201 -0.147 0.042
0.203 -0.147 0.042
0.202 -0.143 0.042
0.196 -0.136 0.040
0.201 -0.138 0.041
0.203 -0.137 0.041
0.207 -0.137 0.042
0.218 -0.141 0.044
0.220 -0.141 0.045
0.220 -0.138 0.044
0.212 -0.130 0.043
0.204 -0.123 0.041
0.202 -0.120 0.041
0.208 -0.121 0.042
0.210 -0.120 0.042
0.209 -0.117 0.041
0.206 -0.113 0.041
0.203 -0.109 0.040
0.204 -0.108 0.040
0.206 -0.107 0.040
0.208 -0.105 0.041
0.208 -0.104 0.041
0.211 -0.103 0.041
0.210 -0.100 0.041
0.205 -0.095 0.040
0.205 -0.093 0.040
0.206 -0.092 0.040
0.203 -0.088 0.039
0.208 -0.088 0.040
0.200 -0.083 0.039
0.210 -0.085 0.041
0.210 -0.083 0.040
0.213 -0.082 0.041
0.217 -0.082 0.042
0.222 -0.081 0.043
0.221 -0.079 0.042
0.226 -0.078 0.043
0.226 -0.076 0.043
0.224 -0.073 0.043
0.223 -0.071 0.042
0.237 -0.073 0.045
0.243 -0.072 0.046
0.250 -0.072 0.047
0.256 -0.072 0.049
0.372 -0.100 0.070
0.377 -0.098 0.071
0.381 -0.096 0.072
0.378 -0.091 0.071
0.376 -0.088 0.071
0.373 -0.083 0.070
0.364 -0.078 0.068
0.351 -0.072 0.066
0.340 -0.067 0.064
0.330 -0.062 0.062
0.290 -0.049 0.054
0.282 -0.045 0.053
0.284 -0.043 0.053
0.283 -0.040 0.053
0.283 -0.037 0.053
0.284 -0.035 0.053
0.286 -0.032 0.053
0.287 -0.030 0.054
0.285 -0.027 0.053
0.287 -0.025 0.054
0.288 -0.022 0.054
0.286 -0.019 0.053
0.285 -0.017 0.053
0.287 -0.014 0.054
0.289 -0.012 0.054
0.292 -0.009 0.055
0.291 -0.007 0.054
0.291 -0.004 0.054
0.289 -0.001 0.054
0.289 0.001 0.054
0.293 0.004 0.055
0.302 0.007 0.056
0.293 0.009 0.055
0.285 0.012 0.053
0.289 0.014 0.054
0.291 0.017 0.054
0.294 0.020 0.055
0.295 0.023 0.055
0.298 0.026 0.056
0.299 0.028 0.056
0.293 0.031 0.055
0.289 0.033 0.054
0.292 0.036 0.055
0.297 0.039 0.056
0.300 0.042 0.056
0.300 0.045 0.056
0.299 0.048 0.056
0.295 0.050 0.055
0.297 0.053 0.056
0.297 0.056 0.056
0.290 0.057 0.055
0.285 0.059 0.054
0.282 0.061 0.053
0.284 0.064 0.054
0.285 0.066 0.054
0.289 0.070 0.055
0.287 0.072 0.054
0.291 0.076 0.055
0.297 0.081 0.056
0.294 0.083 0.056
0.281 0.082 0.053
0.283 0.085 0.054
0.297 0.092 0.057
0.285 0.091 0.054
0.282 0.093 0.054
0.283 0.096 0.054
0.280 0.098 0.054
0.259 0.096 0.050
0.279 0.106 0.054
0.291 0.116 0.056
0.326 0.133 0.063
0.330 0.138 0.064
0.334 0.143 0.065
0.333 0.146 0.065
0.332 0.149 0.065
0.344 0.162 0.068
0.348 0.167 0.068
0.347 0.171 0.068
0.342 0.172 0.067
0.345 0.177 0.068
0.340 0.178 0.067
0.340 0.182 0.068
0.325 0.177 0.065
0.320 0.179 0.064
0.318 0.181 0.064
0.315 0.182 0.063
0.309 0.183 0.062
0.304 0.183 0.062
0.298 0.183 0.061
0.295 0.184 0.060
0.290 0.185 0.059
0.285 0.185 0.058
0.280 0.185 0.058
0.275 0.185 0.057
0.270 0.185 0.056
0.266 0.186 0.055
0.263 0.187 0.055
0.262 0.190 0.055
0.261 0.192 0.055
0.260 0.195 0.055
0.260 0.198 0.055
0.261 0.203 0.055
0.261 0.206 0.056
0.260 0.208 0.056
0.259 0.211 0.056
0.257 0.214 0.056
0.257 0.217 0.056
0.257 0.220 0.056
0.256 0.224 0.056
0.257 0.228 0.057
0.256 0.231 0.057
0.255 0.234 0.057
0.256 0.240 0.057
0.256 0.243 0.058
0.255 0.246 0.058
0.254 0.250 0.058
0.253 0.252 0.058
0.261 0.266 0.060
0.260 0.269 0.060
0.252 0.265 0.059
0.256 0.273 0.060
0.260 0.283 0.061
0.262 0.290 0.062
0.258 0.290 0.062
0.263 0.300 0.063
0.263 0.305 0.064
0.282 0.332 0.069
0.282 0.338 0.069
0.276 0.342 0.069
0.272 0.342 0.068
0.248 0.327 0.063
0.105 -0.146 0.028
0.106 -0.146 0.028
0.106 -0.144 0.028
0.104 -0.140 0.027
0.105 -0.139 0.028
0.106 -0.138 0.028
0.106 -0.137 0.028
0.107 -0.136 0.028
0.112 -0.139 0.029
0.115 -0.142 0.029
0.134 -0.160 0.034
0.289 -0.325 0.071
0.289 -0.320 0.071
0.289 -0.316 0.071
0.290 -0.313 0.070
0.291 -0.309 0.070
0.292 -0.304 0.070
0.292 -0.301 0.070
0.292 -0.296 0.069
0.291 -0.290 0.069
0.292 -0.286 0.069
0.291 -0.281 0.068
0.290 -0.276 0.067
0.290 -0.272 0.067
0.290 -0.268 0.067
0.290 -0.263 0.066
0.288 -0.258 0.066
0.288 -0.253 0.066
0.288 -0.249 0.065
0.286 -0.243 0.064
0.284 -0.238 0.064
0.283 -0.234 0.063
0.281 -0.228 0.062
0.271 -0.216 0.060
0.261 -0.205 0.058
0.199 -0.153 0.044
0.198 -0.150 0.043
0.195 -0.145 0.043
0.195 -0.143 0.042
0.199 -0.144 0.043
0.199 -0.141 0.043
0.199 -0.139 0.043
0.199 -0.136 0.043
0.203 -0.137 0.043
0.208 -0.138 0.044
0.212 -0.138 0.045
0.220 -0.141 0.047
0.221 -0.139 0.047
0.215 -0.133 0.045
0.208 -0.126 0.044
0.205 -0.122 0.043
0.206 -0.120 0.043
0.210 -0.120 0.044
0.209 -0.117 0.044
0.207 -0.114 0.043
0.208 -0.112 0.043
0.203 -0.107 0.042
0.209 -0.108 0.043
0.203 -0.103 0.042
0.210 -0.105 0.043
0.212 -0.103 0.044
0.211 -0.101 0.043
0.207 -0.097 0.042
0.200 -0.091 0.041
0.205 -0.092 0.042
0.209 -0.091 0.043
0.198 -0.084 0.040
0.211 -0.088 0.043
0.201 -0.081 0.041
0.213 -0.084 0.043
0.215 -0.083 0.043
0.208 -0.078 0.042
0.218 -0.078 0.044
0.217 -0.075 0.043
0.221 -0.074 0.044
0.222 -0.073 0.044
0.229 -0.073 0.046
0.236 -0.073 0.047
0.241 -0.072 0.048
0.250 -0.072 0.050
0.256 -0.072 0.051
0.363 -0.098 0.072
0.371 -0.097 0.073
0.375 -0.094 0.074
0.372 -0.090 0.074
0.370 -0.086 0.073
0.364 -0.081 0.072
0.358 -0.077 0.071
0.347 -0.071 0.068
0.333 -0.065 0.066
0.323 -0.060 0.064
0.309 -0.055 0.061
0.293 -0.049 0.058
0.287 -0.046 0.056
0.283 -0.042 0.056
0.282 -0.040 0.055
0.284 -0.037 0.056
0.286 -0.035 0.056
0.287 -0.033 0.056
0.283 -0.030 0.056
0.285 -0.027 0.056
0.285 -0.025 0.056
0.284 -0.022 0.056
0.283 -0.019 0.055
0.283 -0.017 0.055
0.289 -0.014 0.057
0.290 -0.012 0.057
0.289 -0.009 0.057
0.292 -0.007 0.057
0.291 -0.004 0.057
0.291 -0.001 0.057
0.291 0.001 0.057
0.296 0.004 0.058
0.300 0.007 0.059
0.303 0.010 0.059
0.287 0.012 0.056
0.287 0.014 0.056
0.297 0.017 0.058
0.294 0.020 0.058
0.291 0.022 0.057
0.291 0.025 0.057
0.290 0.028 0.057
0.284 0.030 0.056
0.282 0.032 0.055
0.289 0.035 0.057
0.298 0.039 0.059
0.301 0.042 0.059
0.298 0.045 0.059
0.294 0.047 0.058
0.290 0.049 0.057
0.288 0.051 0.057
0.304 0.057 0.060
0.290 0.057 0.057
0.281 0.058 0.056
0.285 0.061 0.056
0.284 0.064 0.056
0.278 0.065 0.055
0.279 0.068 0.055
0.283 0.071 0.056
0.289 0.076 0.058
0.293 0.080 0.058
0.290 0.082 0.058
0.285 0.083 0.057
0.288 0.087 0.058
0.290 0.090 0.058
0.289 0.093 0.058
0.286 0.094 0.057
0.291 0.099 0.059
0.288 0.101 0.058
0.286 0.103 0.058
0.246 0.093 0.050
0.255 0.099 0.052
0.320 0.131 0.065
0.325 0.136 0.066
0.332 0.143 0.068
0.332 0.146 0.068
0.323 0.146 0.066
0.318 0.146 0.065
0.322 0.152 0.066
0.333 0.160 0.069
0.335 0.165 0.069
0.334 0.168 0.069
0.335 0.172 0.070
0.333 0.175 0.069
0.327 0.175 0.068
0.322 0.176 0.068
0.319 0.178 0.067
0.316 0.180 0.067
0.312 0.181 0.066
0.308 0.182 0.065
0.305 0.184 0.065
0.300 0.184 0.064
0.294 0.184 0.063
0.289 0.185 0.062
0.284 0.185 0.061
0.280 0.185 0.060
0.274 0.185 0.059
0.269 0.185 0.058
0.265 0.185 0.058
0.263 0.187 0.058
0.262 0.190 0.058
0.261 0.192 0.058
0.260 0.195 0.058
0.259 0.198 0.058
0.261 0.202 0.058
0.260 0.206 0.058
0.259 0.208 0.058
0.258 0.211 0.058
0.258 0.215 0.059
0.258 0.218 0.059
0.257 0.221 0.059
0.257 0.224 0.059
0.257 0.228 0.059
0.256 0.231 0.059
0.255 0.235 0.060
0.256 0.239 0.060
0.255 0.243 0.060
0.254 0.246 0.060
0.253 0.249 0.061
0.255 0.255 0.061
0.255 0.259 0.062
0.246 0.255 0.060
0.248 0.261 0.061
0.251 0.268 0.062
0.260 0.282 0.064
0.265 0.293 0.066
0.263 0.296 0.066
0.255 0.291 0.064
0.257 0.299 0.066
0.270 0.319 0.069
0.277 0.332 0.071
0.194 0.249 0.051
0.187 0.243 0.050
0.184 0.242 0.049
0.111 -0.154 0.031
0.114 -0.157 0.032
0.116 -0.157 0.032
0.114 -0.153 0.031
0.111 -0.146 0.030
0.111 -0.145 0.030
0.114 -0.147 0.031
0.114 -0.145 0.031
0.115 -0.144 0.031
0.118 -0.145 0.031
0.117 -0.142 0.031
0.129 -0.154 0.034
0.134 -0.158 0.035
0.287 -0.314 0.073
0.289 -0.311 0.073
0.292 -0.310 0.074
0.291 -0.304 0.073
0.291 -0.300 0.073
0.293 -0.297 0.073
0.293 -0.292 0.072
0.290 -0.285 0.071
0.290 -0.281 0.071
0.291 -0.277 0.071
0.290 -0.272 0.070
0.288 -0.266 0.070
0.289 -0.263 0.069
0.290 -0.259 0.069
0.288 -0.254 0.069
0.286 -0.248 0.068
0.285 -0.243 0.067
0.284 -0.238 0.067
0.284 -0.234 0.066
0.284 -0.230 0.066
0.275 -0.220 0.064
0.204 -0.158 0.047
0.194 -0.148 0.045
0.191 -0.143 0.044
0.194 -0.142 0.044
0.199 -0.144 0.045
0.203 -0.144 0.046
0.198 -0.138 0.045
0.198 -0.136 0.045
0.201 -0.136 0.045
0.210 -0.139 0.047
0.215 -0.140 0.048
0.217 -0.139 0.048
0.218 -0.137 0.048
0.218 -0.135 0.048
0.213 -0.129 0.047
0.207 -0.123 0.046
0.205 -0.120 0.045
0.208 -0.119 0.046
0.206 -0.116 0.045
0.207 -0.114 0.045
0.208 -0.112 0.045
0.208 -0.110 0.045
0.203 -0.105 0.044
0.213 -0.108 0.046
0.208 -0.104 0.045
0.214 -0.104 0.046
0.212 -0.101 0.045
0.208 -0.097 0.044
0.208 -0.095 0.044
0.207 -0.092 0.044
0.209 -0.091 0.044
0.211 -0.090 0.045
0.211 -0.088 0.045
0.214 -0.087 0.045
0.208 -0.083 0.044
0.213 -0.082 0.045
0.218 -0.082 0.046
0.218 -0.080 0.046
0.212 -0.076 0.045
0.214 -0.074 0.045
0.218 -0.074 0.046
0.222 -0.073 0.046
0.234 -0.075 0.049
0.236 -0.073 0.049
0.241 -0.072 0.050
0.247 -0.072 0.052
0.255 -0.071 0.053
0.348 -0.094 0.072
0.366 -0.096 0.076
0.364 -0.092 0.076
0.363 -0.088 0.075
0.359 -0.084 0.074
0.357 -0.080 0.074
0.354 -0.076 0.073
0.346 -0.071 0.072
0.331 -0.065 0.068
0.312 -0.058 0.064
0.299 -0.053 0.062
0.291 -0.049 0.060
0.283 -0.045 0.058
0.281 -0.042 0.058
0.281 -0.040 0.058
0.282 -0.037 0.058
0.284 -0.035 0.058
0.282 -0.032 0.058
0.281 -0.029 0.058
0.280 -0.027 0.057
0.283 -0.024 0.058
0.280 -0.022 0.057
0.281 -0.019 0.058
0.286 -0.017 0.059
0.293 -0.015 0.060
0.291 -0.012 0.060
0.284 -0.009 0.058
0.285 -0.006 0.058
0.291 -0.004 0.060
0.290 -0.001 0.059
0.292 0.001 0.060
0.295 0.004 0.061
0.298 0.007 0.061
0.298 0.009 0.061
0.290 0.012 0.060
0.294 0.015 0.060
0.297 0.017 0.061
0.298 0.020 0.061
0.296 0.023 0.061
0.291 0.025 0.060
0.286 0.027 0.059
0.279 0.029 0.057
0.282 0.032 0.058
0.288 0.035 0.059
0.298 0.039 0.061
0.300 0.042 0.062
0.295 0.044 0.061
0.294 0.047 0.061
0.284 0.048 0.059
0.280 0.050 0.058
0.286 0.054 0.059
0.284 0.056 0.059
0.287 0.059 0.059
0.297 0.064 0.062
0.296 0.066 0.061
0.285 0.067 0.059
0.283 0.069 0.059
0.285 0.072 0.059
0.287 0.075 0.060
0.294 0.080 0.061
0.291 0.082 0.061
0.292 0.085 0.061
0.299 0.090 0.063
0.313 0.097 0.066
0.298 0.095 0.063
0.287 0.095 0.060
0.286 0.097 0.060
0.294 0.103 0.062
0.292 0.105 0.062
0.279 0.103 0.059
0.260 0.098 0.055
0.250 0.097 0.053
0.314 0.129 0.067
0.316 0.133 0.067
0.327 0.140 0.070
0.330 0.145 0.071
0.322 0.145 0.069
0.313 0.144 0.067
0.311 0.147 0.067
0.318 0.153 0.069
0.312 0.154 0.068
0.318 0.160 0.069
0.327 0.168 0.071
0.325 0.171 0.071
0.322 0.172 0.070
0.319 0.175 0.070
0.317 0.177 0.070
0.313 0.178 0.069
0.307 0.178 0.068
0.305 0.180 0.068
0.303 0.183 0.067
0.300 0.185 0.067
0.291 0.183 0.065
0.288 0.184 0.065
0.284 0.185 0.064
0.279 0.185 0.063
0.274 0.185 0.062
0.269 0.185 0.061
0.265 0.186 0.061
0.263 0.187 0.060
0.261 0.189 0.060
0.261 0.193 0.060
0.257 0.193 0.060
0.260 0.198 0.060
0.259 0.201 0.061
0.259 0.205 0.061
0.259 0.208 0.061
0.257 0.211 0.061
0.256 0.214 0.061
0.258 0.219 0.062
0.257 0.222 0.062
0.256 0.225 0.062
0.257 0.229 0.062
0.255 0.231 0.062
0.254 0.234 0.062
0.254 0.238 0.062
0.254 0.242 0.063
0.253 0.245 0.063
0.253 0.249 0.063
0.248 0.249 0.063
0.245 0.250 0.062
0.245 0.253 0.062
0.242 0.255 0.062
0.268 0.292 0.070
0.267 0.295 0.070
0.253 0.285 0.067
0.203 0.244 0.055
0.191 0.233 0.052
0.188 0.233 0.051
0.188 0.238 0.052
0.187 0.239 0.052
0.183 0.238 0.051
0.179 0.237 0.050
0.109 -0.152 0.032
0.114 -0.157 0.033
0.113 -0.153 0.033
0.110 -0.147 0.032
0.110 -0.146 0.032
0.106 -0.138 0.030
0.110 -0.142 0.031
0.114 -0.145 0.032
0.115 -0.144 0.032
0.116 -0.143 0.032
0.119 -0.145 0.033
0.124 -0.149 0.034
0.123 -0.145 0.034
0.122 -0.142 0.033
0.288 -0.306 0.076
0.287 -0.301 0.075
0.289 -0.298 0.076
0.292 -0.296 0.076
0.292 -0.291 0.075
0.288 -0.284 0.074
0.289 -0.279 0.074
0.290 -0.276 0.074
0.291 -0.273 0.074
0.288 -0.266 0.073
0.288 -0.262 0.072
0.290 -0.259 0.072
0.290 -0.256 0.072
0.288 -0.250 0.071
0.285 -0.243 0.070
0.285 -0.239 0.070
0.285 -0.235 0.070
0.281 -0.229 0.069
0.275 -0.220 0.067
0.266 -0.210 0.064
0.199 -0.154 0.048
0.198 -0.150 0.047
0.194 -0.145 0.046
0.197 -0.145 0.047
0.200 -0.145 0.048
0.203 -0.144 0.048
0.201 -0.140 0.047
0.198 -0.136 0.047
0.204 -0.138 0.048
0.210 -0.140 0.049
0.212 -0.138 0.049
0.216 -0.138 0.050
0.215 -0.135 0.050
0.215 -0.133 0.050
0.211 -0.128 0.049
0.208 -0.124 0.048
0.202 -0.118 0.046
0.201 -0.115 0.046
0.205 -0.115 0.047
0.202 -0.112 0.046
0.208 -0.112 0.047
0.209 -0.111 0.047
0.204 -0.106 0.046
0.205 -0.104 0.046
0.208 -0.103 0.047
0.214 -0.104 0.048
0.214 -0.102 0.048
0.208 -0.097 0.047
0.206 -0.094 0.046
0.201 -0.090 0.045
0.204 -0.089 0.045
0.207 -0.088 0.046
0.202 -0.084 0.045
0.210 -0.085 0.046
0.203 -0.081 0.045
0.212 -0.082 0.047
0.204 -0.077 0.045
0.210 -0.077 0.046
0.210 -0.075 0.046
0.215 -0.075 0.047
0.214 -0.072 0.047
0.227 -0.074 0.050
0.224 -0.071 0.049
0.228 -0.070 0.050
0.240 -0.072 0.052
0.248 -0.072 0.054
0.255 -0.071 0.055
0.333 -0.090 0.072
0.349 -0.091 0.076
0.351 -0.089 0.076
0.346 -0.084 0.075
0.348 -0.081 0.075
0.350 -0.079 0.076
0.347 -0.075 0.075
0.337 -0.069 0.073
0.321 -0.063 0.069
0.307 -0.057 0.066
0.294 -0.052 0.063
0.282 -0.048 0.061
0.279 -0.044 0.060
0.279 -0.042 0.060
0.280 -0.039 0.060
0.281 -0.037 0.060
0.282 -0.035 0.060
0.279 -0.032 0.060
0.274 -0.029 0.059
0.279 -0.027 0.060
0.279 -0.024 0.060
0.278 -0.021 0.060
0.282 -0.019 0.060
0.288 -0.017 0.062
0.293 -0.015 0.063
0.293 -0.012 0.063
0.285 -0.009 0.061
0.283 -0.006 0.061
0.288 -0.004 0.062
0.290 -0.001 0.062
0.293 0.001 0.063
0.292 0.004 0.062
0.292 0.007 0.063
0.291 0.009 0.062
0.296 0.012 0.064
0.292 0.015 0.063
0.295 0.017 0.063
0.302 0.020 0.065
0.298 0.023 0.064
0.288 0.025 0.062
0.278 0.027 0.060
0.277 0.029 0.060
0.282 0.032 0.061
0.283 0.035 0.061
0.285 0.038 0.061
0.291 0.041 0.063
0.296 0.045 0.064
0.292 0.047 0.063
0.287 0.048 0.062
0.278 0.050 0.060
0.278 0.052 0.060
0.278 0.055 0.060
0.283 0.058 0.061
0.290 0.063 0.063
0.296 0.067 0.064
0.290 0.068 0.063
0.281 0.068 0.061
0.283 0.072 0.061
0.287 0.075 0.062
0.293 0.080 0.064
0.289 0.081 0.063
0.288 0.084 0.063
0.302 0.091 0.066
0.310 0.096 0.068
0.307 0.098 0.067
0.287 0.095 0.063
0.282 0.096 0.062
0.290 0.101 0.064
0.296 0.107 0.065
0.291 0.107 0.064
0.268 0.107 0.060
0.268 0.110 0.060
0.300 0.126 0.067
0.310 0.134 0.069
0.314 0.138 0.070
0.316 0.143 0.071
0.316 0.146 0.071
0.315 0.149 0.071
0.301 0.145 0.068
0.306 0.151 0.069
0.310 0.156 0.070
0.316 0.163 0.072
0.314 0.165 0.072
0.315 0.169 0.072
0.313 0.171 0.072
0.310 0.173 0.071
0.307 0.175 0.071
0.303 0.176 0.070
0.299 0.177 0.069
0.299 0.180 0.069
0.298 0.184 0.070
0.291 0.183 0.068
0.286 0.183 0.067
0.283 0.184 0.067
0.279 0.185 0.066
0.274 0.185 0.065
0.269 0.185 0.064
0.265 0.186 0.063
0.262 0.187 0.063
0.261 0.189 0.063
0.260 0.192 0.063
0.260 0.196 0.063
0.259 0.199 0.063
0.258 0.201 0.063
0.260 0.206 0.064
0.258 0.208 0.064
0.257 0.211 0.064
0.257 0.214 0.064
0.257 0.218 0.064
0.256 0.221 0.064
0.255 0.223 0.064
0.256 0.228 0.065
0.255 0.231 0.065
0.254 0.234 0.065
0.252 0.237 0.065
0.249 0.238 0.064
0.242 0.235 0.063
0.239 0.236 0.063
0.239 0.240 0.063
0.238 0.243 0.063
0.238 0.247 0.064
0.205 0.228 0.056
0.206 0.232 0.057
0.199 0.228 0.055
0.195 0.227 0.054
0.198 0.234 0.055
0.195 0.235 0.055
0.190 0.232 0.054
0.187 0.233 0.054
0.187 0.236 0.054
0.185 0.238 0.054
0.226 0.298 0.066
0.099 -0.138 0.030
0.099 -0.136 0.030
0.099 -0.135 0.030
0.099 -0.132 0.030
0.099 -0.131 0.030
0.100 -0.131 0.030
0.100 -0.129 0.030
0.100 -0.127 0.029
0.100 -0.126 0.029
0.101 -0.125 0.030
0.101 -0.123 0.029
0.102 -0.122 0.029
0.102 -0.121 0.029
0.113 -0.132 0.032
0.117 -0.130 0.033
0.121 -0.133 0.034
0.278 -0.291 0.076
0.285 -0.294 0.078
0.287 -0.291 0.078
0.277 -0.277 0.075
0.284 -0.280 0.076
0.284 -0.275 0.076
0.282 -0.269 0.075
0.286 -0.269 0.076
0.288 -0.266 0.076
0.288 -0.262 0.075
0.289 -0.259 0.075
0.289 -0.255 0.075
0.287 -0.249 0.074
0.286 -0.244 0.074
0.286 -0.240 0.073
0.283 -0.234 0.072
0.280 -0.228 0.071
0.273 -0.218 0.069
0.205 -0.156 0.051
0.200 -0.150 0.050
0.200 -0.147 0.050
0.199 -0.144 0.049
0.201 -0.143 0.050
0.201 -0.141 0.050
0.204 -0.140 0.050
0.205 -0.138 0.050
0.197 -0.131 0.048
0.209 -0.136 0.051
0.209 -0.134 0.051
0.211 -0.133 0.051
0.205 -0.127 0.049
0.207 -0.126 0.050
0.205 -0.122 0.049
0.201 -0.118 0.048
0.201 -0.115 0.048
0.201 -0.113 0.048
0.204 -0.113 0.048
0.210 -0.114 0.050
0.222 -0.118 0.052
0.173 -0.088 0.041
0.173 -0.086 0.041
0.172 -0.084 0.040
0.171 -0.081 0.040
0.171 -0.080 0.040
0.174 -0.080 0.041
0.175 -0.078 0.041
0.175 -0.076 0.041
0.177 -0.076 0.041
0.179 -0.075 0.041
0.181 -0.074 0.042
0.183 -0.073 0.042
0.193 -0.075 0.044
0.210 -0.079 0.048
0.213 -0.078 0.049
0.216 -0.077 0.049
0.216 -0.075 0.049
0.214 -0.072 0.049
0.218 -0.072 0.050
0.223 -0.071 0.051
0.228 -0.070 0.052
0.238 -0.071 0.054
0.248 -0.072 0.056
0.342 -0.089 0.077
0.343 -0.086 0.078
0.336 -0.082 0.076
0.339 -0.079 0.076
0.343 -0.077 0.077
0.338 -0.073 0.076
0.326 -0.067 0.073
0.322 -0.063 0.072
0.317 -0.059 0.071
0.279 -0.047 0.063
0.277 -0.044 0.062
0.278 -0.042 0.062
0.279 -0.039 0.063
0.279 -0.037 0.062
0.278 -0.034 0.062
0.278 -0.032 0.062
0.276 -0.029 0.062
0.276 -0.026 0.062
0.278 -0.024 0.062
0.287 -0.022 0.064
0.284 -0.019 0.064
0.284 -0.017 0.064
0.289 -0.014 0.065
0.290 -0.012 0.065
0.286 -0.009 0.064
0.284 -0.006 0.063
0.285 -0.004 0.064
0.286 -0.001 0.064
0.283 0.001 0.063
0.284 0.004 0.063
0.283 0.006 0.063
0.281 0.009 0.063
0.278 0.011 0.062
0.288 0.014 0.064
0.297 0.017 0.066
0.299 0.020 0.067
0.292 0.023 0.065
0.275 0.024 0.062
0.273 0.026 0.061
0.276 0.029 0.062
0.280 0.032 0.063
0.273 0.034 0.061
0.274 0.036 0.062
0.283 0.040 0.063
0.290 0.044 0.065
0.289 0.046 0.065
0.288 0.049 0.065
0.283 0.050 0.064
0.282 0.053 0.064
0.277 0.055 0.062
0.276 0.057 0.062
0.279 0.060 0.063
0.280 0.063 0.063
0.268 0.063 0.061
0.267 0.065 0.061
0.271 0.069 0.061
0.287 0.076 0.065
0.286 0.078 0.065
0.273 0.077 0.062
0.280 0.082 0.064
0.293 0.088 0.067
0.303 0.094 0.069
0.300 0.096 0.069
0.295 0.097 0.068
0.290 0.099 0.067
0.295 0.103 0.068
0.296 0.107 0.068
0.299 0.111 0.069
0.302 0.115 0.070
0.298 0.116 0.069
0.292 0.117 0.068
0.277 0.114 0.064
0.304 0.134 0.071
0.309 0.140 0.072
0.314 0.145 0.074
0.315 0.149 0.074
0.313 0.151 0.074
0.308 0.152 0.073
0.306 0.154 0.072
0.304 0.157 0.072
0.308 0.162 0.073
0.307 0.165 0.073
0.306 0.168 0.073
0.305 0.171 0.073
0.302 0.173 0.073
0.299 0.174 0.072
0.296 0.176 0.072
0.293 0.177 0.071
0.293 0.181 0.071
0.289 0.182 0.071
0.285 0.183 0.070
0.282 0.184 0.069
0.279 0.185 0.069
0.274 0.185 0.068
0.268 0.185 0.067
0.265 0.186 0.066
0.261 0.187 0.065
0.261 0.189 0.065
0.260 0.192 0.065
0.260 0.196 0.066
0.259 0.199 0.066
0.258 0.201 0.066
0.258 0.205 0.066
0.258 0.208 0.066
0.257 0.211 0.066
0.256 0.214 0.066
0.253 0.215 0.066
0.252 0.218 0.066
0.251 0.220 0.066
0.253 0.227 0.067
0.252 0.229 0.067
0.252 0.233 0.067
0.250 0.235 0.067
0.244 0.233 0.066
0.234 0.227 0.064
0.230 0.228 0.063
0.212 0.220 0.059
0.204 0.215 0.057
0.199 0.214 0.056
0.196 0.214 0.056
0.197 0.219 0.056
0.200 0.226 0.057
0.198 0.227 0.057
0.192 0.224 0.056
0.193 0.229 0.057
0.198 0.239 0.058
0.194 0.238 0.058
0.235 0.297 0.071
0.239 0.308 0.072
0.259 0.343 0.079
0.099 -0.136 0.031
0.099 -0.135 0.031
0.100 -0.135 0.031
0.099 -0.131 0.031
0.100 -0.131 0.031
0.101 -0.130 0.031
0.100 -0.127 0.030
0.101 -0.127 0.031
0.101 -0.125 0.031
0.102 -0.124 0.031
0.102 -0.123 0.031
0.102 -0.121 0.031
0.103 -0.120 0.030
0.103 -0.118 0.030
0.103 -0.116 0.030
0.114 -0.128 0.033
0.118 -0.130 0.034
0.121 -0.131 0.035
0.262 -0.267 0.074
0.268 -0.268 0.075
0.274 -0.271 0.077
0.279 -0.271 0.078
0.279 -0.267 0.077
0.280 -0.264 0.077
0.284 -0.263 0.078
0.285 -0.260 0.078
0.282 -0.253 0.077
0.285 -0.252 0.077
0.287 -0.249 0.077
0.286 -0.245 0.077
0.284 -0.239 0.076
0.282 -0.234 0.075
0.280 -0.228 0.074
0.270 -0.216 0.071
0.206 -0.157 0.054
0.203 -0.152 0.053
0.199 -0.147 0.052
0.199 -0.145 0.051
0.201 -0.144 0.052
0.200 -0.140 0.051
0.201 -0.138 0.051
0.201 -0.136 0.051
0.203 -0.135 0.052
0.203 -0.133 0.052
0.207 -0.133 0.052
0.208 -0.131 0.052
0.206 -0.128 0.052
0.202 -0.123 0.051
0.206 -0.123 0.051
0.205 -0.120 0.051
0.201 -0.115 0.050
0.200 -0.113 0.050
0.176 -0.097 0.044
0.169 -0.092 0.042
0.169 -0.090 0.042
0.169 -0.088 0.041
0.170 -0.087 0.042
0.171 -0.082 0.042
0.173 -0.081 0.042
0.174 -0.080 0.042
0.174 -0.078 0.042
0.176 -0.077 0.042
0.177 -0.076 0.043
0.178 -0.074 0.043
0.179 -0.073 0.043
0.181 -0.072 0.043
0.181 -0.070 0.043
0.182 -0.069 0.044
0.187 -0.069 0.045
0.187 -0.067 0.045
0.213 -0.074 0.051
0.213 -0.072 0.051
0.216 -0.071 0.051
0.223 -0.071 0.053
0.231 -0.071 0.055
0.237 -0.071 0.056
0.246 -0.072 0.058
0.259 -0.073 0.061
0.326 -0.085 0.077
0.329 -0.083 0.078
0.330 -0.080 0.078
0.331 -0.077 0.078
0.330 -0.074 0.078
0.325 -0.070 0.076
0.322 -0.066 0.076
0.321 -0.063 0.075
0.322 -0.060 0.075
0.297 -0.053 0.069
0.283 -0.048 0.066
0.276 -0.044 0.065
0.279 -0.042 0.065
0.280 -0.040 0.065
0.279 -0.037 0.065
0.277 -0.034 0.065
0.276 -0.031 0.064
0.276 -0.029 0.064
0.277 -0.026 0.065
0.281 -0.024 0.065
0.284 -0.022 0.066
0.286 -0.020 0.067
0.284 -0.017 0.066
0.283 -0.014 0.066
0.285 -0.012 0.066
0.285 -0.009 0.066
0.283 -0.006 0.066
0.285 -0.004 0.066
0.282 -0.001 0.066
0.282 0.001 0.066
0.279 0.004 0.065
0.279 0.006 0.065
0.276 0.009 0.064
0.276 0.011 0.064
0.277 0.014 0.065
0.295 0.017 0.069
0.295 0.020 0.069
0.284 0.022 0.066
0.276 0.024 0.064
0.275 0.026 0.064
0.280 0.029 0.065
0.278 0.032 0.065
0.269 0.033 0.063
0.269 0.036 0.063
0.274 0.039 0.064
0.283 0.043 0.066
0.284 0.045 0.067
0.290 0.049 0.068
0.288 0.051 0.068
0.289 0.054 0.068
0.283 0.056 0.066
0.282 0.058 0.066
0.278 0.060 0.066
0.286 0.064 0.067
0.283 0.067 0.067
0.278 0.068 0.066
0.279 0.071 0.066
0.286 0.075 0.068
0.277 0.076 0.066
0.267 0.075 0.063
0.266 0.078 0.063
0.285 0.086 0.068
0.293 0.091 0.070
0.299 0.096 0.071
0.295 0.098 0.071
0.294 0.100 0.070
0.294 0.103 0.071
0.295 0.106 0.071
0.297 0.110 0.071
0.301 0.114 0.072
0.302 0.118 0.073
0.297 0.119 0.072
0.294 0.121 0.071
0.279 0.117 0.068
0.264 0.114 0.064
0.301 0.136 0.073
0.308 0.142 0.075
0.313 0.148 0.077
0.311 0.151 0.076
0.302 0.149 0.074
0.292 0.148 0.072
0.290 0.149 0.072
0.299 0.158 0.074
0.298 0.160 0.074
0.295 0.162 0.074
0.300 0.168 0.075
0.298 0.170 0.075
0.295 0.172 0.074
0.292 0.174 0.074
0.291 0.176 0.074
0.286 0.177 0.073
0.285 0.179 0.072
0.284 0.182 0.072
0.281 0.184 0.072
0.277 0.184 0.071
0.273 0.185 0.070
0.270 0.186 0.070
0.262 0.184 0.068
0.260 0.186 0.068
0.260 0.189 0.068
0.260 0.193 0.068
0.260 0.196 0.068
0.259 0.199 0.069
0.258 0.202 0.069
0.259 0.205 0.069
0.258 0.209 0.069
0.259 0.213 0.070
0.254 0.212 0.069
0.253 0.215 0.069
0.251 0.218 0.069
0.250 0.220 0.069
0.250 0.223 0.069
0.248 0.225 0.069
0.247 0.228 0.069
0.242 0.228 0.068
0.232 0.223 0.065
0.227 0.221 0.064
0.218 0.216 0.062
0.211 0.212 0.060
0.204 0.209 0.059
0.202 0.211 0.059
0.200 0.212 0.058
0.196 0.211 0.057
0.192 0.210 0.057
0.194 0.216 0.058
0.199 0.225 0.059
0.197 0.227 0.059
0.201 0.235 0.061
0.208 0.247 0.063
0.227 0.283 0.071
0.229 0.290 0.072
0.231 0.297 0.073
0.213 0.283 0.068
0.099 -0.137 0.032
0.100 -0.136 0.033
0.100 -0.135 0.033
0.101 -0.134 0.033
0.100 -0.131 0.032
0.101 -0.130 0.032
0.101 -0.129 0.032
0.102 -0.128 0.032
0.103 -0.127 0.032
0.103 -0.126 0.032
0.103 -0.124 0.032
0.103 -0.122 0.032
0.103 -0.121 0.032
0.103 -0.119 0.032
0.102 -0.116 0.031
0.102 -0.115 0.031
0.108 -0.119 0.033
0.109 -0.118 0.033
0.109 -0.116 0.032
0.257 -0.262 0.075
0.265 -0.266 0.077
0.271 -0.267 0.079
0.275 -0.268 0.080
0.276 -0.264 0.079
0.277 -0.261 0.079
0.279 -0.259 0.080
0.279 -0.254 0.079
0.278 -0.250 0.078
0.277 -0.245 0.078
0.280 -0.244 0.078
0.282 -0.242 0.079
0.281 -0.237 0.078
0.277 -0.230 0.077
0.273 -0.223 0.075
0.264 -0.212 0.073
0.215 -0.167 0.058
0.202 -0.154 0.055
0.198 -0.149 0.054
0.201 -0.149 0.054
0.200 -0.145 0.054
0.200 -0.143 0.054
0.201 -0.141 0.054
0.198 -0.137 0.053
0.200 -0.135 0.053
0.202 -0.135 0.053
0.202 -0.132 0.053
0.201 -0.129 0.053
0.203 -0.128 0.053
0.203 -0.126 0.053
0.204 -0.124 0.053
0.204 -0.122 0.053
0.201 -0.118 0.052
0.189 -0.109 0.049
0.167 -0.094 0.043
0.168 -0.093 0.043
0.169 -0.092 0.043
0.169 -0.090 0.043
0.171 -0.089 0.044
0.170 -0.087 0.043
0.170 -0.085 0.043
0.173 -0.085 0.044
0.177 -0.085 0.045
0.181 -0.085 0.046
0.186 -0.085 0.047
0.190 -0.085 0.048
0.191 -0.084 0.048
0.190 -0.081 0.048
0.184 -0.077 0.046
0.183 -0.074 0.046
0.181 -0.072 0.045
0.181 -0.070 0.045
0.182 -0.069 0.045
0.183 -0.068 0.046
0.184 -0.066 0.046
0.185 -0.065 0.046
0.187 -0.063 0.046
0.196 -0.064 0.048
0.222 -0.071 0.055
0.230 -0.071 0.057
0.240 -0.072 0.059
0.243 -0.071 0.060
0.252 -0.071 0.062
0.325 -0.085 0.080
0.320 -0.081 0.078
0.320 -0.078 0.078
0.323 -0.075 0.079
0.320 -0.072 0.078
0.315 -0.068 0.077
0.313 -0.065 0.076
0.316 -0.062 0.077
0.315 -0.059 0.077
0.311 -0.055 0.076
0.286 -0.048 0.070
0.278 -0.044 0.068
0.278 -0.042 0.068
0.279 -0.039 0.068
0.279 -0.037 0.068
0.277 -0.034 0.067
0.277 -0.032 0.067
0.276 -0.029 0.067
0.279 -0.027 0.068
0.280 -0.024 0.068
0.283 -0.022 0.069
0.283 -0.019 0.069
0.282 -0.017 0.068
0.280 -0.014 0.068
0.280 -0.011 0.068
0.283 -0.009 0.069
0.285 -0.006 0.069
0.280 -0.004 0.068
0.281 -0.001 0.068
0.282 0.001 0.068
0.280 0.004 0.068
0.280 0.006 0.068
0.279 0.009 0.068
0.276 0.011 0.067
0.283 0.014 0.068
0.287 0.017 0.070
0.288 0.020 0.070
0.279 0.022 0.068
0.272 0.024 0.066
0.283 0.027 0.069
0.282 0.030 0.068
0.274 0.031 0.067
0.268 0.033 0.065
0.271 0.036 0.066
0.273 0.039 0.066
0.288 0.043 0.070
0.288 0.046 0.070
0.287 0.049 0.070
0.290 0.052 0.071
0.291 0.055 0.071
0.294 0.058 0.072
0.290 0.060 0.071
0.291 0.063 0.071
0.289 0.065 0.071
0.285 0.067 0.070
0.283 0.069 0.069
0.284 0.072 0.070
0.270 0.071 0.066
0.270 0.074 0.067
0.268 0.076 0.066
0.266 0.078 0.066
0.264 0.080 0.065
0.285 0.089 0.070
0.298 0.096 0.074
0.294 0.097 0.073
0.290 0.099 0.072
0.291 0.102 0.072
0.292 0.105 0.073
0.294 0.109 0.073
0.293 0.111 0.073
0.289 0.113 0.073
0.295 0.118 0.074
0.288 0.118 0.072
0.291 0.123 0.073
0.286 0.123 0.072
0.276 0.122 0.070
0.263 0.119 0.067
0.300 0.142 0.077
0.305 0.147 0.078
0.289 0.143 0.074
0.284 0.144 0.073
0.283 0.146 0.073
0.286 0.151 0.074
0.291 0.157 0.075
0.291 0.160 0.075
0.293 0.164 0.076
0.293 0.168 0.076
0.290 0.169 0.076
0.288 0.171 0.075
0.286 0.174 0.075
0.283 0.175 0.075
0.281 0.177 0.074
0.280 0.180 0.074
0.274 0.179 0.073
0.272 0.181 0.073
0.272 0.184 0.073
0.268 0.185 0.072
0.265 0.186 0.072
0.260 0.186 0.070
0.261 0.190 0.071
0.260 0.193 0.071
0.260 0.196 0.071
0.259 0.199 0.071
0.258 0.202 0.071
0.258 0.206 0.072
0.259 0.210 0.072
0.259 0.213 0.072
0.255 0.213 0.072
0.261 0.222 0.074
0.252 0.219 0.072
0.248 0.219 0.071
0.242 0.217 0.069
0.243 0.222 0.070
0.241 0.223 0.070
0.235 0.221 0.068
0.227 0.218 0.066
0.223 0.217 0.066
0.212 0.210 0.063
0.203 0.205 0.061
0.200 0.206 0.060
0.201 0.210 0.061
0.205 0.217 0.062
0.204 0.220 0.062
0.196 0.215 0.060
0.197 0.219 0.061
0.199 0.226 0.062
0.201 0.232 0.063
0.205 0.240 0.065
0.206 0.246 0.065
0.199 0.241 0.063
0.197 0.250 0.064
0.195 0.259 0.065
0.099 -0.137 0.034
0.100 -0.136 0.034
0.101 -0.136 0.034
0.102 -0.135 0.034
0.102 -0.134 0.034
0.101 -0.131 0.034
0.102 -0.130 0.034
0.102 -0.129 0.034
0.103 -0.127 0.034
0.102 -0.125 0.033
0.103 -0.124 0.033
0.104 -0.123 0.033
0.103 -0.121 0.033
0.103 -0.119 0.033
0.103 -0.117 0.033
0.102 -0.114 0.032
0.104 -0.115 0.033
0.106 -0.115 0.033
0.106 -0.113 0.033
0.110 -0.115 0.034
0.262 -0.264 0.080
0.271 -0.268 0.082
0.274 -0.266 0.082
0.274 -0.263 0.082
0.275 -0.260 0.082
0.276 -0.256 0.082
0.276 -0.252 0.081
0.275 -0.247 0.081
0.274 -0.243 0.080
0.275 -0.239 0.080
0.276 -0.237 0.080
0.276 -0.233 0.080
0.272 -0.226 0.078
0.269 -0.220 0.077
0.264 -0.212 0.075
0.200 -0.153 0.056
0.195 -0.147 0.055
0.197 -0.145 0.055
0.198 -0.144 0.055
0.200 -0.143 0.056
0.199 -0.140 0.055
0.199 -0.137 0.055
0.197 -0.134 0.054
0.199 -0.133 0.055
0.201 -0.132 0.055
0.200 -0.129 0.055
0.200 -0.126 0.054
0.199 -0.124 0.054
0.201 -0.123 0.054
0.203 -0.122 0.055
0.169 -0.099 0.045
0.168 -0.097 0.045
0.167 -0.094 0.045
0.168 -0.093 0.045
0.169 -0.092 0.045
0.170 -0.091 0.045
0.172 -0.090 0.046
0.188 -0.096 0.050
0.205 -0.103 0.054
0.206 -0.101 0.054
0.208 -0.100 0.055
0.209 -0.098 0.055
0.209 -0.096 0.055
0.211 -0.095 0.055
0.198 -0.087 0.052
0.210 -0.090 0.055
0.211 -0.088 0.055
0.215 -0.088 0.056
0.210 -0.084 0.054
0.207 -0.080 0.054
0.193 -0.073 0.050
0.190 -0.070 0.049
0.184 -0.066 0.048
0.185 -0.064 0.048
0.186 -0.063 0.048
0.188 -0.062 0.048
0.189 -0.061 0.049
0.196 -0.061 0.050
0.241 -0.070 0.062
0.257 -0.072 0.066
0.269 -0.073 0.069
0.303 -0.080 0.077
0.310 -0.078 0.079
0.312 -0.076 0.079
0.313 -0.073 0.080
0.311 -0.070 0.079
0.303 -0.065 0.077
0.303 -0.062 0.077
0.305 -0.060 0.077
0.303 -0.057 0.077
0.306 -0.055 0.077
0.296 -0.050 0.075
0.277 -0.044 0.070
0.276 -0.042 0.070
0.280 -0.040 0.071
0.278 -0.037 0.070
0.276 -0.034 0.070
0.275 -0.031 0.069
0.278 -0.029 0.070
0.280 -0.027 0.071
0.282 -0.024 0.071
0.284 -0.022 0.071
0.286 -0.020 0.072
0.281 -0.017 0.071
0.277 -0.014 0.070
0.277 -0.011 0.070
0.281 -0.009 0.071
0.281 -0.006 0.071
0.280 -0.004 0.070
0.282 -0.001 0.071
0.284 0.001 0.071
0.284 0.004 0.071
0.282 0.006 0.071
0.279 0.009 0.070
0.280 0.011 0.070
0.285 0.014 0.072
0.287 0.017 0.072
0.280 0.019 0.070
0.273 0.021 0.069
0.274 0.024 0.069
0.282 0.027 0.071
0.281 0.029 0.071
0.273 0.031 0.069
0.268 0.033 0.068
0.273 0.036 0.069
0.278 0.039 0.070
0.293 0.044 0.074
0.292 0.047 0.074
0.286 0.048 0.072
0.283 0.051 0.072
0.291 0.055 0.074
0.293 0.058 0.074
0.293 0.061 0.074
0.292 0.063 0.074
0.291 0.066 0.074
0.285 0.067 0.073
0.279 0.068 0.071
0.275 0.070 0.070
0.269 0.071 0.069
0.261 0.071 0.067
0.261 0.074 0.067
0.264 0.077 0.068
0.268 0.081 0.069
0.284 0.089 0.073
0.291 0.094 0.075
0.290 0.096 0.075
0.284 0.097 0.073
0.284 0.100 0.073
0.289 0.105 0.075
0.289 0.107 0.075
0.286 0.109 0.074
0.280 0.110 0.073
0.279 0.112 0.073
0.284 0.117 0.074
0.282 0.119 0.074
0.284 0.123 0.075
0.279 0.124 0.073
0.271 0.123 0.071
0.259 0.120 0.068
0.263 0.124 0.069
0.259 0.126 0.069
0.266 0.132 0.071
0.279 0.141 0.074
0.276 0.143 0.074
0.282 0.149 0.075
0.287 0.155 0.077
0.287 0.158 0.077
