VERSION .7
FIELDS x y z
SIZE 4 4 4
TYPE F F F
COUNT 1 1 1
WIDTH     2434
HEIGHT 1
VIEWPOINT 0 0 0 1 0 0 0
POINTS     2434
DATA ascii
0.268 -0.337 -0.050
0.272 -0.337 -0.051
0.277 -0.338 -0.051
0.270 -0.325 -0.050
0.264 -0.313 -0.048
0.281 -0.296 -0.050
0.289 -0.299 -0.051
0.294 -0.300 -0.052
0.295 -0.296 -0.051
0.293 -0.290 -0.051
0.293 -0.285 -0.051
0.295 -0.283 -0.051
0.293 -0.277 -0.050
0.297 -0.276 -0.051
0.299 -0.274 -0.051
0.297 -0.268 -0.050
0.303 -0.269 -0.051
0.309 -0.270 -0.052
0.306 -0.263 -0.051
0.309 -0.261 -0.051
0.310 -0.258 -0.052
0.309 -0.253 -0.051
0.225 -0.172 -0.037
0.226 -0.170 -0.037
0.223 -0.166 -0.036
0.221 -0.161 -0.036
0.223 -0.160 -0.036
0.213 -0.150 -0.034
0.216 -0.150 -0.035
0.221 -0.151 -0.035
0.226 -0.151 -0.036
0.224 -0.148 -0.036
0.224 -0.145 -0.036
0.216 -0.138 -0.034
0.218 -0.136 -0.034
0.219 -0.134 -0.035
0.220 -0.132 -0.035
0.217 -0.128 -0.034
0.216 -0.125 -0.034
0.223 -0.127 -0.035
0.224 -0.125 -0.035
0.218 -0.119 -0.034
0.220 -0.118 -0.034
0.223 -0.117 -0.035
0.223 -0.115 -0.034
0.223 -0.113 -0.034
0.221 -0.109 -0.034
0.218 -0.106 -0.034
0.222 -0.105 -0.034
0.224 -0.104 -0.034
0.223 -0.101 -0.034
0.223 -0.099 -0.034
0.224 -0.097 -0.034
0.214 -0.090 -0.033
0.214 -0.089 -0.033
0.214 -0.087 -0.033
0.213 -0.084 -0.032
0.216 -0.083 -0.033
0.213 -0.080 -0.032
0.272 -0.097 -0.041
0.282 -0.097 -0.042
0.297 -0.100 -0.045
0.364 -0.112 -0.055
0.377 -0.112 -0.056
0.386 -0.111 -0.058
0.394 -0.110 -0.059
0.400 -0.108 -0.060
0.405 -0.105 -0.060
0.412 -0.103 -0.061
0.420 -0.101 -0.063
0.427 -0.099 -0.064
0.428 -0.095 -0.064
0.412 -0.088 -0.061
0.407 -0.083 -0.060
0.380 -0.074 -0.056
0.367 -0.068 -0.055
0.283 -0.050 -0.042
0.284 -0.048 -0.042
0.285 -0.045 -0.042
0.287 -0.043 -0.043
0.289 -0.041 -0.043
0.282 -0.037 -0.042
0.281 -0.034 -0.042
0.288 -0.033 -0.043
0.301 -0.031 -0.044
0.312 -0.030 -0.046
0.298 -0.026 -0.044
0.287 -0.022 -0.042
0.282 -0.019 -0.042
0.302 -0.018 -0.045
0.311 -0.015 -0.046
0.301 -0.012 -0.044
0.302 -0.010 -0.045
0.305 -0.007 -0.045
0.307 -0.004 -0.045
0.309 -0.001 -0.046
0.311 0.001 -0.046
0.314 0.004 -0.046
0.315 0.007 -0.047
0.315 0.010 -0.047
0.318 0.013 -0.047
0.317 0.016 -0.047
0.316 0.018 -0.047
0.316 0.021 -0.047
0.316 0.024 -0.047
0.315 0.027 -0.047
0.313 0.030 -0.046
0.313 0.033 -0.046
0.313 0.035 -0.046
0.314 0.038 -0.046
0.316 0.041 -0.047
0.317 0.044 -0.047
0.320 0.048 -0.048
0.322 0.051 -0.048
0.323 0.054 -0.048
0.326 0.058 -0.048
0.324 0.060 -0.048
0.323 0.063 -0.048
0.322 0.066 -0.048
0.320 0.068 -0.048
0.319 0.071 -0.048
0.319 0.074 -0.048
0.319 0.077 -0.048
0.318 0.080 -0.048
0.317 0.083 -0.047
0.317 0.086 -0.047
0.317 0.089 -0.048
0.319 0.092 -0.048
0.318 0.095 -0.048
0.312 0.096 -0.047
0.308 0.098 -0.046
0.309 0.101 -0.047
0.304 0.103 -0.046
0.305 0.106 -0.046
0.306 0.109 -0.046
0.310 0.114 -0.047
0.327 0.126 -0.050
0.321 0.161 -0.050
0.311 0.162 -0.048
0.265 -0.365 -0.048
0.254 -0.346 -0.046
0.251 -0.338 -0.045
0.256 -0.340 -0.046
0.264 -0.345 -0.047
0.266 -0.344 -0.047
0.259 -0.330 -0.046
0.264 -0.331 -0.046
0.270 -0.334 -0.047
0.266 -0.324 -0.046
0.266 -0.320 -0.046
0.213 -0.246 -0.036
0.201 -0.221 -0.034
0.208 -0.222 -0.035
0.286 -0.296 -0.047
0.291 -0.297 -0.048
0.293 -0.294 -0.048
0.291 -0.288 -0.047
0.292 -0.284 -0.047
0.290 -0.278 -0.047
0.291 -0.275 -0.047
0.292 -0.271 -0.047
0.293 -0.268 -0.047
0.295 -0.265 -0.047
0.295 -0.262 -0.047
0.295 -0.257 -0.046
0.299 -0.256 -0.047
0.303 -0.256 -0.047
0.307 -0.255 -0.048
0.309 -0.253 -0.048
0.311 -0.251 -0.048
0.221 -0.172 -0.034
0.211 -0.162 -0.032
0.223 -0.168 -0.034
0.221 -0.164 -0.034
0.224 -0.163 -0.034
0.225 -0.162 -0.034
0.225 -0.159 -0.034
0.218 -0.151 -0.033
0.222 -0.151 -0.033
0.218 -0.146 -0.033
0.220 -0.145 -0.033
0.217 -0.141 -0.032
0.213 -0.135 -0.032
0.207 -0.129 -0.031
0.209 -0.128 -0.031
0.214 -0.129 -0.032
0.214 -0.127 -0.032
0.209 -0.121 -0.031
0.204 -0.116 -0.030
0.199 -0.111 -0.029
0.204 -0.112 -0.030
0.213 -0.114 -0.031
0.199 -0.105 -0.029
0.213 -0.110 -0.031
0.206 -0.104 -0.030
0.220 -0.109 -0.032
0.220 -0.107 -0.032
0.222 -0.105 -0.032
0.228 -0.105 -0.033
0.231 -0.105 -0.033
0.229 -0.102 -0.033
0.229 -0.099 -0.033
0.225 -0.095 -0.032
0.218 -0.090 -0.031
0.214 -0.086 -0.030
0.217 -0.085 -0.031
0.219 -0.084 -0.031
0.237 -0.089 -0.034
0.244 -0.089 -0.035
0.239 -0.085 -0.034
0.260 -0.090 -0.037
0.385 -0.111 -0.054
0.390 -0.109 -0.055
0.398 -0.107 -0.056
0.407 -0.106 -0.057
0.415 -0.104 -0.058
0.423 -0.102 -0.059
0.432 -0.100 -0.060
0.425 -0.095 -0.059
0.409 -0.087 -0.057
0.389 -0.080 -0.054
0.383 -0.075 -0.053
0.379 -0.070 -0.053
0.282 -0.050 -0.039
0.283 -0.047 -0.039
0.288 -0.046 -0.040
0.292 -0.044 -0.041
0.291 -0.041 -0.040
0.283 -0.037 -0.039
0.280 -0.034 -0.039
0.286 -0.032 -0.040
0.304 -0.032 -0.042
0.317 -0.030 -0.044
0.297 -0.026 -0.041
0.293 -0.022 -0.041
0.291 -0.020 -0.040
0.304 -0.018 -0.042
0.308 -0.015 -0.043
0.300 -0.012 -0.042
0.302 -0.010 -0.042
0.305 -0.007 -0.042
0.308 -0.004 -0.043
0.310 -0.001 -0.043
0.312 0.001 -0.043
0.314 0.004 -0.043
0.316 0.007 -0.044
0.316 0.010 -0.044
0.317 0.013 -0.044
0.318 0.016 -0.044
0.316 0.018 -0.044
0.316 0.021 -0.044
0.314 0.024 -0.044
0.313 0.027 -0.043
0.313 0.030 -0.043
0.313 0.032 -0.043
0.313 0.035 -0.043
0.314 0.038 -0.044
0.314 0.041 -0.044
0.316 0.044 -0.044
0.321 0.048 -0.045
0.324 0.051 -0.045
0.325 0.055 -0.045
0.324 0.057 -0.045
0.324 0.060 -0.045
0.324 0.063 -0.045
0.323 0.066 -0.045
0.321 0.069 -0.045
0.320 0.071 -0.045
0.320 0.074 -0.045
0.320 0.077 -0.045
0.318 0.080 -0.045
0.317 0.083 -0.045
0.316 0.085 -0.044
0.316 0.088 -0.044
0.328 0.095 -0.046
0.316 0.094 -0.045
0.308 0.095 -0.043
0.307 0.098 -0.043
0.309 0.101 -0.044
0.312 0.105 -0.044
0.305 0.106 -0.043
0.307 0.110 -0.044
0.317 0.116 -0.045
0.328 0.130 -0.047
0.319 0.153 -0.046
0.332 0.170 -0.048
0.239 -0.330 -0.040
0.249 -0.339 -0.042
0.249 -0.335 -0.042
0.252 -0.335 -0.042
0.264 -0.345 -0.044
0.263 -0.340 -0.043
0.264 -0.336 -0.043
0.262 -0.328 -0.043
0.259 -0.321 -0.042
0.203 -0.234 -0.032
0.189 -0.214 -0.030
0.182 -0.202 -0.029
0.192 -0.211 -0.030
0.190 -0.205 -0.030
0.197 -0.210 -0.031
0.284 -0.293 -0.044
0.290 -0.295 -0.044
0.294 -0.295 -0.045
0.296 -0.293 -0.045
0.297 -0.289 -0.045
0.294 -0.282 -0.044
0.293 -0.276 -0.044
0.295 -0.273 -0.044
0.297 -0.271 -0.044
0.296 -0.266 -0.044
0.295 -0.262 -0.044
0.294 -0.257 -0.043
0.296 -0.253 -0.043
0.299 -0.252 -0.044
0.302 -0.251 -0.044
0.307 -0.251 -0.045
0.311 -0.250 -0.045
0.219 -0.170 -0.031
0.211 -0.161 -0.030
0.209 -0.158 -0.030
0.218 -0.162 -0.031
0.224 -0.163 -0.032
0.228 -0.163 -0.032
0.222 -0.156 -0.031
0.228 -0.158 -0.032
0.216 -0.147 -0.030
0.210 -0.140 -0.029
0.202 -0.133 -0.028
0.214 -0.138 -0.030
0.210 -0.133 -0.029
0.206 -0.128 -0.029
0.204 -0.125 -0.028
0.212 -0.127 -0.029
0.214 -0.126 -0.029
0.208 -0.121 -0.029
0.210 -0.119 -0.029
0.206 -0.115 -0.028
0.209 -0.114 -0.028
0.211 -0.113 -0.029
0.211 -0.111 -0.029
0.211 -0.109 -0.029
0.215 -0.108 -0.029
0.216 -0.107 -0.029
0.220 -0.107 -0.030
0.222 -0.105 -0.030
0.226 -0.105 -0.030
0.226 -0.103 -0.030
0.234 -0.104 -0.031
0.227 -0.098 -0.030
0.225 -0.095 -0.030
0.221 -0.091 -0.030
0.220 -0.089 -0.029
0.220 -0.087 -0.029
0.220 -0.084 -0.029
0.239 -0.089 -0.032
0.238 -0.087 -0.031
0.242 -0.086 -0.032
0.245 -0.084 -0.032
0.256 -0.086 -0.034
0.248 -0.081 -0.033
0.256 -0.081 -0.034
0.388 -0.108 -0.051
0.394 -0.106 -0.052
0.408 -0.106 -0.053
0.417 -0.104 -0.054
0.425 -0.103 -0.056
0.434 -0.101 -0.057
0.434 -0.097 -0.057
0.407 -0.087 -0.053
0.391 -0.080 -0.051
0.386 -0.075 -0.050
0.283 -0.050 -0.037
0.283 -0.047 -0.037
0.289 -0.046 -0.038
0.294 -0.044 -0.038
0.290 -0.041 -0.038
0.285 -0.037 -0.037
0.286 -0.035 -0.037
0.291 -0.033 -0.038
0.307 -0.032 -0.040
0.308 -0.029 -0.040
0.305 -0.026 -0.040
0.294 -0.023 -0.038
0.295 -0.020 -0.038
0.302 -0.018 -0.039
0.307 -0.015 -0.040
0.299 -0.012 -0.039
0.301 -0.010 -0.039
0.304 -0.007 -0.039
0.308 -0.004 -0.040
0.311 -0.001 -0.040
0.312 0.001 -0.040
0.314 0.004 -0.041
0.316 0.007 -0.041
0.318 0.010 -0.041
0.317 0.013 -0.041
0.318 0.016 -0.041
0.317 0.018 -0.041
0.314 0.021 -0.041
0.315 0.024 -0.041
0.313 0.027 -0.041
0.312 0.030 -0.041
0.312 0.032 -0.041
0.313 0.035 -0.041
0.314 0.038 -0.041
0.315 0.041 -0.041
0.316 0.044 -0.041
0.320 0.048 -0.042
0.324 0.051 -0.042
0.325 0.055 -0.042
0.324 0.057 -0.042
0.324 0.060 -0.042
0.325 0.063 -0.042
0.325 0.067 -0.043
0.322 0.069 -0.042
0.320 0.071 -0.042
0.320 0.074 -0.042
0.320 0.077 -0.042
0.318 0.080 -0.042
0.317 0.082 -0.042
0.315 0.085 -0.041
0.314 0.088 -0.041
0.331 0.096 -0.044
0.320 0.096 -0.042
0.311 0.096 -0.041
0.313 0.099 -0.041
0.316 0.104 -0.042
0.312 0.105 -0.041
0.304 0.105 -0.040
0.312 0.111 -0.041
0.316 0.122 -0.042
1.203 0.489 -0.161
0.330 0.154 -0.045
0.319 0.152 -0.043
0.345 0.176 -0.047
0.339 0.176 -0.046
0.236 -0.325 -0.037
0.241 -0.328 -0.037
0.244 -0.328 -0.038
0.248 -0.329 -0.038
0.254 -0.332 -0.039
0.261 -0.337 -0.040
0.261 -0.332 -0.040
0.256 -0.321 -0.039
0.182 -0.206 -0.027
0.180 -0.200 -0.026
0.182 -0.200 -0.027
0.190 -0.206 -0.028
0.202 -0.215 -0.029
0.278 -0.288 -0.040
0.288 -0.293 -0.041
0.295 -0.296 -0.042
0.300 -0.296 -0.042
0.301 -0.293 -0.042
0.298 -0.285 -0.042
0.295 -0.278 -0.041
0.298 -0.276 -0.041
0.301 -0.274 -0.042
0.301 -0.270 -0.041
0.299 -0.265 -0.041
0.298 -0.260 -0.041
0.299 -0.256 -0.041
0.299 -0.252 -0.041
0.301 -0.250 -0.041
0.302 -0.246 -0.041
0.302 -0.242 -0.041
0.219 -0.171 -0.029
0.211 -0.162 -0.028
0.210 -0.158 -0.028
0.214 -0.159 -0.028
0.220 -0.160 -0.029
0.221 -0.158 -0.029
0.223 -0.157 -0.029
0.213 -0.148 -0.028
0.216 -0.147 -0.028
0.214 -0.143 -0.028
0.211 -0.139 -0.027
0.210 -0.136 -0.027
0.211 -0.134 -0.027
0.207 -0.129 -0.027
0.212 -0.130 -0.027
0.204 -0.123 -0.026
0.214 -0.126 -0.027
0.212 -0.123 -0.027
0.195 -0.111 -0.025
0.209 -0.116 -0.027
0.209 -0.114 -0.026
0.208 -0.111 -0.026
0.212 -0.111 -0.027
0.204 -0.105 -0.026
0.209 -0.106 -0.026
0.217 -0.107 -0.027
0.218 -0.106 -0.027
0.222 -0.105 -0.028
0.223 -0.103 -0.028
0.229 -0.104 -0.029
0.230 -0.102 -0.029
0.226 -0.098 -0.028
0.225 -0.095 -0.028
0.223 -0.092 -0.028
0.222 -0.090 -0.028
0.221 -0.087 -0.027
0.218 -0.084 -0.027
0.210 -0.079 -0.026
0.238 -0.086 -0.029
0.235 -0.083 -0.029
0.238 -0.082 -0.029
0.240 -0.080 -0.029
0.250 -0.081 -0.031
0.252 -0.080 -0.031
0.255 -0.078 -0.031
0.389 -0.108 -0.047
0.396 -0.107 -0.048
0.403 -0.105 -0.049
0.419 -0.105 -0.051
0.428 -0.103 -0.052
0.435 -0.101 -0.053
0.436 -0.097 -0.053
0.393 -0.084 -0.048
0.396 -0.081 -0.048
0.384 -0.075 -0.047
0.282 -0.050 -0.034
0.283 -0.047 -0.034
0.288 -0.046 -0.035
0.293 -0.044 -0.035
0.288 -0.040 -0.035
0.284 -0.037 -0.034
0.287 -0.035 -0.035
0.297 -0.033 -0.036
0.306 -0.032 -0.037
0.308 -0.029 -0.037
0.303 -0.026 -0.037
0.298 -0.023 -0.036
0.293 -0.020 -0.035
0.304 -0.018 -0.037
0.308 -0.015 -0.037
0.299 -0.012 -0.036
0.301 -0.010 -0.036
0.304 -0.007 -0.037
0.307 -0.004 -0.037
0.310 -0.001 -0.037
0.312 0.001 -0.038
0.314 0.004 -0.038
0.315 0.007 -0.038
0.319 0.010 -0.038
0.316 0.013 -0.038
0.317 0.016 -0.038
0.316 0.018 -0.038
0.315 0.021 -0.038
0.314 0.024 -0.038
0.314 0.027 -0.038
0.312 0.030 -0.038
0.312 0.032 -0.038
0.313 0.035 -0.038
0.314 0.038 -0.038
0.315 0.041 -0.038
0.317 0.044 -0.038
0.319 0.048 -0.039
0.321 0.051 -0.039
0.326 0.055 -0.040
0.325 0.057 -0.039
0.325 0.060 -0.039
0.324 0.063 -0.039
0.323 0.066 -0.039
0.322 0.069 -0.039
0.320 0.071 -0.039
0.320 0.074 -0.039
0.320 0.077 -0.039
0.317 0.080 -0.039
0.316 0.082 -0.039
0.315 0.085 -0.039
0.315 0.088 -0.039
0.326 0.094 -0.040
0.317 0.095 -0.039
0.315 0.097 -0.039
0.321 0.102 -0.039
0.319 0.104 -0.039
0.311 0.105 -0.038
0.307 0.107 -0.038
0.316 0.113 -0.039
0.322 0.118 -0.040
0.303 0.117 -0.038
1.220 0.496 -0.152
0.327 0.153 -0.041
0.332 0.159 -0.042
0.227 -0.313 -0.033
0.241 -0.328 -0.035
0.247 -0.331 -0.035
0.250 -0.331 -0.036
0.251 -0.328 -0.036
0.255 -0.329 -0.036
0.254 -0.324 -0.036
0.191 -0.233 -0.027
0.190 -0.228 -0.026
0.183 -0.216 -0.025
0.176 -0.205 -0.024
0.173 -0.199 -0.024
0.178 -0.201 -0.024
0.185 -0.206 -0.025
0.192 -0.210 -0.026
0.208 -0.225 -0.028
0.288 -0.293 -0.038
0.294 -0.294 -0.038
0.298 -0.294 -0.039
0.301 -0.293 -0.039
0.301 -0.288 -0.039
0.298 -0.281 -0.038
0.298 -0.276 -0.038
0.298 -0.272 -0.038
0.301 -0.270 -0.038
0.300 -0.265 -0.038
0.301 -0.262 -0.038
0.301 -0.257 -0.038
0.301 -0.254 -0.038
0.300 -0.249 -0.037
0.300 -0.245 -0.037
0.300 -0.241 -0.037
0.221 -0.172 -0.027
0.212 -0.162 -0.026
0.207 -0.156 -0.025
0.198 -0.146 -0.024
0.215 -0.156 -0.026
0.215 -0.154 -0.026
0.212 -0.149 -0.026
0.209 -0.145 -0.025
0.214 -0.145 -0.026
0.218 -0.146 -0.026
0.218 -0.143 -0.026
0.216 -0.139 -0.026
0.212 -0.134 -0.025
0.212 -0.132 -0.025
0.213 -0.130 -0.025
0.215 -0.129 -0.026
0.215 -0.127 -0.025
0.215 -0.124 -0.025
0.212 -0.120 -0.025
0.201 -0.112 -0.024
0.208 -0.113 -0.024
0.210 -0.113 -0.025
0.205 -0.108 -0.024
0.209 -0.108 -0.024
0.205 -0.103 -0.024
0.214 -0.106 -0.025
0.222 -0.107 -0.026
0.224 -0.106 -0.026
0.225 -0.104 -0.026
0.226 -0.102 -0.026
0.228 -0.101 -0.026
0.232 -0.101 -0.027
0.225 -0.095 -0.026
0.226 -0.093 -0.026
0.226 -0.091 -0.026
0.218 -0.086 -0.025
0.214 -0.082 -0.024
0.220 -0.082 -0.025
0.233 -0.085 -0.027
0.235 -0.083 -0.027
0.236 -0.081 -0.027
0.244 -0.082 -0.028
0.249 -0.081 -0.028
0.253 -0.080 -0.029
0.257 -0.079 -0.029
0.266 -0.079 -0.030
0.271 -0.078 -0.031
0.392 -0.109 -0.044
0.396 -0.106 -0.045
0.403 -0.104 -0.045
0.419 -0.105 -0.047
0.427 -0.103 -0.048
0.436 -0.101 -0.049
0.435 -0.097 -0.049
0.382 -0.081 -0.043
0.371 -0.076 -0.042
0.370 -0.072 -0.041
0.283 -0.050 -0.032
0.285 -0.048 -0.032
0.290 -0.046 -0.032
0.297 -0.044 -0.033
0.285 -0.040 -0.032
0.283 -0.037 -0.032
0.283 -0.034 -0.032
0.293 -0.033 -0.033
0.300 -0.031 -0.033
0.302 -0.029 -0.034
0.302 -0.026 -0.034
0.297 -0.023 -0.033
0.300 -0.020 -0.033
0.306 -0.018 -0.034
0.308 -0.015 -0.034
0.300 -0.012 -0.033
0.301 -0.010 -0.034
0.302 -0.007 -0.034
0.307 -0.004 -0.034
0.310 -0.001 -0.034
0.312 0.001 -0.035
0.314 0.004 -0.035
0.315 0.007 -0.035
0.316 0.010 -0.035
0.316 0.013 -0.035
0.317 0.016 -0.035
0.317 0.018 -0.035
0.315 0.021 -0.035
0.314 0.024 -0.035
0.313 0.027 -0.035
0.313 0.030 -0.035
0.313 0.032 -0.035
0.314 0.035 -0.035
0.314 0.038 -0.035
0.316 0.041 -0.035
0.318 0.045 -0.036
0.319 0.048 -0.036
0.320 0.051 -0.036
0.328 0.055 -0.037
0.324 0.057 -0.036
0.325 0.060 -0.036
0.325 0.063 -0.036
0.323 0.066 -0.036
0.321 0.068 -0.036
0.321 0.072 -0.036
0.320 0.074 -0.036
0.319 0.077 -0.036
0.318 0.080 -0.036
0.316 0.082 -0.036
0.316 0.085 -0.036
0.316 0.088 -0.036
0.320 0.093 -0.036
0.316 0.094 -0.036
0.315 0.097 -0.036
0.318 0.101 -0.036
0.313 0.103 -0.036
0.309 0.104 -0.035
0.307 0.106 -0.035
0.317 0.113 -0.036
0.315 0.118 -0.036
0.301 0.116 -0.035
0.289 0.115 -0.033
0.324 0.152 -0.038
0.338 0.161 -0.039
0.331 0.165 -0.039
0.336 0.201 -0.040
0.337 0.209 -0.040
0.371 0.337 -0.048
0.385 0.362 -0.050
0.384 0.368 -0.050
0.369 0.359 -0.049
0.235 -0.323 -0.031
0.245 -0.333 -0.032
0.247 -0.327 -0.032
0.245 -0.321 -0.032
0.179 -0.214 -0.023
0.177 -0.210 -0.022
0.172 -0.201 -0.022
0.172 -0.197 -0.021
0.181 -0.205 -0.023
0.192 -0.214 -0.024
0.206 -0.226 -0.025
0.217 -0.234 -0.027
0.233 -0.248 -0.028
0.243 -0.255 -0.030
0.281 -0.290 -0.034
0.287 -0.292 -0.035
0.292 -0.292 -0.035
0.293 -0.288 -0.035
0.298 -0.289 -0.035
0.301 -0.288 -0.036
0.302 -0.284 -0.036
0.298 -0.276 -0.035
0.298 -0.272 -0.035
0.299 -0.268 -0.035
0.300 -0.265 -0.035
0.300 -0.261 -0.035
0.301 -0.257 -0.035
0.300 -0.253 -0.035
0.299 -0.248 -0.034
0.301 -0.246 -0.034
0.301 -0.242 -0.034
0.225 -0.175 -0.025
0.213 -0.163 -0.024
0.209 -0.157 -0.024
0.210 -0.156 -0.024
0.204 -0.148 -0.023
0.208 -0.149 -0.023
0.208 -0.147 -0.023
0.208 -0.144 -0.023
0.212 -0.144 -0.023
0.216 -0.144 -0.024
0.214 -0.140 -0.024
0.200 -0.129 -0.022
0.214 -0.135 -0.023
0.213 -0.133 -0.023
0.208 -0.127 -0.023
0.215 -0.129 -0.023
0.214 -0.126 -0.023
0.216 -0.125 -0.023
0.218 -0.124 -0.024
0.204 -0.113 -0.022
0.210 -0.115 -0.023
0.211 -0.113 -0.023
0.211 -0.111 -0.023
0.212 -0.109 -0.023
0.217 -0.109 -0.023
0.217 -0.107 -0.023
0.221 -0.107 -0.023
0.226 -0.107 -0.024
0.225 -0.104 -0.024
0.223 -0.101 -0.024
0.226 -0.100 -0.024
0.221 -0.095 -0.023
0.223 -0.094 -0.023
0.223 -0.092 -0.023
0.223 -0.090 -0.023
0.222 -0.087 -0.023
0.244 -0.089 -0.025
0.241 -0.085 -0.025
0.238 -0.082 -0.025
0.243 -0.081 -0.025
0.244 -0.079 -0.025
0.249 -0.079 -0.026
0.258 -0.079 -0.027
0.264 -0.078 -0.027
0.271 -0.078 -0.028
0.390 -0.109 -0.040
0.395 -0.106 -0.041
0.401 -0.104 -0.041
0.410 -0.102 -0.042
0.426 -0.103 -0.044
0.435 -0.101 -0.045
0.438 -0.097 -0.045
0.369 -0.075 -0.038
0.363 -0.071 -0.037
0.347 -0.064 -0.036
0.283 -0.050 -0.029
0.285 -0.048 -0.029
0.293 -0.046 -0.030
0.298 -0.044 -0.031
0.285 -0.040 -0.029
0.281 -0.037 -0.029
0.282 -0.034 -0.029
0.288 -0.033 -0.030
0.300 -0.031 -0.031
0.301 -0.026 -0.031
0.295 -0.023 -0.030
0.294 -0.020 -0.030
0.303 -0.018 -0.031
0.306 -0.015 -0.031
0.300 -0.012 -0.031
0.301 -0.010 -0.031
0.304 -0.007 -0.031
0.306 -0.004 -0.031
0.309 -0.001 -0.032
0.311 0.001 -0.032
0.315 0.004 -0.032
0.316 0.007 -0.032
0.316 0.010 -0.032
0.317 0.013 -0.032
0.318 0.016 -0.033
0.317 0.018 -0.032
0.316 0.021 -0.032
0.314 0.024 -0.032
0.314 0.027 -0.032
0.314 0.030 -0.032
0.314 0.032 -0.032
0.314 0.035 -0.032
0.315 0.038 -0.032
0.316 0.041 -0.032
0.317 0.044 -0.033
0.319 0.048 -0.033
0.321 0.051 -0.033
0.323 0.054 -0.033
0.324 0.057 -0.033
0.324 0.060 -0.033
0.324 0.063 -0.033
0.322 0.066 -0.033
0.322 0.069 -0.033
0.320 0.071 -0.033
0.320 0.074 -0.033
0.319 0.077 -0.033
0.317 0.080 -0.033
0.316 0.082 -0.033
0.316 0.085 -0.033
0.316 0.088 -0.033
0.323 0.093 -0.034
0.318 0.095 -0.033
0.312 0.096 -0.033
0.310 0.099 -0.032
0.305 0.100 -0.032
0.306 0.103 -0.032
0.310 0.107 -0.033
0.315 0.112 -0.033
0.315 0.121 -0.033
0.337 0.201 -0.037
0.340 0.207 -0.037
0.336 0.209 -0.037
0.336 0.237 -0.038
0.359 0.257 -0.040
0.360 0.267 -0.041
0.371 0.280 -0.042
0.380 0.292 -0.043
0.382 0.314 -0.044
0.378 0.316 -0.044
0.383 0.337 -0.045
0.377 0.337 -0.045
0.363 0.330 -0.043
0.381 0.358 -0.046
0.386 0.369 -0.046
0.382 0.371 -0.046
0.378 0.374 -0.046
0.378 0.379 -0.046
0.371 0.379 -0.046
0.382 0.396 -0.047
0.384 0.405 -0.048
0.379 0.414 -0.048
0.386 0.428 -0.049
0.395 0.515 -0.053
0.256 -0.352 -0.031
0.247 -0.336 -0.030
0.242 -0.324 -0.029
0.239 -0.316 -0.028
0.194 -0.243 -0.023
0.187 -0.231 -0.022
0.186 -0.226 -0.022
0.180 -0.216 -0.021
0.175 -0.206 -0.020
0.175 -0.204 -0.020
0.177 -0.203 -0.020
0.185 -0.209 -0.021
0.236 -0.254 -0.026
0.237 -0.252 -0.026
0.287 -0.296 -0.032
0.288 -0.292 -0.032
0.287 -0.288 -0.031
0.298 -0.293 -0.032
0.292 -0.283 -0.032
0.298 -0.285 -0.032
0.301 -0.283 -0.032
0.300 -0.278 -0.032
0.300 -0.274 -0.032
0.301 -0.270 -0.032
0.300 -0.265 -0.032
0.300 -0.260 -0.032
0.300 -0.257 -0.032
0.301 -0.253 -0.032
0.300 -0.249 -0.031
0.297 -0.242 -0.031
0.297 -0.239 -0.031
0.223 -0.173 -0.023
0.215 -0.165 -0.022
0.214 -0.161 -0.022
0.210 -0.155 -0.021
0.205 -0.149 -0.021
0.204 -0.146 -0.021
0.206 -0.145 -0.021
0.210 -0.145 -0.021
0.212 -0.144 -0.021
0.211 -0.141 -0.021
0.211 -0.138 -0.021
0.214 -0.138 -0.021
0.204 -0.129 -0.020
0.212 -0.132 -0.021
0.215 -0.132 -0.021
0.207 -0.124 -0.020
0.215 -0.127 -0.021
0.215 -0.124 -0.021
0.204 -0.116 -0.020
0.210 -0.117 -0.021
0.199 -0.108 -0.019
0.210 -0.113 -0.021
0.211 -0.111 -0.021
0.201 -0.103 -0.020
0.210 -0.106 -0.020
0.208 -0.103 -0.020
0.217 -0.105 -0.021
0.222 -0.105 -0.022
0.226 -0.105 -0.022
0.219 -0.099 -0.021
0.224 -0.099 -0.022
0.225 -0.097 -0.022
0.216 -0.091 -0.021
0.218 -0.090 -0.021
0.217 -0.087 -0.021
0.214 -0.084 -0.020
0.209 -0.080 -0.020
0.205 -0.076 -0.020
0.242 -0.088 -0.023
0.239 -0.085 -0.023
0.237 -0.082 -0.023
0.241 -0.081 -0.023
0.246 -0.080 -0.023
0.252 -0.080 -0.024
0.254 -0.078 -0.024
0.257 -0.076 -0.024
0.266 -0.076 -0.025
0.386 -0.107 -0.036
0.394 -0.106 -0.037
0.401 -0.104 -0.038
0.406 -0.101 -0.038
0.424 -0.102 -0.040
0.433 -0.100 -0.041
0.434 -0.096 -0.041
0.428 -0.091 -0.040
0.283 -0.050 -0.027
0.283 -0.047 -0.027
0.284 -0.045 -0.027
0.294 -0.044 -0.027
0.285 -0.040 -0.027
0.281 -0.037 -0.026
0.281 -0.034 -0.026
0.286 -0.032 -0.027
0.294 -0.030 -0.027
0.301 -0.029 -0.028
0.301 -0.026 -0.028
0.296 -0.023 -0.028
0.292 -0.020 -0.027
0.295 -0.017 -0.028
0.303 -0.015 -0.028
0.300 -0.012 -0.028
0.301 -0.010 -0.028
0.304 -0.007 -0.028
0.307 -0.004 -0.029
0.310 -0.001 -0.029
0.311 0.001 -0.029
0.314 0.004 -0.029
0.317 0.007 -0.030
0.317 0.010 -0.030
0.321 0.013 -0.030
0.319 0.016 -0.030
0.318 0.019 -0.030
0.317 0.021 -0.030
0.315 0.024 -0.029
0.315 0.027 -0.029
0.315 0.030 -0.029
0.315 0.033 -0.029
0.315 0.035 -0.029
0.316 0.038 -0.030
0.317 0.041 -0.030
0.317 0.044 -0.030
0.320 0.048 -0.030
0.322 0.051 -0.030
0.324 0.054 -0.030
0.324 0.057 -0.030
0.323 0.060 -0.030
0.323 0.063 -0.030
0.322 0.066 -0.030
0.322 0.069 -0.030
0.321 0.071 -0.030
0.321 0.074 -0.030
0.318 0.077 -0.030
0.317 0.079 -0.030
0.316 0.082 -0.030
0.316 0.085 -0.030
0.317 0.088 -0.030
0.322 0.093 -0.031
0.321 0.096 -0.030
0.316 0.097 -0.030
0.312 0.099 -0.030
0.304 0.099 -0.029
0.308 0.104 -0.029
0.307 0.106 -0.029
0.314 0.112 -0.030
0.334 0.132 -0.032
1.286 0.628 -0.126
1.290 0.643 -0.126
1.307 0.796 -0.131
1.319 0.818 -0.132
1.310 0.827 -0.132
1.292 0.847 -0.131
1.300 0.868 -0.132
1.276 0.898 -0.131
0.354 0.322 -0.038
0.373 0.351 -0.041
0.378 0.361 -0.041
0.379 0.368 -0.042
0.378 0.374 -0.042
0.375 0.377 -0.042
0.377 0.384 -0.042
0.383 0.398 -0.043
0.386 0.408 -0.044
0.396 0.425 -0.045
0.390 0.425 -0.044
0.394 0.437 -0.045
0.402 0.515 -0.048
0.408 0.531 -0.049
0.256 -0.353 -0.028
0.246 -0.335 -0.026
0.240 -0.322 -0.026
0.196 -0.248 -0.021
0.188 -0.235 -0.020
0.181 -0.223 -0.019
0.177 -0.216 -0.018
0.175 -0.210 -0.018
0.175 -0.206 -0.018
0.178 -0.207 -0.018
0.185 -0.212 -0.019
0.194 -0.219 -0.020
0.244 -0.267 -0.025
0.236 -0.255 -0.024
0.275 -0.292 -0.028
0.289 -0.302 -0.029
0.289 -0.298 -0.029
0.288 -0.292 -0.028
0.289 -0.289 -0.028
0.291 -0.287 -0.029
0.300 -0.290 -0.029
0.292 -0.279 -0.028
0.293 -0.275 -0.028
0.299 -0.277 -0.029
0.301 -0.274 -0.029
0.302 -0.271 -0.029
0.299 -0.264 -0.029
0.297 -0.258 -0.028
0.300 -0.257 -0.028
0.303 -0.255 -0.029
0.301 -0.249 -0.028
0.297 -0.242 -0.028
0.216 -0.168 -0.020
0.214 -0.164 -0.020
0.214 -0.161 -0.020
0.207 -0.153 -0.019
0.204 -0.149 -0.019
0.204 -0.146 -0.019
0.204 -0.144 -0.019
0.207 -0.143 -0.019
0.210 -0.143 -0.019
0.211 -0.141 -0.019
0.211 -0.138 -0.019
0.213 -0.137 -0.019
0.205 -0.130 -0.018
0.223 -0.139 -0.020
0.215 -0.131 -0.019
0.215 -0.129 -0.019
0.214 -0.126 -0.019
0.214 -0.124 -0.019
0.210 -0.119 -0.019
0.198 -0.110 -0.018
0.209 -0.114 -0.019
0.210 -0.112 -0.019
0.205 -0.108 -0.018
0.206 -0.106 -0.018
0.203 -0.102 -0.018
0.206 -0.101 -0.018
0.214 -0.103 -0.019
0.221 -0.104 -0.019
0.215 -0.099 -0.019
0.225 -0.102 -0.020
0.222 -0.098 -0.019
0.230 -0.099 -0.020
0.224 -0.095 -0.019
0.224 -0.092 -0.019
0.213 -0.086 -0.018
0.213 -0.084 -0.018
0.216 -0.083 -0.019
0.216 -0.081 -0.019
0.227 -0.083 -0.020
0.235 -0.083 -0.020
0.242 -0.083 -0.021
0.249 -0.083 -0.021
0.258 -0.084 -0.022
0.255 -0.080 -0.022
0.252 -0.077 -0.022
0.252 -0.075 -0.022
0.382 -0.106 -0.033
0.391 -0.105 -0.033
0.403 -0.104 -0.034
0.411 -0.103 -0.035
0.412 -0.099 -0.035
0.431 -0.100 -0.037
0.436 -0.097 -0.037
0.421 -0.090 -0.036
0.406 -0.083 -0.034
0.365 -0.071 -0.031
0.370 -0.069 -0.031
0.279 -0.049 -0.024
0.281 -0.047 -0.024
0.286 -0.045 -0.024
0.293 -0.044 -0.025
0.288 -0.040 -0.024
0.281 -0.037 -0.024
0.281 -0.034 -0.024
0.288 -0.032 -0.024
0.295 -0.031 -0.025
0.307 -0.029 -0.026
0.309 -0.026 -0.026
0.299 -0.023 -0.025
0.292 -0.020 -0.025
0.294 -0.017 -0.025
0.302 -0.015 -0.025
0.312 -0.013 -0.026
0.300 -0.010 -0.025
0.303 -0.007 -0.026
0.307 -0.004 -0.026
0.309 -0.001 -0.026
0.311 0.001 -0.026
0.314 0.004 -0.026
0.317 0.007 -0.027
0.318 0.010 -0.027
0.321 0.013 -0.027
0.318 0.016 -0.027
0.319 0.019 -0.027
0.319 0.021 -0.027
0.317 0.024 -0.027
0.317 0.027 -0.027
0.317 0.030 -0.027
0.317 0.033 -0.027
0.317 0.036 -0.027
0.317 0.038 -0.027
0.319 0.042 -0.027
0.319 0.045 -0.027
0.324 0.048 -0.027
0.324 0.051 -0.027
0.323 0.054 -0.027
0.327 0.058 -0.028
0.322 0.060 -0.027
0.321 0.063 -0.027
0.321 0.066 -0.027
0.321 0.068 -0.027
0.322 0.072 -0.027
0.319 0.074 -0.027
0.318 0.077 -0.027
0.317 0.080 -0.027
0.317 0.082 -0.027
0.316 0.085 -0.027
0.316 0.088 -0.027
0.317 0.091 -0.027
0.317 0.094 -0.027
0.319 0.098 -0.027
0.310 0.098 -0.027
0.309 0.101 -0.027
0.312 0.105 -0.027
0.313 0.108 -0.027
0.318 0.113 -0.028
0.323 0.121 -0.028
0.324 0.125 -0.028
1.299 0.634 -0.115
1.295 0.646 -0.115
1.311 0.667 -0.116
1.294 0.686 -0.115
1.281 0.765 -0.116
1.296 0.788 -0.117
1.310 0.812 -0.119
1.303 0.823 -0.118
1.300 0.836 -0.119
1.299 0.851 -0.119
1.302 0.869 -0.119
1.299 0.882 -0.119
1.283 0.887 -0.118
1.290 0.908 -0.119
0.514 0.598 -0.054
0.510 0.603 -0.054
0.502 0.603 -0.053
0.490 0.599 -0.052
0.478 0.594 -0.051
0.281 -0.387 -0.027
0.194 -0.257 -0.018
0.189 -0.247 -0.018
0.185 -0.238 -0.017
0.186 -0.236 -0.017
0.187 -0.233 -0.017
0.172 -0.212 -0.016
0.169 -0.205 -0.016
0.172 -0.206 -0.016
0.175 -0.207 -0.016
0.184 -0.214 -0.017
0.197 -0.225 -0.018
0.275 -0.296 -0.025
0.286 -0.304 -0.026
0.290 -0.303 -0.026
0.290 -0.299 -0.026
0.289 -0.293 -0.025
0.289 -0.289 -0.025
0.296 -0.292 -0.026
0.295 -0.286 -0.026
0.296 -0.282 -0.026
0.296 -0.278 -0.026
0.291 -0.269 -0.025
0.295 -0.268 -0.025
0.296 -0.266 -0.025
0.295 -0.260 -0.025
0.296 -0.257 -0.025
0.301 -0.258 -0.025
0.302 -0.254 -0.025
0.300 -0.249 -0.025
0.296 -0.241 -0.025
0.288 -0.231 -0.024
0.212 -0.164 -0.018
0.209 -0.160 -0.017
0.212 -0.159 -0.017
0.210 -0.155 -0.017
0.205 -0.149 -0.017
0.204 -0.146 -0.017
0.205 -0.144 -0.017
0.205 -0.142 -0.017
0.209 -0.142 -0.017
0.211 -0.141 -0.017
0.215 -0.141 -0.017
0.214 -0.138 -0.017
0.208 -0.132 -0.017
0.208 -0.129 -0.017
0.209 -0.127 -0.017
0.214 -0.128 -0.017
0.214 -0.126 -0.017
0.216 -0.125 -0.017
0.215 -0.122 -0.017
0.205 -0.114 -0.016
0.209 -0.114 -0.017
0.212 -0.113 -0.017
0.213 -0.112 -0.017
0.214 -0.110 -0.017
0.217 -0.109 -0.017
0.216 -0.107 -0.017
0.221 -0.107 -0.017
0.222 -0.105 -0.017
0.222 -0.103 -0.017
0.222 -0.100 -0.017
0.226 -0.100 -0.018
0.220 -0.095 -0.017
0.233 -0.098 -0.018
0.220 -0.091 -0.017
0.218 -0.088 -0.017
0.214 -0.084 -0.016
0.209 -0.080 -0.016
0.220 -0.082 -0.017
0.227 -0.083 -0.017
0.237 -0.084 -0.018
0.245 -0.084 -0.019
0.261 -0.087 -0.020
0.257 -0.084 -0.020
0.251 -0.079 -0.019
0.250 -0.077 -0.019
0.267 -0.079 -0.020
0.381 -0.106 -0.029
0.391 -0.105 -0.030
0.408 -0.106 -0.031
0.410 -0.102 -0.031
0.419 -0.101 -0.032
0.429 -0.099 -0.033
0.432 -0.096 -0.033
0.419 -0.089 -0.032
0.389 -0.079 -0.029
0.375 -0.073 -0.028
0.359 -0.067 -0.027
0.279 -0.049 -0.021
0.281 -0.047 -0.021
0.286 -0.045 -0.022
0.292 -0.043 -0.022
0.288 -0.040 -0.022
0.283 -0.037 -0.021
0.282 -0.034 -0.021
0.289 -0.033 -0.022
0.297 -0.031 -0.022
0.311 -0.029 -0.023
0.310 -0.027 -0.023
0.298 -0.023 -0.022
0.289 -0.020 -0.022
0.293 -0.017 -0.022
0.303 -0.015 -0.023
0.308 -0.013 -0.023
0.298 -0.009 -0.022
0.301 -0.007 -0.023
0.304 -0.004 -0.023
0.306 -0.001 -0.023
0.311 0.001 -0.023
0.312 0.004 -0.024
0.316 0.007 -0.024
0.317 0.010 -0.024
0.317 0.013 -0.024
0.323 0.016 -0.024
0.319 0.019 -0.024
0.319 0.021 -0.024
0.319 0.024 -0.024
0.319 0.027 -0.024
0.319 0.030 -0.024
0.319 0.033 -0.024
0.318 0.036 -0.024
0.319 0.039 -0.024
0.320 0.042 -0.024
0.324 0.045 -0.024
0.324 0.048 -0.025
0.324 0.051 -0.025
0.323 0.054 -0.025
0.322 0.057 -0.024
0.321 0.060 -0.024
0.321 0.063 -0.024
0.321 0.065 -0.024
0.321 0.068 -0.024
0.321 0.071 -0.024
0.319 0.074 -0.024
0.318 0.077 -0.024
0.318 0.080 -0.024
0.317 0.082 -0.024
0.316 0.085 -0.024
0.315 0.088 -0.024
0.314 0.091 -0.024
0.310 0.092 -0.024
0.309 0.095 -0.024
0.318 0.101 -0.024
0.309 0.101 -0.024
0.315 0.106 -0.024
0.322 0.112 -0.025
0.332 0.118 -0.026
0.323 0.118 -0.025
0.315 0.118 -0.024
0.329 0.127 -0.026
0.332 0.131 -0.026
1.297 0.660 -0.103
1.310 0.680 -0.104
1.283 0.766 -0.103
1.295 0.788 -0.105
1.297 0.804 -0.105
1.303 0.869 -0.107
1.289 0.875 -0.106
1.295 0.895 -0.106
1.294 0.910 -0.107
1.291 0.924 -0.107
1.308 1.004 -0.110
0.507 0.590 -0.047
0.510 0.603 -0.048
0.505 0.607 -0.048
0.492 0.600 -0.047
0.480 0.595 -0.046
0.383 0.499 -0.037
0.242 -0.333 -0.020
0.181 -0.237 -0.015
0.176 -0.227 -0.015
0.175 -0.222 -0.014
0.173 -0.217 -0.014
0.166 -0.205 -0.014
0.169 -0.205 -0.014
0.175 -0.209 -0.014
0.182 -0.215 -0.015
0.224 -0.257 -0.018
0.275 -0.301 -0.022
0.275 -0.297 -0.022
0.280 -0.298 -0.022
0.288 -0.301 -0.022
0.287 -0.296 -0.022
0.287 -0.292 -0.022
0.292 -0.291 -0.022
0.295 -0.290 -0.023
0.294 -0.285 -0.022
0.300 -0.286 -0.023
0.299 -0.281 -0.023
0.292 -0.270 -0.022
0.290 -0.264 -0.022
0.292 -0.262 -0.022
0.294 -0.259 -0.022
0.297 -0.258 -0.022
0.299 -0.256 -0.022
0.298 -0.250 -0.022
0.297 -0.246 -0.022
0.292 -0.238 -0.021
0.281 -0.226 -0.021
0.224 -0.176 -0.016
0.215 -0.167 -0.016
0.209 -0.160 -0.015
0.211 -0.159 -0.015
0.211 -0.156 -0.015
0.210 -0.152 -0.015
0.206 -0.147 -0.015
0.207 -0.145 -0.015
0.208 -0.144 -0.015
0.209 -0.142 -0.015
0.211 -0.141 -0.015
0.214 -0.141 -0.015
0.216 -0.139 -0.015
0.215 -0.136 -0.015
0.208 -0.130 -0.015
0.214 -0.130 -0.015
0.211 -0.127 -0.015
0.213 -0.125 -0.015
0.217 -0.125 -0.015
0.215 -0.122 -0.015
0.206 -0.114 -0.014
0.202 -0.110 -0.014
0.211 -0.113 -0.015
0.215 -0.113 -0.015
0.201 -0.103 -0.014
0.207 -0.104 -0.014
0.208 -0.103 -0.014
0.211 -0.102 -0.015
0.221 -0.104 -0.015
0.224 -0.103 -0.015
0.224 -0.101 -0.015
0.226 -0.100 -0.015
0.224 -0.097 -0.015
0.230 -0.097 -0.016
0.230 -0.095 -0.016
0.217 -0.087 -0.015
0.213 -0.084 -0.014
0.208 -0.080 -0.014
0.214 -0.080 -0.014
0.227 -0.082 -0.015
0.235 -0.083 -0.016
0.242 -0.083 -0.016
0.248 -0.083 -0.017
0.259 -0.084 -0.017
0.253 -0.080 -0.017
0.260 -0.079 -0.017
0.272 -0.081 -0.018
0.283 -0.081 -0.019
0.400 -0.107 -0.027
0.406 -0.105 -0.027
0.414 -0.103 -0.028
0.422 -0.102 -0.028
0.429 -0.099 -0.029
0.429 -0.095 -0.029
0.380 -0.077 -0.025
0.377 -0.073 -0.025
0.365 -0.068 -0.024
0.284 -0.050 -0.019
0.283 -0.047 -0.019
0.283 -0.045 -0.019
0.286 -0.043 -0.019
0.289 -0.040 -0.019
0.286 -0.037 -0.019
0.279 -0.034 -0.019
0.291 -0.033 -0.019
0.298 -0.031 -0.020
0.313 -0.030 -0.021
0.313 -0.027 -0.021
0.298 -0.023 -0.020
0.295 -0.020 -0.020
0.293 -0.017 -0.019
0.297 -0.015 -0.020
0.307 -0.012 -0.020
0.302 -0.010 -0.020
0.300 -0.007 -0.020
0.302 -0.004 -0.020
0.305 -0.001 -0.020
0.307 0.001 -0.020
0.311 0.004 -0.021
0.313 0.007 -0.021
0.316 0.010 -0.021
0.319 0.013 -0.021
0.319 0.016 -0.021
0.321 0.019 -0.021
0.320 0.021 -0.021
0.320 0.024 -0.021
0.320 0.027 -0.021
0.320 0.030 -0.021
0.320 0.033 -0.021
0.320 0.036 -0.021
0.320 0.039 -0.021
0.320 0.042 -0.021
0.323 0.045 -0.022
0.324 0.048 -0.022
0.323 0.051 -0.022
0.325 0.054 -0.022
0.321 0.057 -0.021
0.321 0.060 -0.021
0.321 0.063 -0.021
0.321 0.065 -0.021
0.321 0.068 -0.021
0.319 0.071 -0.021
0.318 0.074 -0.021
0.318 0.077 -0.021
0.317 0.080 -0.021
0.317 0.082 -0.021
0.314 0.085 -0.021
0.320 0.089 -0.022
0.316 0.091 -0.021
0.315 0.094 -0.021
0.327 0.100 -0.022
0.312 0.099 -0.021
0.303 0.099 -0.021
0.313 0.105 -0.021
0.330 0.114 -0.022
0.341 0.121 -0.023
0.346 0.127 -0.024
0.315 0.122 -0.022
0.326 0.129 -0.022
1.299 0.633 -0.090
1.279 0.637 -0.089
1.287 0.655 -0.090
1.285 0.767 -0.091
1.293 0.801 -0.092
0.512 0.595 -0.042
0.512 0.605 -0.042
0.507 0.608 -0.042
0.409 0.524 -0.034
0.402 0.522 -0.034
0.193 -0.266 -0.014
0.194 -0.261 -0.014
0.193 -0.256 -0.014
0.180 -0.235 -0.013
0.172 -0.222 -0.012
0.169 -0.215 -0.012
0.167 -0.209 -0.012
0.168 -0.208 -0.012
0.185 -0.225 -0.013
0.191 -0.229 -0.013
0.223 -0.259 -0.015
0.234 -0.268 -0.016
0.264 -0.294 -0.018
0.267 -0.292 -0.018
0.271 -0.293 -0.018
0.276 -0.293 -0.019
0.281 -0.294 -0.019
0.281 -0.290 -0.019
0.283 -0.287 -0.019
0.288 -0.288 -0.019
0.290 -0.285 -0.019
0.288 -0.279 -0.019
0.294 -0.280 -0.019
0.298 -0.280 -0.019
0.295 -0.273 -0.019
0.290 -0.264 -0.019
0.288 -0.258 -0.019
0.292 -0.257 -0.019
0.294 -0.255 -0.019
0.295 -0.252 -0.019
0.294 -0.248 -0.019
0.294 -0.244 -0.019
0.212 -0.165 -0.013
0.209 -0.160 -0.013
0.207 -0.156 -0.013
0.212 -0.157 -0.013
0.210 -0.152 -0.013
0.207 -0.148 -0.013
0.204 -0.143 -0.013
0.208 -0.143 -0.013
0.206 -0.140 -0.013
0.209 -0.140 -0.013
0.213 -0.140 -0.013
0.217 -0.140 -0.013
0.216 -0.136 -0.013
0.212 -0.132 -0.013
0.216 -0.132 -0.013
0.220 -0.132 -0.013
0.217 -0.128 -0.013
0.214 -0.124 -0.013
0.213 -0.121 -0.013
0.212 -0.118 -0.013
0.212 -0.115 -0.013
0.208 -0.111 -0.012
0.213 -0.111 -0.013
0.213 -0.109 -0.013
0.202 -0.102 -0.012
0.207 -0.102 -0.012
0.209 -0.101 -0.012
0.215 -0.101 -0.013
0.218 -0.101 -0.013
0.220 -0.099 -0.013
0.220 -0.097 -0.013
0.227 -0.098 -0.013
0.229 -0.097 -0.014
0.228 -0.094 -0.013
0.216 -0.087 -0.013
0.210 -0.082 -0.012
0.212 -0.081 -0.012
0.212 -0.079 -0.012
0.221 -0.080 -0.013
0.233 -0.082 -0.014
0.241 -0.083 -0.014
0.246 -0.082 -0.014
0.254 -0.083 -0.015
0.262 -0.083 -0.015
0.261 -0.080 -0.015
0.266 -0.079 -0.015
0.270 -0.078 -0.016
0.395 -0.106 -0.023
0.403 -0.104 -0.023
0.411 -0.103 -0.024
0.420 -0.101 -0.024
0.429 -0.099 -0.025
0.427 -0.095 -0.025
0.413 -0.088 -0.024
0.292 -0.052 -0.017
0.287 -0.048 -0.017
0.282 -0.045 -0.016
0.285 -0.042 -0.016
0.289 -0.040 -0.017
0.287 -0.038 -0.016
0.277 -0.034 -0.016
0.290 -0.033 -0.017
0.292 -0.030 -0.017
0.298 -0.028 -0.017
0.305 -0.026 -0.018
0.305 -0.023 -0.017
0.298 -0.020 -0.017
0.293 -0.017 -0.017
0.294 -0.015 -0.017
0.304 -0.012 -0.017
0.308 -0.010 -0.018
0.301 -0.007 -0.017
0.302 -0.004 -0.017
0.304 -0.001 -0.017
0.306 0.001 -0.018
0.309 0.004 -0.018
0.313 0.007 -0.018
0.315 0.010 -0.018
0.317 0.013 -0.018
0.318 0.016 -0.018
0.319 0.019 -0.018
0.323 0.022 -0.019
0.317 0.024 -0.018
0.319 0.027 -0.018
0.320 0.030 -0.018
0.321 0.033 -0.018
0.321 0.036 -0.018
0.322 0.039 -0.019
0.323 0.042 -0.019
0.322 0.045 -0.019
0.322 0.048 -0.019
0.326 0.051 -0.019
0.321 0.054 -0.018
0.321 0.057 -0.019
0.321 0.060 -0.019
0.321 0.063 -0.019
0.320 0.065 -0.019
0.319 0.068 -0.018
0.317 0.071 -0.018
0.317 0.073 -0.018
0.317 0.076 -0.018
0.317 0.079 -0.018
0.314 0.082 -0.018
0.311 0.084 -0.018
0.321 0.090 -0.019
0.321 0.093 -0.019
0.320 0.095 -0.019
0.321 0.099 -0.019
0.304 0.096 -0.018
0.304 0.099 -0.018
0.311 0.105 -0.018
0.347 0.130 -0.020
0.312 0.120 -0.018
0.304 0.120 -0.018
1.298 0.789 -0.079
0.392 0.427 -0.027
0.386 0.427 -0.027
0.511 0.594 -0.036
0.511 0.604 -0.036
0.507 0.608 -0.036
0.494 0.603 -0.035
0.382 0.496 -0.028
0.190 -0.261 -0.011
0.189 -0.257 -0.011
0.186 -0.249 -0.011
0.176 -0.233 -0.010
0.172 -0.224 -0.010
0.171 -0.219 -0.010
0.168 -0.213 -0.010
0.170 -0.212 -0.010
0.179 -0.221 -0.010
0.192 -0.233 -0.011
0.199 -0.239 -0.012
0.215 -0.253 -0.012
0.223 -0.259 -0.013
0.234 -0.267 -0.013
0.249 -0.281 -0.014
0.258 -0.287 -0.015
0.264 -0.289 -0.015
0.265 -0.286 -0.015
0.271 -0.288 -0.015
0.273 -0.285 -0.015
0.269 -0.277 -0.015
0.280 -0.284 -0.016
0.282 -0.282 -0.016
0.277 -0.268 -0.015
0.291 -0.273 -0.016
0.293 -0.271 -0.016
0.280 -0.255 -0.015
0.279 -0.250 -0.015
0.279 -0.246 -0.015
0.282 -0.245 -0.015
0.282 -0.241 -0.015
0.288 -0.242 -0.015
0.282 -0.234 -0.015
0.278 -0.227 -0.015
0.267 -0.214 -0.014
0.225 -0.178 -0.012
0.217 -0.168 -0.011
0.206 -0.157 -0.011
0.208 -0.156 -0.011
0.211 -0.156 -0.011
0.213 -0.155 -0.011
0.210 -0.150 -0.011
0.206 -0.145 -0.011
0.200 -0.138 -0.010
0.206 -0.140 -0.011
0.205 -0.137 -0.011
0.217 -0.142 -0.011
0.218 -0.140 -0.011
0.217 -0.137 -0.011
0.211 -0.131 -0.011
0.210 -0.128 -0.011
0.219 -0.132 -0.011
0.217 -0.127 -0.011
0.211 -0.122 -0.011
0.212 -0.120 -0.011
0.212 -0.118 -0.011
0.209 -0.114 -0.011
0.210 -0.112 -0.011
0.211 -0.111 -0.011
0.213 -0.109 -0.011
0.215 -0.108 -0.011
0.215 -0.106 -0.011
0.211 -0.102 -0.011
0.213 -0.101 -0.011
0.217 -0.100 -0.011
0.220 -0.099 -0.011
0.223 -0.098 -0.011
0.229 -0.099 -0.011
0.227 -0.096 -0.011
0.216 -0.089 -0.011
0.214 -0.086 -0.011
0.211 -0.083 -0.010
0.207 -0.079 -0.010
0.209 -0.078 -0.010
0.223 -0.081 -0.011
0.236 -0.083 -0.012
0.243 -0.084 -0.012
0.249 -0.083 -0.012
0.254 -0.083 -0.012
0.258 -0.081 -0.013
0.258 -0.079 -0.013
0.253 -0.075 -0.012
0.266 -0.076 -0.013
0.379 -0.105 -0.019
0.392 -0.105 -0.019
0.399 -0.103 -0.019
0.406 -0.101 -0.020
0.416 -0.100 -0.020
0.425 -0.098 -0.021
0.428 -0.095 -0.021
0.414 -0.088 -0.020
0.390 -0.079 -0.019
0.383 -0.074 -0.019
0.299 -0.053 -0.014
0.284 -0.047 -0.014
0.284 -0.045 -0.014
0.285 -0.042 -0.014
0.290 -0.041 -0.014
0.288 -0.038 -0.014
0.281 -0.034 -0.014
0.283 -0.032 -0.014
0.289 -0.030 -0.014
0.295 -0.028 -0.014
0.297 -0.025 -0.014
0.306 -0.023 -0.015
0.305 -0.021 -0.015
0.297 -0.017 -0.014
0.294 -0.015 -0.014
0.302 -0.012 -0.015
0.308 -0.010 -0.015
0.300 -0.007 -0.014
0.301 -0.004 -0.015
0.303 -0.001 -0.015
0.306 0.001 -0.015
0.309 0.004 -0.015
0.312 0.007 -0.015
0.314 0.010 -0.015
0.315 0.013 -0.015
0.317 0.016 -0.015
0.316 0.018 -0.015
0.316 0.021 -0.015
0.326 0.025 -0.016
0.323 0.028 -0.016
0.320 0.030 -0.016
0.320 0.033 -0.015
0.320 0.036 -0.016
0.322 0.039 -0.016
0.323 0.042 -0.016
0.325 0.045 -0.016
0.322 0.048 -0.016
0.321 0.051 -0.016
0.320 0.054 -0.016
0.320 0.056 -0.016
0.320 0.059 -0.016
0.320 0.062 -0.016
0.320 0.065 -0.016
0.318 0.068 -0.016
0.317 0.071 -0.015
0.317 0.073 -0.015
0.316 0.076 -0.015
0.315 0.079 -0.015
0.314 0.082 -0.015
0.315 0.085 -0.015
0.323 0.090 -0.016
0.323 0.093 -0.016
0.318 0.095 -0.016
0.310 0.095 -0.015
0.310 0.098 -0.015
0.317 0.103 -0.016
0.315 0.106 -0.016
0.318 0.110 -0.016
0.355 0.130 -0.018
0.346 0.130 -0.017
0.322 0.124 -0.016
0.311 0.123 -0.015
0.321 0.199 -0.017
0.328 0.207 -0.017
0.331 0.212 -0.017
0.318 0.208 -0.017
0.314 0.209 -0.016
0.324 0.220 -0.017
0.508 0.590 -0.030
0.507 0.599 -0.030
0.506 0.607 -0.030
0.490 0.598 -0.029
0.458 0.595 -0.028
0.191 -0.263 -0.009
0.184 -0.250 -0.009
0.174 -0.233 -0.008
0.170 -0.224 -0.008
0.171 -0.223 -0.008
0.172 -0.221 -0.008
0.172 -0.218 -0.008
0.178 -0.222 -0.008
0.190 -0.234 -0.009
0.194 -0.236 -0.009
0.200 -0.240 -0.009
0.209 -0.246 -0.010
0.216 -0.251 -0.010
0.224 -0.257 -0.010
0.223 -0.230 -0.010
0.273 -0.234 -0.012
0.268 -0.218 -0.012
0.267 -0.214 -0.011
0.231 -0.183 -0.010
0.221 -0.171 -0.009
0.211 -0.161 -0.009
0.207 -0.155 -0.009
0.208 -0.154 -0.009
0.208 -0.151 -0.009
0.212 -0.151 -0.009
0.207 -0.146 -0.009
0.207 -0.143 -0.009
0.206 -0.140 -0.009
0.207 -0.138 -0.009
0.211 -0.138 -0.009
0.227 -0.146 -0.009
0.220 -0.139 -0.009
0.210 -0.130 -0.009
0.210 -0.128 -0.009
0.222 -0.133 -0.009
0.215 -0.127 -0.009
0.214 -0.124 -0.009
0.217 -0.123 -0.009
0.212 -0.118 -0.009
0.208 -0.113 -0.009
0.204 -0.109 -0.008
0.205 -0.107 -0.008
0.207 -0.106 -0.008
0.209 -0.105 -0.009
0.206 -0.101 -0.008
0.206 -0.100 -0.008
0.209 -0.099 -0.008
0.217 -0.100 -0.009
0.220 -0.100 -0.009
0.224 -0.099 -0.009
0.221 -0.095 -0.009
0.231 -0.097 -0.009
0.220 -0.090 -0.009
0.218 -0.088 -0.009
0.215 -0.084 -0.009
0.207 -0.079 -0.008
0.207 -0.077 -0.008
0.227 -0.083 -0.009
0.237 -0.084 -0.009
0.242 -0.083 -0.010
0.246 -0.082 -0.010
0.248 -0.080 -0.010
0.250 -0.079 -0.010
0.251 -0.077 -0.010
0.264 -0.078 -0.010
0.271 -0.078 -0.011
0.385 -0.107 -0.015
0.393 -0.105 -0.016
0.401 -0.104 -0.016
0.407 -0.102 -0.016
0.416 -0.100 -0.016
0.425 -0.098 -0.017
0.422 -0.094 -0.017
0.410 -0.087 -0.016
0.397 -0.081 -0.016
0.362 -0.070 -0.014
0.350 -0.065 -0.014
0.288 -0.051 -0.011
0.287 -0.048 -0.011
0.282 -0.045 -0.011
0.284 -0.042 -0.011
0.288 -0.040 -0.011
0.287 -0.038 -0.011
0.286 -0.035 -0.011
0.281 -0.032 -0.011
0.290 -0.030 -0.011
0.291 -0.028 -0.011
0.300 -0.026 -0.012
0.303 -0.023 -0.012
0.305 -0.021 -0.012
0.294 -0.017 -0.012
0.294 -0.015 -0.012
0.298 -0.012 -0.012
0.305 -0.010 -0.012
0.308 -0.007 -0.012
0.300 -0.004 -0.012
0.303 -0.001 -0.012
0.304 0.001 -0.012
0.308 0.004 -0.012
0.310 0.007 -0.012
0.313 0.010 -0.012
0.314 0.013 -0.012
0.315 0.015 -0.012
0.316 0.018 -0.012
0.316 0.021 -0.012
0.316 0.024 -0.012
0.318 0.027 -0.013
0.320 0.030 -0.013
0.320 0.033 -0.013
0.321 0.036 -0.013
0.322 0.039 -0.013
0.322 0.042 -0.013
0.319 0.045 -0.013
0.321 0.048 -0.013
0.321 0.051 -0.013
0.320 0.053 -0.013
0.319 0.056 -0.013
0.319 0.059 -0.013
0.319 0.062 -0.013
0.319 0.065 -0.013
0.317 0.068 -0.013
0.317 0.070 -0.013
0.317 0.073 -0.013
0.315 0.076 -0.013
0.314 0.079 -0.013
0.313 0.081 -0.012
0.321 0.086 -0.013
0.323 0.090 -0.013
0.324 0.093 -0.013
0.327 0.097 -0.013
0.317 0.097 -0.013
0.316 0.100 -0.013
0.316 0.103 -0.013
0.318 0.107 -0.013
0.305 0.106 -0.012
0.318 0.113 -0.013
0.341 0.125 -0.014
0.342 0.128 -0.014
0.329 0.127 -0.013
0.319 0.126 -0.013
0.325 0.132 -0.013
0.345 0.150 -0.014
0.340 0.169 -0.014
0.344 0.186 -0.014
0.324 0.186 -0.013
0.332 0.194 -0.014
0.330 0.197 -0.014
0.328 0.199 -0.014
0.324 0.200 -0.014
0.321 0.202 -0.013
0.319 0.205 -0.013
0.314 0.206 -0.013
0.311 0.207 -0.013
0.310 0.210 -0.013
0.310 0.214 -0.013
0.310 0.218 -0.013
0.305 0.218 -0.013
0.311 0.226 -0.013
1.328 1.309 -0.060
0.436 0.482 -0.020
0.504 0.576 -0.024
0.506 0.588 -0.024
0.510 0.602 -0.024
0.506 0.607 -0.024
0.490 0.597 -0.023
0.418 0.535 -0.020
0.438 0.570 -0.021
0.193 -0.266 -0.007
0.176 -0.238 -0.006
0.167 -0.223 -0.006
0.169 -0.223 -0.006
0.171 -0.223 -0.006
0.179 -0.230 -0.006
0.182 -0.231 -0.006
0.188 -0.236 -0.007
0.192 -0.237 -0.007
0.195 -0.237 -0.007
0.198 -0.236 -0.007
0.193 -0.228 -0.007
0.194 -0.225 -0.007
0.196 -0.224 -0.007
0.198 -0.224 -0.007
0.201 -0.223 -0.007
0.204 -0.223 -0.007
0.205 -0.221 -0.007
0.207 -0.220 -0.007
0.209 -0.219 -0.007
0.212 -0.218 -0.007
0.213 -0.216 -0.007
0.215 -0.215 -0.007
0.219 -0.215 -0.007
0.221 -0.214 -0.007
0.223 -0.212 -0.008
0.225 -0.211 -0.008
0.228 -0.211 -0.008
0.231 -0.210 -0.008
0.233 -0.208 -0.008
0.235 -0.207 -0.008
0.238 -0.207 -0.008
0.242 -0.207 -0.008
0.246 -0.207 -0.008
0.247 -0.205 -0.008
0.249 -0.203 -0.008
0.248 -0.199 -0.008
0.231 -0.182 -0.008
0.221 -0.172 -0.007
0.213 -0.162 -0.007
0.204 -0.153 -0.007
0.201 -0.149 -0.007
0.207 -0.151 -0.007
0.204 -0.146 -0.007
0.209 -0.146 -0.007
0.208 -0.144 -0.007
0.206 -0.140 -0.007
0.204 -0.136 -0.007
0.213 -0.140 -0.007
0.220 -0.142 -0.007
0.218 -0.138 -0.007
0.208 -0.129 -0.007
0.213 -0.130 -0.007
0.224 -0.134 -0.007
0.217 -0.128 -0.007
0.218 -0.126 -0.007
0.222 -0.126 -0.007
0.224 -0.124 -0.007
0.212 -0.115 -0.007
0.209 -0.112 -0.007
0.208 -0.109 -0.007
0.208 -0.107 -0.007
0.207 -0.104 -0.007
0.211 -0.104 -0.007
0.209 -0.101 -0.007
0.207 -0.097 -0.006
0.217 -0.100 -0.007
0.219 -0.099 -0.007
0.220 -0.097 -0.007
0.226 -0.098 -0.007
0.218 -0.092 -0.007
0.230 -0.095 -0.007
0.217 -0.087 -0.007
0.218 -0.085 -0.007
0.216 -0.083 -0.007
0.219 -0.082 -0.007
0.226 -0.082 -0.007
0.236 -0.083 -0.007
0.242 -0.083 -0.007
0.243 -0.081 -0.007
0.246 -0.080 -0.008
0.247 -0.078 -0.008
0.258 -0.079 -0.008
0.269 -0.080 -0.008
0.277 -0.080 -0.008
0.388 -0.108 -0.012
0.398 -0.107 -0.012
0.406 -0.105 -0.012
0.411 -0.103 -0.013
0.416 -0.100 -0.013
0.421 -0.097 -0.013
0.422 -0.094 -0.013
0.366 -0.071 -0.011
0.352 -0.065 -0.011
0.288 -0.051 -0.009
0.285 -0.048 -0.009
0.284 -0.045 -0.009
0.284 -0.042 -0.009
0.287 -0.040 -0.009
0.291 -0.038 -0.009
0.289 -0.035 -0.009
0.282 -0.032 -0.009
0.286 -0.030 -0.009
0.291 -0.028 -0.009
0.290 -0.025 -0.009
0.305 -0.023 -0.009
0.294 -0.020 -0.009
0.297 -0.017 -0.009
0.299 -0.015 -0.009
0.296 -0.012 -0.009
0.303 -0.010 -0.009
0.310 -0.007 -0.009
0.301 -0.004 -0.009
0.302 -0.001 -0.009
0.303 0.001 -0.009
0.307 0.004 -0.009
0.308 0.007 -0.009
0.309 0.010 -0.009
0.313 0.013 -0.010
0.315 0.015 -0.010
0.315 0.018 -0.010
0.316 0.021 -0.010
0.317 0.024 -0.010
0.318 0.027 -0.010
0.319 0.030 -0.010
0.320 0.033 -0.010
0.319 0.036 -0.010
0.320 0.039 -0.010
0.318 0.041 -0.010
0.319 0.045 -0.010
0.319 0.047 -0.010
0.320 0.051 -0.010
0.320 0.053 -0.010
0.318 0.056 -0.010
0.318 0.059 -0.010
0.318 0.062 -0.010
0.317 0.065 -0.010
0.316 0.067 -0.010
0.315 0.070 -0.010
0.315 0.073 -0.010
0.315 0.076 -0.010
0.313 0.078 -0.010
0.314 0.082 -0.010
0.322 0.087 -0.010
0.318 0.089 -0.010
0.329 0.095 -0.010
0.335 0.100 -0.010
0.330 0.101 -0.010
0.324 0.103 -0.010
0.319 0.104 -0.010
0.313 0.105 -0.010
0.302 0.104 -0.009
0.303 0.108 -0.009
0.330 0.121 -0.010
0.337 0.126 -0.010
0.325 0.125 -0.010
0.318 0.126 -0.010
0.330 0.134 -0.010
0.359 0.156 -0.011
0.353 0.157 -0.011
0.341 0.177 -0.011
0.339 0.183 -0.011
0.328 0.181 -0.010
0.321 0.180 -0.010
0.322 0.185 -0.010
0.327 0.191 -0.010
0.327 0.195 -0.010
0.324 0.197 -0.010
0.322 0.199 -0.010
0.320 0.202 -0.010
0.318 0.204 -0.010
0.315 0.206 -0.010
0.313 0.208 -0.010
0.310 0.210 -0.010
0.309 0.213 -0.010
0.309 0.217 -0.010
0.307 0.220 -0.010
1.303 1.086 -0.044
1.290 1.094 -0.043
1.304 1.124 -0.044
1.307 1.146 -0.044
0.497 0.559 -0.018
0.498 0.569 -0.018
0.507 0.589 -0.018
0.509 0.601 -0.018
0.502 0.603 -0.018
0.490 0.598 -0.018
0.476 0.590 -0.017
0.439 0.553 -0.016
0.427 0.546 -0.016
0.454 0.590 -0.017
0.163 -0.224 -0.004
0.167 -0.227 -0.004
0.166 -0.223 -0.004
0.167 -0.221 -0.004
0.171 -0.223 -0.004
0.177 -0.228 -0.004
0.190 -0.240 -0.005
0.193 -0.242 -0.005
0.195 -0.241 -0.005
0.197 -0.239 -0.005
0.193 -0.231 -0.005
0.192 -0.227 -0.005
0.194 -0.225 -0.005
0.196 -0.225 -0.005
0.198 -0.224 -0.005
0.201 -0.223 -0.005
0.204 -0.223 -0.005
0.205 -0.221 -0.005
0.207 -0.220 -0.005
0.210 -0.219 -0.005
0.212 -0.218 -0.005
0.214 -0.217 -0.005
0.217 -0.216 -0.005
0.219 -0.216 -0.005
0.221 -0.214 -0.005
0.224 -0.213 -0.005
0.226 -0.212 -0.005
0.229 -0.211 -0.005
0.231 -0.210 -0.005
0.233 -0.209 -0.005
0.236 -0.208 -0.005
0.239 -0.207 -0.005
0.243 -0.207 -0.006
0.246 -0.206 -0.006
0.248 -0.205 -0.006
0.248 -0.202 -0.006
0.246 -0.197 -0.006
0.229 -0.180 -0.005
0.219 -0.170 -0.005
0.213 -0.162 -0.005
0.202 -0.152 -0.005
0.206 -0.152 -0.005
0.210 -0.153 -0.005
0.208 -0.149 -0.005
0.210 -0.148 -0.005
0.210 -0.145 -0.005
0.202 -0.137 -0.005
0.205 -0.137 -0.005
0.208 -0.136 -0.005
0.215 -0.138 -0.005
0.214 -0.135 -0.005
0.214 -0.133 -0.005
0.216 -0.132 -0.005
0.217 -0.130 -0.005
0.214 -0.126 -0.005
0.216 -0.124 -0.005
0.223 -0.126 -0.005
0.221 -0.123 -0.005
0.211 -0.115 -0.005
0.207 -0.111 -0.005
0.208 -0.109 -0.005
0.209 -0.107 -0.005
0.209 -0.105 -0.005
0.211 -0.104 -0.005
0.211 -0.102 -0.005
0.213 -0.101 -0.005
0.215 -0.099 -0.005
0.217 -0.098 -0.005
0.221 -0.098 -0.005
0.224 -0.097 -0.005
0.227 -0.096 -0.005
0.218 -0.090 -0.005
0.219 -0.088 -0.005
0.219 -0.086 -0.005
0.215 -0.082 -0.005
0.209 -0.078 -0.005
0.223 -0.081 -0.005
0.232 -0.082 -0.005
0.239 -0.082 -0.005
0.244 -0.081 -0.005
0.250 -0.081 -0.005
0.257 -0.081 -0.006
0.265 -0.081 -0.006
0.273 -0.081 -0.006
0.290 -0.083 -0.006
0.385 -0.107 -0.008
0.400 -0.107 -0.009
0.406 -0.105 -0.009
0.411 -0.103 -0.009
0.416 -0.100 -0.009
0.423 -0.098 -0.009
0.407 -0.090 -0.009
0.399 -0.085 -0.009
0.390 -0.079 -0.008
0.372 -0.072 -0.008
0.364 -0.067 -0.008
0.287 -0.051 -0.006
0.286 -0.048 -0.006
0.285 -0.045 -0.006
0.285 -0.042 -0.006
0.290 -0.040 -0.006
0.293 -0.038 -0.006
0.291 -0.035 -0.006
0.283 -0.032 -0.006
0.284 -0.029 -0.006
0.286 -0.027 -0.006
0.289 -0.025 -0.006
0.287 -0.022 -0.006
0.293 -0.020 -0.006
0.293 -0.017 -0.006
0.304 -0.015 -0.007
0.300 -0.012 -0.006
0.299 -0.009 -0.006
0.306 -0.007 -0.007
0.316 -0.004 -0.007
0.301 -0.001 -0.006
0.303 0.001 -0.006
0.304 0.004 -0.007
0.307 0.007 -0.007
0.307 0.010 -0.007
0.309 0.012 -0.007
0.311 0.015 -0.007
0.314 0.018 -0.007
0.314 0.021 -0.007
0.316 0.024 -0.007
0.317 0.027 -0.007
0.318 0.030 -0.007
0.318 0.033 -0.007
0.318 0.036 -0.007
0.317 0.038 -0.007
0.317 0.041 -0.007
0.317 0.044 -0.007
0.317 0.047 -0.007
0.317 0.050 -0.007
0.319 0.053 -0.007
0.318 0.056 -0.007
0.318 0.059 -0.007
0.317 0.062 -0.007
0.315 0.064 -0.007
0.314 0.067 -0.007
0.314 0.070 -0.007
0.315 0.073 -0.007
0.314 0.076 -0.007
0.313 0.078 -0.007
0.322 0.084 -0.007
0.318 0.086 -0.007
0.319 0.089 -0.007
0.319 0.092 -0.007
0.334 0.099 -0.007
0.332 0.102 -0.007
0.328 0.104 -0.007
0.326 0.106 -0.007
0.323 0.109 -0.007
0.308 0.107 -0.007
0.327 0.120 -0.007
0.333 0.125 -0.007
0.319 0.123 -0.007
0.325 0.128 -0.007
0.345 0.140 -0.008
0.341 0.142 -0.007
0.368 0.164 -0.008
0.310 0.174 -0.007
0.309 0.177 -0.007
0.328 0.192 -0.007
0.326 0.194 -0.007
0.324 0.197 -0.007
0.322 0.200 -0.007
0.321 0.202 -0.007
0.319 0.205 -0.007
0.317 0.207 -0.007
0.314 0.209 -0.007
0.310 0.210 -0.007
0.309 0.213 -0.007
0.308 0.217 -0.007
0.297 0.213 -0.007
