VERSION .7
FIELDS x y z
SIZE 4 4 4
TYPE F F F
COUNT 1 1 1
WIDTH     2435
HEIGHT 1
VIEWPOINT 0 0 0 1 0 0 0
POINTS     2435
DATA ascii
0.276 -0.328 -0.057
0.277 -0.324 -0.057
0.272 -0.313 -0.056
0.287 -0.321 -0.058
0.286 -0.311 -0.058
0.293 -0.313 -0.058
0.289 -0.305 -0.058
0.298 -0.309 -0.059
0.305 -0.312 -0.060
0.309 -0.310 -0.061
0.305 -0.302 -0.060
0.308 -0.300 -0.060
0.313 -0.301 -0.061
0.315 -0.297 -0.061
0.311 -0.290 -0.060
0.313 -0.287 -0.060
0.315 -0.284 -0.060
0.314 -0.278 -0.060
0.316 -0.276 -0.060
0.317 -0.272 -0.060
0.315 -0.267 -0.059
0.317 -0.264 -0.059
0.317 -0.260 -0.059
0.309 -0.250 -0.057
0.303 -0.241 -0.056
0.303 -0.237 -0.056
0.304 -0.234 -0.056
0.307 -0.232 -0.056
0.298 -0.222 -0.054
0.230 -0.165 -0.042
0.222 -0.157 -0.040
0.220 -0.153 -0.040
0.208 -0.142 -0.037
0.226 -0.152 -0.041
0.228 -0.151 -0.041
0.205 -0.133 -0.037
0.201 -0.128 -0.036
0.206 -0.129 -0.037
0.204 -0.125 -0.036
0.216 -0.130 -0.038
0.220 -0.130 -0.039
0.216 -0.125 -0.038
0.219 -0.125 -0.038
0.224 -0.125 -0.039
0.228 -0.125 -0.040
0.229 -0.123 -0.040
0.229 -0.121 -0.040
0.233 -0.120 -0.041
0.230 -0.116 -0.040
0.228 -0.113 -0.039
0.227 -0.110 -0.039
0.232 -0.110 -0.040
0.237 -0.110 -0.041
0.236 -0.107 -0.041
0.233 -0.103 -0.040
0.230 -0.100 -0.039
0.230 -0.098 -0.039
0.227 -0.094 -0.039
0.222 -0.090 -0.038
0.216 -0.085 -0.037
0.215 -0.083 -0.037
0.228 -0.085 -0.039
0.352 -0.118 -0.060
0.364 -0.119 -0.061
0.370 -0.117 -0.062
0.376 -0.116 -0.063
0.384 -0.114 -0.065
0.389 -0.112 -0.065
0.395 -0.110 -0.066
0.399 -0.108 -0.067
0.407 -0.106 -0.068
0.416 -0.104 -0.070
0.427 -0.103 -0.071
0.433 -0.101 -0.072
0.442 -0.099 -0.074
0.430 -0.092 -0.072
0.388 -0.079 -0.065
0.377 -0.074 -0.063
0.370 -0.069 -0.062
0.290 -0.051 -0.048
0.287 -0.048 -0.048
0.283 -0.045 -0.047
0.297 -0.044 -0.049
0.294 -0.041 -0.049
0.291 -0.038 -0.048
0.293 -0.036 -0.049
0.298 -0.034 -0.049
0.306 -0.032 -0.051
0.305 -0.029 -0.051
0.303 -0.026 -0.050
0.307 -0.024 -0.051
0.312 -0.021 -0.052
0.306 -0.018 -0.051
0.318 -0.016 -0.053
0.299 -0.012 -0.050
0.301 -0.010 -0.050
0.304 -0.007 -0.050
0.308 -0.004 -0.051
0.311 -0.001 -0.052
0.313 0.001 -0.052
0.315 0.004 -0.052
0.317 0.007 -0.053
0.318 0.010 -0.053
0.318 0.013 -0.053
0.318 0.016 -0.053
0.317 0.019 -0.053
0.318 0.021 -0.053
0.317 0.024 -0.053
0.317 0.027 -0.053
0.317 0.030 -0.053
0.318 0.033 -0.053
0.318 0.036 -0.053
0.319 0.039 -0.053
0.319 0.042 -0.053
0.320 0.045 -0.053
0.322 0.048 -0.054
0.321 0.051 -0.053
0.327 0.055 -0.055
0.324 0.057 -0.054
0.324 0.060 -0.054
0.323 0.063 -0.054
0.322 0.066 -0.054
0.321 0.069 -0.054
0.320 0.071 -0.054
0.318 0.074 -0.053
0.318 0.077 -0.053
0.317 0.080 -0.053
0.315 0.082 -0.053
0.315 0.085 -0.053
0.317 0.089 -0.054
0.318 0.092 -0.054
0.315 0.094 -0.053
0.314 0.097 -0.053
0.323 0.103 -0.055
0.319 0.105 -0.054
0.310 0.105 -0.053
0.317 0.110 -0.054
0.318 0.114 -0.054
0.328 0.121 -0.056
0.341 0.157 -0.059
0.340 0.159 -0.059
0.335 0.178 -0.059
0.331 0.187 -0.059
0.324 0.191 -0.058
0.332 0.207 -0.059
0.350 0.239 -0.064
0.361 0.251 -0.066
0.383 0.271 -0.070
0.342 0.255 -0.063
0.329 0.322 -0.065
0.336 0.357 -0.068
0.244 -0.336 -0.050
0.258 -0.352 -0.053
0.260 -0.350 -0.053
0.256 -0.340 -0.052
0.261 -0.343 -0.053
0.264 -0.341 -0.053
0.265 -0.338 -0.053
0.267 -0.335 -0.053
0.272 -0.337 -0.054
0.270 -0.330 -0.053
0.270 -0.325 -0.053
0.269 -0.319 -0.052
0.266 -0.311 -0.052
0.242 -0.279 -0.047
0.285 -0.300 -0.054
0.289 -0.299 -0.054
0.298 -0.304 -0.055
0.302 -0.304 -0.056
0.302 -0.298 -0.056
0.304 -0.296 -0.056
0.310 -0.297 -0.057
0.307 -0.290 -0.056
0.309 -0.287 -0.056
0.310 -0.284 -0.056
0.312 -0.281 -0.056
0.317 -0.281 -0.057
0.314 -0.274 -0.056
0.314 -0.270 -0.056
0.317 -0.268 -0.056
0.318 -0.265 -0.056
0.316 -0.259 -0.056
0.305 -0.246 -0.054
0.295 -0.234 -0.052
0.295 -0.230 -0.051
0.296 -0.227 -0.051
0.221 -0.158 -0.038
0.220 -0.155 -0.038
0.224 -0.155 -0.038
0.225 -0.154 -0.038
0.229 -0.154 -0.039
0.232 -0.153 -0.039
0.224 -0.145 -0.038
0.221 -0.141 -0.037
0.222 -0.139 -0.037
0.222 -0.136 -0.037
0.223 -0.134 -0.037
0.222 -0.131 -0.037
0.222 -0.129 -0.037
0.224 -0.127 -0.037
0.228 -0.127 -0.038
0.230 -0.126 -0.038
0.227 -0.122 -0.037
0.232 -0.122 -0.038
0.230 -0.119 -0.038
0.226 -0.114 -0.037
0.222 -0.110 -0.036
0.221 -0.107 -0.036
0.223 -0.106 -0.036
0.230 -0.107 -0.037
0.232 -0.105 -0.038
0.228 -0.101 -0.037
0.224 -0.097 -0.036
0.225 -0.096 -0.036
0.222 -0.092 -0.036
0.217 -0.088 -0.035
0.215 -0.085 -0.035
0.212 -0.081 -0.034
0.214 -0.080 -0.034
0.277 -0.098 -0.044
0.294 -0.102 -0.047
0.308 -0.103 -0.049
0.363 -0.115 -0.058
0.377 -0.116 -0.060
0.384 -0.114 -0.061
0.390 -0.112 -0.062
0.393 -0.110 -0.062
0.402 -0.108 -0.064
0.409 -0.106 -0.065
0.421 -0.106 -0.067
0.429 -0.103 -0.068
0.440 -0.102 -0.070
0.433 -0.097 -0.068
0.426 -0.091 -0.067
0.387 -0.079 -0.061
0.378 -0.074 -0.060
0.288 -0.051 -0.045
0.285 -0.048 -0.045
0.289 -0.046 -0.045
0.298 -0.045 -0.047
0.292 -0.041 -0.046
0.289 -0.038 -0.045
0.292 -0.036 -0.046
0.300 -0.034 -0.047
0.313 -0.033 -0.049
0.307 -0.029 -0.048
0.305 -0.026 -0.048
0.307 -0.024 -0.048
0.303 -0.021 -0.048
0.322 -0.019 -0.050
0.322 -0.016 -0.050
0.299 -0.012 -0.047
0.302 -0.010 -0.047
0.304 -0.007 -0.048
0.306 -0.004 -0.048
0.309 -0.001 -0.048
0.313 0.001 -0.049
0.315 0.004 -0.049
0.316 0.007 -0.050
0.318 0.010 -0.050
0.320 0.013 -0.050
0.316 0.016 -0.050
0.317 0.019 -0.050
0.316 0.021 -0.050
0.315 0.024 -0.049
0.315 0.027 -0.049
0.315 0.030 -0.050
0.315 0.033 -0.049
0.317 0.036 -0.050
0.318 0.039 -0.050
0.318 0.042 -0.050
0.319 0.045 -0.050
0.323 0.048 -0.051
0.325 0.052 -0.051
0.325 0.055 -0.051
0.325 0.058 -0.051
0.325 0.061 -0.051
0.324 0.063 -0.051
0.322 0.066 -0.051
0.321 0.069 -0.051
0.320 0.072 -0.051
0.319 0.074 -0.051
0.319 0.077 -0.051
0.318 0.080 -0.050
0.316 0.082 -0.050
0.315 0.085 -0.050
0.314 0.088 -0.050
0.331 0.096 -0.053
0.315 0.094 -0.050
0.317 0.098 -0.051
0.323 0.103 -0.052
0.324 0.106 -0.052
0.318 0.108 -0.051
0.315 0.109 -0.051
0.318 0.114 -0.051
0.321 0.118 -0.052
0.333 0.129 -0.054
0.337 0.155 -0.055
0.346 0.162 -0.057
0.324 0.162 -0.053
0.326 0.167 -0.054
0.300 0.261 -0.054
0.236 -0.326 -0.045
0.255 -0.348 -0.049
0.260 -0.350 -0.050
0.262 -0.347 -0.050
0.261 -0.341 -0.049
0.265 -0.342 -0.050
0.263 -0.336 -0.049
0.266 -0.335 -0.050
0.270 -0.334 -0.050
0.275 -0.335 -0.051
0.264 -0.318 -0.049
0.261 -0.309 -0.048
0.231 -0.265 -0.042
0.283 -0.297 -0.050
0.288 -0.298 -0.051
0.298 -0.304 -0.052
0.301 -0.302 -0.052
0.298 -0.295 -0.052
0.302 -0.294 -0.052
0.292 -0.280 -0.050
0.296 -0.280 -0.051
0.301 -0.280 -0.051
0.306 -0.280 -0.052
0.310 -0.279 -0.053
0.312 -0.276 -0.053
0.310 -0.270 -0.052
0.309 -0.266 -0.052
0.313 -0.265 -0.052
0.315 -0.262 -0.052
0.320 -0.262 -0.053
0.315 -0.254 -0.052
0.247 -0.192 -0.040
0.231 -0.174 -0.038
0.234 -0.174 -0.038
0.230 -0.168 -0.037
0.220 -0.158 -0.035
0.219 -0.154 -0.035
0.224 -0.155 -0.036
0.227 -0.155 -0.036
0.230 -0.154 -0.037
0.227 -0.150 -0.036
0.227 -0.147 -0.036
0.224 -0.143 -0.036
0.224 -0.140 -0.035
0.224 -0.138 -0.035
0.222 -0.133 -0.035
0.221 -0.131 -0.035
0.219 -0.127 -0.034
0.220 -0.125 -0.034
0.223 -0.125 -0.035
0.221 -0.121 -0.034
0.224 -0.120 -0.035
0.226 -0.119 -0.035
0.222 -0.114 -0.034
0.219 -0.111 -0.034
0.220 -0.109 -0.034
0.222 -0.108 -0.034
0.224 -0.106 -0.034
0.229 -0.106 -0.035
0.232 -0.105 -0.035
0.221 -0.098 -0.034
0.225 -0.097 -0.034
0.225 -0.095 -0.034
0.222 -0.092 -0.034
0.217 -0.088 -0.033
0.215 -0.085 -0.033
0.217 -0.083 -0.033
0.215 -0.080 -0.032
0.245 -0.089 -0.037
0.280 -0.097 -0.042
0.294 -0.099 -0.044
0.380 -0.113 -0.057
0.388 -0.112 -0.058
0.397 -0.111 -0.059
0.400 -0.108 -0.060
0.411 -0.107 -0.061
0.420 -0.105 -0.063
0.429 -0.103 -0.064
0.432 -0.100 -0.064
0.437 -0.097 -0.065
0.404 -0.086 -0.060
0.389 -0.079 -0.058
0.385 -0.075 -0.057
0.384 -0.071 -0.057
0.286 -0.051 -0.042
0.287 -0.048 -0.042
0.289 -0.046 -0.043
0.297 -0.044 -0.044
0.294 -0.041 -0.043
0.286 -0.037 -0.042
0.287 -0.035 -0.042
0.295 -0.033 -0.044
0.302 -0.031 -0.045
0.303 -0.029 -0.045
0.299 -0.026 -0.044
0.311 -0.024 -0.046
0.298 -0.020 -0.044
0.305 -0.018 -0.045
0.322 -0.016 -0.047
0.299 -0.012 -0.044
0.303 -0.010 -0.045
0.304 -0.007 -0.045
0.306 -0.004 -0.045
0.310 -0.001 -0.046
0.313 0.001 -0.046
0.315 0.004 -0.046
0.317 0.007 -0.047
0.317 0.010 -0.047
0.319 0.013 -0.047
0.317 0.016 -0.047
0.317 0.019 -0.047
0.316 0.021 -0.047
0.315 0.024 -0.046
0.314 0.027 -0.046
0.314 0.030 -0.046
0.314 0.033 -0.046
0.314 0.035 -0.046
0.314 0.038 -0.046
0.316 0.041 -0.047
0.318 0.045 -0.047
0.321 0.048 -0.048
0.324 0.051 -0.048
0.325 0.054 -0.048
0.326 0.058 -0.048
0.325 0.060 -0.048
0.324 0.063 -0.048
0.322 0.066 -0.048
0.322 0.069 -0.048
0.321 0.072 -0.048
0.320 0.074 -0.048
0.319 0.077 -0.048
0.318 0.080 -0.048
0.316 0.083 -0.047
0.314 0.085 -0.047
0.313 0.088 -0.047
0.322 0.093 -0.048
0.318 0.095 -0.048
0.311 0.096 -0.047
0.324 0.103 -0.049
0.326 0.107 -0.049
0.321 0.109 -0.049
0.318 0.110 -0.048
0.314 0.112 -0.048
0.316 0.116 -0.048
0.316 0.119 -0.048
0.325 0.126 -0.049
0.328 0.147 -0.050
0.332 0.152 -0.051
0.335 0.157 -0.052
0.323 0.162 -0.050
0.318 0.169 -0.050
0.241 -0.332 -0.043
0.250 -0.341 -0.045
0.257 -0.346 -0.046
0.258 -0.343 -0.046
0.262 -0.343 -0.047
0.265 -0.342 -0.047
0.269 -0.343 -0.047
0.263 -0.331 -0.046
0.265 -0.328 -0.046
0.265 -0.323 -0.046
0.266 -0.320 -0.046
0.201 -0.217 -0.034
0.206 -0.220 -0.034
0.293 -0.303 -0.048
0.297 -0.303 -0.049
0.302 -0.303 -0.049
0.303 -0.300 -0.049
0.293 -0.285 -0.047
0.301 -0.288 -0.049
0.295 -0.279 -0.047
0.297 -0.276 -0.048
0.300 -0.274 -0.048
0.308 -0.277 -0.049
0.307 -0.272 -0.049
0.305 -0.266 -0.048
0.304 -0.261 -0.048
0.304 -0.257 -0.048
0.308 -0.256 -0.048
0.314 -0.256 -0.049
0.321 -0.258 -0.050
0.244 -0.193 -0.038
0.236 -0.184 -0.036
0.227 -0.174 -0.035
0.225 -0.169 -0.034
0.223 -0.165 -0.034
0.225 -0.164 -0.034
0.221 -0.159 -0.034
0.216 -0.152 -0.033
0.225 -0.156 -0.034
0.224 -0.152 -0.034
0.213 -0.143 -0.032
0.224 -0.147 -0.033
0.220 -0.142 -0.033
0.220 -0.140 -0.033
0.218 -0.136 -0.032
0.214 -0.131 -0.032
0.221 -0.133 -0.033
0.218 -0.129 -0.032
0.206 -0.119 -0.030
0.207 -0.118 -0.030
0.202 -0.113 -0.030
0.207 -0.113 -0.030
0.209 -0.112 -0.030
0.199 -0.104 -0.029
0.211 -0.109 -0.031
0.210 -0.106 -0.030
0.221 -0.109 -0.032
0.224 -0.109 -0.032
0.228 -0.108 -0.033
0.230 -0.107 -0.033
0.231 -0.105 -0.033
0.232 -0.103 -0.033
0.233 -0.101 -0.033
0.231 -0.098 -0.033
0.228 -0.094 -0.033
0.223 -0.090 -0.032
0.220 -0.086 -0.031
0.222 -0.085 -0.032
0.230 -0.086 -0.033
0.236 -0.086 -0.033
0.237 -0.084 -0.034
0.244 -0.084 -0.034
0.281 -0.094 -0.040
0.325 -0.100 -0.046
0.387 -0.111 -0.054
0.395 -0.110 -0.055
0.400 -0.108 -0.056
0.410 -0.106 -0.057
0.411 -0.103 -0.057
0.430 -0.104 -0.060
0.433 -0.100 -0.060
0.428 -0.095 -0.060
0.408 -0.087 -0.057
0.394 -0.080 -0.055
0.394 -0.077 -0.055
0.391 -0.073 -0.054
0.292 -0.052 -0.041
0.284 -0.048 -0.040
0.287 -0.045 -0.040
0.293 -0.044 -0.041
0.292 -0.041 -0.041
0.285 -0.037 -0.040
0.285 -0.035 -0.040
0.293 -0.033 -0.041
0.300 -0.031 -0.042
0.301 -0.029 -0.042
0.302 -0.026 -0.042
0.303 -0.023 -0.042
0.301 -0.020 -0.042
0.305 -0.018 -0.042
0.318 -0.016 -0.044
0.300 -0.012 -0.042
0.300 -0.010 -0.042
0.306 -0.007 -0.042
0.308 -0.004 -0.043
0.311 -0.001 -0.043
0.313 0.001 -0.043
0.314 0.004 -0.044
0.317 0.007 -0.044
0.318 0.010 -0.044
0.318 0.013 -0.044
0.318 0.016 -0.044
0.318 0.019 -0.044
0.316 0.021 -0.044
0.314 0.024 -0.044
0.313 0.027 -0.043
0.313 0.030 -0.043
0.312 0.032 -0.043
0.313 0.035 -0.043
0.314 0.038 -0.044
0.314 0.041 -0.044
0.317 0.044 -0.044
0.320 0.048 -0.045
0.324 0.051 -0.045
0.325 0.054 -0.045
0.323 0.057 -0.045
0.323 0.060 -0.045
0.322 0.063 -0.045
0.322 0.066 -0.045
0.322 0.069 -0.045
0.322 0.072 -0.045
0.320 0.075 -0.045
0.319 0.077 -0.045
0.317 0.080 -0.045
0.316 0.082 -0.044
0.315 0.085 -0.044
0.313 0.088 -0.044
0.325 0.094 -0.046
0.319 0.095 -0.045
0.315 0.097 -0.045
0.320 0.102 -0.045
0.326 0.107 -0.046
0.324 0.109 -0.046
0.318 0.110 -0.045
0.320 0.114 -0.046
0.342 0.132 -0.049
0.338 0.155 -0.049
0.321 0.160 -0.047
0.235 -0.324 -0.039
0.250 -0.340 -0.042
0.254 -0.342 -0.042
0.257 -0.341 -0.043
0.261 -0.342 -0.043
0.266 -0.343 -0.044
0.265 -0.337 -0.044
0.261 -0.327 -0.043
0.256 -0.317 -0.042
0.255 -0.311 -0.041
0.210 -0.248 -0.034
0.179 -0.206 -0.029
0.181 -0.205 -0.029
0.184 -0.205 -0.029
0.185 -0.203 -0.029
0.193 -0.209 -0.030
0.280 -0.289 -0.043
0.293 -0.298 -0.045
0.299 -0.300 -0.046
0.300 -0.296 -0.046
0.300 -0.292 -0.045
0.299 -0.286 -0.045
0.299 -0.281 -0.045
0.296 -0.274 -0.044
0.300 -0.274 -0.045
0.302 -0.272 -0.045
0.305 -0.270 -0.045
0.302 -0.263 -0.044
0.301 -0.258 -0.044
0.303 -0.255 -0.044
0.308 -0.256 -0.045
0.305 -0.249 -0.044
0.299 -0.240 -0.043
0.227 -0.177 -0.033
0.215 -0.165 -0.031
0.206 -0.155 -0.029
0.217 -0.161 -0.031
0.220 -0.160 -0.031
0.221 -0.158 -0.031
0.223 -0.157 -0.031
0.223 -0.155 -0.031
0.215 -0.146 -0.030
0.207 -0.139 -0.029
0.205 -0.135 -0.029
0.214 -0.138 -0.030
0.213 -0.135 -0.030
0.208 -0.130 -0.029
0.205 -0.126 -0.028
0.220 -0.132 -0.030
0.219 -0.129 -0.030
0.213 -0.124 -0.029
0.213 -0.121 -0.029
0.208 -0.116 -0.028
0.216 -0.118 -0.029
0.209 -0.112 -0.028
0.213 -0.112 -0.029
0.217 -0.112 -0.029
0.218 -0.110 -0.029
0.222 -0.110 -0.030
0.225 -0.109 -0.030
0.229 -0.108 -0.031
0.230 -0.107 -0.031
0.228 -0.103 -0.031
0.244 -0.108 -0.033
0.239 -0.103 -0.032
0.235 -0.100 -0.031
0.228 -0.094 -0.030
0.224 -0.090 -0.030
0.222 -0.087 -0.029
0.222 -0.085 -0.029
0.236 -0.088 -0.031
0.233 -0.085 -0.031
0.233 -0.083 -0.031
0.250 -0.086 -0.033
0.251 -0.084 -0.033
0.252 -0.082 -0.033
0.394 -0.110 -0.052
0.400 -0.108 -0.052
0.403 -0.105 -0.053
0.422 -0.106 -0.055
0.431 -0.104 -0.056
0.434 -0.101 -0.057
0.430 -0.096 -0.056
0.417 -0.089 -0.054
0.396 -0.081 -0.052
0.389 -0.076 -0.051
0.387 -0.072 -0.050
0.290 -0.051 -0.038
0.284 -0.048 -0.037
0.284 -0.045 -0.037
0.289 -0.043 -0.038
0.289 -0.040 -0.037
0.286 -0.038 -0.037
0.287 -0.035 -0.037
0.301 -0.034 -0.039
0.318 -0.033 -0.041
0.307 -0.029 -0.040
0.309 -0.026 -0.040
0.302 -0.023 -0.039
0.298 -0.020 -0.039
0.314 -0.018 -0.041
0.324 -0.016 -0.042
0.300 -0.012 -0.039
0.303 -0.010 -0.039
0.307 -0.007 -0.040
0.310 -0.004 -0.040
0.312 -0.001 -0.040
0.313 0.001 -0.040
0.314 0.004 -0.041
0.317 0.007 -0.041
0.318 0.010 -0.041
0.318 0.013 -0.041
0.318 0.016 -0.041
0.318 0.019 -0.041
0.316 0.021 -0.041
0.315 0.024 -0.041
0.313 0.027 -0.041
0.312 0.029 -0.040
0.312 0.032 -0.040
0.314 0.035 -0.041
0.314 0.038 -0.041
0.314 0.041 -0.041
0.315 0.044 -0.041
0.318 0.047 -0.041
0.322 0.051 -0.042
0.324 0.054 -0.042
0.323 0.057 -0.042
0.323 0.060 -0.042
0.323 0.063 -0.042
0.322 0.066 -0.042
0.322 0.069 -0.042
0.321 0.072 -0.042
0.320 0.074 -0.042
0.319 0.077 -0.042
0.317 0.080 -0.042
0.317 0.082 -0.042
0.315 0.085 -0.041
0.314 0.088 -0.041
0.331 0.096 -0.044
0.326 0.098 -0.043
0.322 0.099 -0.043
0.325 0.103 -0.043
0.326 0.107 -0.043
0.321 0.108 -0.043
0.316 0.110 -0.042
0.312 0.111 -0.042
0.325 0.119 -0.043
0.343 0.129 -0.046
0.349 0.135 -0.047
0.345 0.137 -0.046
0.345 0.162 -0.047
0.330 0.165 -0.045
0.319 0.166 -0.044
0.235 -0.324 -0.037
0.255 -0.346 -0.040
0.258 -0.346 -0.040
0.255 -0.338 -0.039
0.260 -0.340 -0.040
0.265 -0.341 -0.041
0.177 -0.203 -0.026
0.176 -0.199 -0.026
0.179 -0.200 -0.026
0.179 -0.196 -0.026
0.198 -0.214 -0.029
0.210 -0.223 -0.030
0.274 -0.283 -0.039
0.287 -0.292 -0.041
0.293 -0.294 -0.042
0.298 -0.294 -0.042
0.300 -0.291 -0.042
0.298 -0.285 -0.042
0.299 -0.282 -0.042
0.301 -0.279 -0.042
0.302 -0.275 -0.042
0.306 -0.275 -0.042
0.301 -0.266 -0.041
0.302 -0.263 -0.041
0.303 -0.259 -0.041
0.308 -0.259 -0.042
0.310 -0.257 -0.042
0.307 -0.251 -0.041
0.298 -0.240 -0.040
0.224 -0.174 -0.030
0.213 -0.163 -0.028
0.215 -0.162 -0.029
0.215 -0.159 -0.028
0.217 -0.158 -0.029
0.221 -0.158 -0.029
0.222 -0.156 -0.029
0.220 -0.152 -0.029
0.215 -0.146 -0.028
0.211 -0.141 -0.027
0.210 -0.138 -0.027
0.212 -0.137 -0.027
0.211 -0.134 -0.027
0.211 -0.131 -0.027
0.212 -0.130 -0.027
0.206 -0.124 -0.026
0.221 -0.131 -0.028
0.219 -0.127 -0.028
0.215 -0.120 -0.027
0.207 -0.113 -0.026
0.207 -0.111 -0.026
0.215 -0.113 -0.027
0.206 -0.106 -0.026
0.216 -0.109 -0.027
0.219 -0.108 -0.028
0.223 -0.108 -0.028
0.226 -0.107 -0.028
0.226 -0.105 -0.028
0.228 -0.103 -0.028
0.236 -0.105 -0.029
0.239 -0.103 -0.030
0.234 -0.099 -0.029
0.222 -0.092 -0.028
0.224 -0.090 -0.028
0.221 -0.087 -0.027
0.215 -0.083 -0.027
0.208 -0.078 -0.026
0.240 -0.087 -0.030
0.240 -0.085 -0.030
0.241 -0.083 -0.030
0.247 -0.083 -0.030
0.253 -0.082 -0.031
0.266 -0.084 -0.033
0.273 -0.084 -0.033
0.395 -0.110 -0.048
0.399 -0.107 -0.049
0.407 -0.106 -0.050
0.417 -0.104 -0.051
0.430 -0.104 -0.052
0.435 -0.101 -0.053
0.434 -0.097 -0.053
0.398 -0.081 -0.048
0.388 -0.076 -0.047
0.286 -0.051 -0.035
0.285 -0.048 -0.034
0.284 -0.045 -0.034
0.287 -0.043 -0.035
0.286 -0.040 -0.035
0.285 -0.037 -0.034
0.286 -0.035 -0.035
0.312 -0.035 -0.038
0.315 -0.033 -0.038
0.318 -0.030 -0.038
0.304 -0.026 -0.037
0.305 -0.023 -0.037
0.300 -0.020 -0.036
0.316 -0.019 -0.038
0.325 -0.016 -0.039
0.301 -0.012 -0.036
0.302 -0.010 -0.036
0.305 -0.007 -0.037
0.309 -0.004 -0.037
0.311 -0.001 -0.037
0.313 0.001 -0.038
0.315 0.004 -0.038
0.319 0.007 -0.038
0.319 0.010 -0.038
0.317 0.013 -0.038
0.317 0.016 -0.038
0.317 0.018 -0.038
0.316 0.021 -0.038
0.315 0.024 -0.038
0.315 0.027 -0.038
0.313 0.030 -0.038
0.312 0.032 -0.038
0.313 0.035 -0.038
0.314 0.038 -0.038
0.314 0.041 -0.038
0.315 0.044 -0.038
0.318 0.047 -0.039
0.320 0.051 -0.039
0.325 0.054 -0.039
0.324 0.057 -0.039
0.325 0.060 -0.039
0.324 0.063 -0.039
0.323 0.066 -0.039
0.322 0.069 -0.039
0.321 0.072 -0.039
0.321 0.074 -0.039
0.319 0.077 -0.039
0.318 0.080 -0.039
0.317 0.083 -0.039
0.316 0.085 -0.039
0.314 0.088 -0.038
0.322 0.093 -0.039
0.331 0.099 -0.041
0.333 0.103 -0.041
0.328 0.104 -0.040
0.327 0.107 -0.040
0.325 0.110 -0.040
0.305 0.106 -0.038
0.310 0.111 -0.038
0.319 0.117 -0.039
0.337 0.130 -0.042
0.340 0.159 -0.043
0.340 0.163 -0.043
0.339 0.169 -0.043
0.265 -0.366 -0.038
0.259 -0.352 -0.037
0.258 -0.347 -0.037
0.256 -0.340 -0.037
0.264 -0.346 -0.038
0.269 -0.347 -0.038
0.208 -0.256 -0.029
0.210 -0.256 -0.029
0.208 -0.249 -0.029
0.177 -0.207 -0.024
0.174 -0.199 -0.024
0.181 -0.205 -0.025
0.187 -0.208 -0.025
0.186 -0.205 -0.025
0.195 -0.210 -0.026
0.289 -0.294 -0.038
0.294 -0.295 -0.039
0.297 -0.293 -0.039
0.300 -0.291 -0.039
0.300 -0.287 -0.039
0.299 -0.282 -0.039
0.303 -0.281 -0.039
0.307 -0.280 -0.039
0.306 -0.275 -0.039
0.303 -0.268 -0.038
0.302 -0.263 -0.038
0.305 -0.261 -0.038
0.308 -0.259 -0.039
0.307 -0.255 -0.038
0.301 -0.246 -0.038
0.295 -0.237 -0.037
0.223 -0.174 -0.028
0.216 -0.165 -0.027
0.210 -0.158 -0.026
0.214 -0.156 -0.026
0.216 -0.155 -0.026
0.218 -0.154 -0.026
0.215 -0.149 -0.026
0.218 -0.148 -0.026
0.218 -0.146 -0.026
0.215 -0.141 -0.026
0.214 -0.138 -0.026
0.216 -0.137 -0.026
0.213 -0.133 -0.025
0.213 -0.130 -0.025
0.216 -0.130 -0.026
0.217 -0.128 -0.026
0.222 -0.128 -0.026
0.216 -0.123 -0.025
0.201 -0.112 -0.024
0.211 -0.115 -0.025
0.214 -0.115 -0.025
0.205 -0.108 -0.024
0.213 -0.110 -0.025
0.206 -0.104 -0.024
0.216 -0.107 -0.025
0.221 -0.107 -0.026
0.224 -0.106 -0.026
0.224 -0.104 -0.026
0.226 -0.103 -0.026
0.231 -0.102 -0.027
0.233 -0.101 -0.027
0.228 -0.097 -0.026
0.229 -0.095 -0.026
0.221 -0.089 -0.025
0.219 -0.086 -0.025
0.214 -0.082 -0.024
0.213 -0.079 -0.024
0.245 -0.087 -0.028
0.245 -0.084 -0.028
0.253 -0.085 -0.029
0.261 -0.085 -0.030
0.255 -0.081 -0.029
0.261 -0.080 -0.030
0.286 -0.085 -0.032
0.288 -0.083 -0.032
0.390 -0.108 -0.044
0.398 -0.107 -0.045
0.407 -0.106 -0.046
0.415 -0.104 -0.047
0.427 -0.103 -0.048
0.433 -0.100 -0.049
0.430 -0.096 -0.048
0.415 -0.088 -0.046
0.392 -0.080 -0.044
0.381 -0.074 -0.043
0.283 -0.050 -0.032
0.283 -0.047 -0.032
0.285 -0.045 -0.032
0.291 -0.043 -0.032
0.284 -0.040 -0.032
0.284 -0.037 -0.032
0.286 -0.035 -0.032
0.293 -0.033 -0.033
0.304 -0.032 -0.034
0.305 -0.029 -0.034
0.311 -0.027 -0.035
0.305 -0.023 -0.034
0.306 -0.021 -0.034
0.307 -0.018 -0.034
0.319 -0.016 -0.036
0.301 -0.012 -0.034
0.302 -0.010 -0.034
0.304 -0.007 -0.034
0.307 -0.004 -0.034
0.310 -0.001 -0.034
0.313 0.001 -0.035
0.315 0.004 -0.035
0.317 0.007 -0.035
0.320 0.010 -0.036
0.317 0.013 -0.035
0.317 0.016 -0.035
0.317 0.018 -0.035
0.316 0.021 -0.035
0.316 0.024 -0.035
0.316 0.027 -0.035
0.314 0.030 -0.035
0.313 0.032 -0.035
0.314 0.035 -0.035
0.314 0.038 -0.035
0.314 0.041 -0.035
0.317 0.044 -0.035
0.319 0.048 -0.036
0.321 0.051 -0.036
0.324 0.054 -0.036
0.326 0.058 -0.037
0.325 0.060 -0.036
0.325 0.063 -0.037
0.324 0.066 -0.036
0.322 0.069 -0.036
0.321 0.072 -0.036
0.321 0.075 -0.036
0.320 0.077 -0.036
0.319 0.080 -0.036
0.317 0.083 -0.036
0.316 0.085 -0.036
0.315 0.088 -0.036
0.323 0.093 -0.037
0.324 0.097 -0.037
0.331 0.102 -0.038
0.336 0.107 -0.038
0.309 0.107 -0.035
0.305 0.109 -0.035
0.333 0.129 -0.038
0.340 0.159 -0.040
0.334 0.160 -0.039
0.345 0.168 -0.040
0.341 0.170 -0.040
0.346 0.207 -0.041
0.352 0.215 -0.042
0.350 0.217 -0.042
0.389 0.348 -0.050
0.379 0.427 -0.052
0.389 0.454 -0.054
0.397 0.518 -0.058
0.251 -0.345 -0.033
0.255 -0.347 -0.034
0.258 -0.346 -0.034
0.260 -0.344 -0.034
0.267 -0.349 -0.035
0.266 -0.342 -0.034
0.200 -0.247 -0.026
0.205 -0.249 -0.026
0.200 -0.239 -0.025
0.180 -0.212 -0.023
0.174 -0.202 -0.022
0.174 -0.200 -0.022
0.182 -0.205 -0.023
0.190 -0.212 -0.024
0.196 -0.215 -0.024
0.197 -0.213 -0.024
0.271 -0.284 -0.033
0.284 -0.293 -0.034
0.292 -0.297 -0.035
0.296 -0.296 -0.036
0.299 -0.295 -0.036
0.302 -0.293 -0.036
0.302 -0.289 -0.036
0.301 -0.283 -0.036
0.302 -0.280 -0.036
0.305 -0.278 -0.036
0.300 -0.270 -0.035
0.302 -0.266 -0.035
0.303 -0.264 -0.035
0.304 -0.261 -0.035
0.304 -0.256 -0.035
0.299 -0.248 -0.034
0.296 -0.242 -0.034
0.297 -0.239 -0.034
0.227 -0.177 -0.026
0.220 -0.168 -0.025
0.219 -0.165 -0.025
0.214 -0.158 -0.024
0.219 -0.157 -0.024
0.216 -0.152 -0.024
0.218 -0.151 -0.024
0.220 -0.149 -0.024
0.223 -0.149 -0.025
0.222 -0.146 -0.024
0.215 -0.136 -0.024
0.213 -0.132 -0.023
0.207 -0.127 -0.023
0.214 -0.128 -0.023
0.215 -0.126 -0.023
0.222 -0.128 -0.024
0.208 -0.118 -0.023
0.207 -0.115 -0.022
0.209 -0.114 -0.023
0.214 -0.114 -0.023
0.219 -0.115 -0.023
0.212 -0.109 -0.023
0.215 -0.108 -0.023
0.217 -0.107 -0.023
0.220 -0.106 -0.023
0.225 -0.107 -0.024
0.226 -0.104 -0.024
0.224 -0.102 -0.024
0.227 -0.100 -0.024
0.227 -0.098 -0.024
0.232 -0.098 -0.024
0.225 -0.093 -0.024
0.224 -0.090 -0.024
0.218 -0.086 -0.023
0.210 -0.080 -0.022
0.246 -0.090 -0.026
0.247 -0.087 -0.026
0.250 -0.086 -0.026
0.259 -0.087 -0.027
0.258 -0.084 -0.027
0.258 -0.082 -0.027
0.265 -0.081 -0.028
0.273 -0.081 -0.028
0.393 -0.109 -0.041
0.397 -0.107 -0.041
0.404 -0.105 -0.042
0.418 -0.105 -0.043
0.425 -0.102 -0.044
0.433 -0.100 -0.045
0.430 -0.095 -0.044
0.412 -0.088 -0.042
0.396 -0.081 -0.041
0.384 -0.075 -0.039
0.281 -0.050 -0.029
0.281 -0.047 -0.029
0.283 -0.045 -0.029
0.290 -0.043 -0.030
0.285 -0.040 -0.029
0.284 -0.037 -0.029
0.285 -0.035 -0.029
0.289 -0.033 -0.030
0.294 -0.031 -0.030
0.302 -0.029 -0.031
0.308 -0.026 -0.031
0.312 -0.024 -0.032
0.300 -0.020 -0.031
0.305 -0.018 -0.031
0.311 -0.015 -0.032
0.303 -0.012 -0.031
0.302 -0.010 -0.031
0.303 -0.007 -0.031
0.306 -0.004 -0.031
0.308 -0.001 -0.032
0.312 0.001 -0.032
0.315 0.004 -0.032
0.317 0.007 -0.032
0.318 0.010 -0.033
0.321 0.013 -0.033
0.318 0.016 -0.033
0.318 0.019 -0.033
0.317 0.021 -0.032
0.316 0.024 -0.032
0.315 0.027 -0.032
0.315 0.030 -0.032
0.314 0.033 -0.032
0.314 0.035 -0.032
0.315 0.038 -0.032
0.316 0.041 -0.032
0.317 0.044 -0.033
0.319 0.048 -0.033
0.322 0.051 -0.033
0.325 0.054 -0.033
0.325 0.057 -0.033
0.325 0.060 -0.034
0.325 0.063 -0.034
0.323 0.066 -0.033
0.322 0.069 -0.033
0.321 0.072 -0.033
0.320 0.074 -0.033
0.320 0.077 -0.033
0.319 0.080 -0.033
0.317 0.083 -0.033
0.316 0.085 -0.033
0.315 0.088 -0.033
0.323 0.093 -0.034
0.319 0.095 -0.033
0.320 0.099 -0.033
0.329 0.104 -0.034
0.333 0.109 -0.035
0.329 0.111 -0.034
0.316 0.109 -0.033
0.324 0.115 -0.034
0.343 0.126 -0.036
0.339 0.128 -0.036
0.342 0.208 -0.038
0.346 0.215 -0.038
0.335 0.212 -0.037
0.362 0.242 -0.040
0.363 0.265 -0.041
0.358 0.266 -0.041
0.366 0.281 -0.042
0.351 0.289 -0.041
0.374 0.329 -0.044
0.376 0.337 -0.045
0.371 0.337 -0.044
0.372 0.344 -0.044
0.380 0.357 -0.046
0.380 0.369 -0.046
0.377 0.372 -0.046
0.377 0.385 -0.046
0.379 0.393 -0.047
0.379 0.399 -0.047
0.380 0.408 -0.047
0.390 0.433 -0.049
0.387 0.436 -0.049
0.391 0.448 -0.050
0.396 0.461 -0.051
0.389 0.498 -0.051
0.389 0.507 -0.052
0.259 -0.356 -0.031
0.251 -0.342 -0.030
0.255 -0.342 -0.030
0.262 -0.347 -0.031
0.195 -0.244 -0.023
0.196 -0.242 -0.023
0.196 -0.239 -0.023
0.186 -0.224 -0.021
0.180 -0.212 -0.021
0.178 -0.207 -0.020
0.178 -0.204 -0.020
0.183 -0.207 -0.021
0.204 -0.227 -0.023
0.208 -0.228 -0.023
0.266 -0.283 -0.030
0.279 -0.292 -0.031
0.289 -0.298 -0.032
0.293 -0.298 -0.032
0.296 -0.296 -0.032
0.299 -0.295 -0.033
0.302 -0.293 -0.033
0.301 -0.288 -0.033
0.300 -0.282 -0.032
0.300 -0.277 -0.032
0.299 -0.273 -0.032
0.299 -0.269 -0.032
0.300 -0.265 -0.032
0.302 -0.263 -0.032
0.304 -0.260 -0.032
0.304 -0.256 -0.032
0.301 -0.250 -0.031
0.298 -0.243 -0.031
0.239 -0.189 -0.025
0.228 -0.177 -0.023
0.222 -0.170 -0.023
0.220 -0.165 -0.023
0.217 -0.161 -0.022
0.207 -0.150 -0.021
0.208 -0.149 -0.021
0.223 -0.157 -0.023
0.213 -0.147 -0.021
0.219 -0.149 -0.022
0.222 -0.149 -0.022
0.222 -0.145 -0.022
0.220 -0.142 -0.022
0.204 -0.129 -0.020
0.210 -0.131 -0.021
0.219 -0.134 -0.022
0.206 -0.123 -0.020
0.216 -0.127 -0.021
0.216 -0.125 -0.021
0.203 -0.115 -0.020
0.207 -0.115 -0.020
0.198 -0.108 -0.019
0.212 -0.113 -0.021
0.215 -0.113 -0.021
0.202 -0.104 -0.020
0.212 -0.107 -0.021
0.207 -0.102 -0.020
0.221 -0.107 -0.021
0.225 -0.106 -0.022
0.226 -0.104 -0.022
0.224 -0.102 -0.022
0.226 -0.100 -0.022
0.231 -0.100 -0.022
0.232 -0.098 -0.022
0.226 -0.093 -0.022
0.215 -0.087 -0.021
0.214 -0.084 -0.020
0.216 -0.083 -0.021
0.213 -0.079 -0.020
0.245 -0.089 -0.023
0.251 -0.089 -0.024
0.248 -0.085 -0.024
0.248 -0.083 -0.024
0.260 -0.085 -0.025
0.266 -0.084 -0.025
0.270 -0.083 -0.026
0.272 -0.081 -0.026
0.276 -0.079 -0.026
0.395 -0.110 -0.037
0.398 -0.107 -0.038
0.404 -0.105 -0.038
0.416 -0.104 -0.039
0.430 -0.104 -0.041
0.433 -0.100 -0.041
0.429 -0.095 -0.040
0.410 -0.087 -0.039
0.394 -0.080 -0.037
0.383 -0.075 -0.036
0.373 -0.069 -0.035
0.283 -0.050 -0.026
0.283 -0.047 -0.027
0.285 -0.045 -0.027
0.293 -0.044 -0.027
0.288 -0.040 -0.027
0.282 -0.037 -0.026
0.284 -0.035 -0.027
0.290 -0.033 -0.027
0.296 -0.031 -0.028
0.299 -0.028 -0.028
0.307 -0.026 -0.029
0.302 -0.023 -0.028
0.304 -0.021 -0.028
0.295 -0.017 -0.028
0.311 -0.015 -0.029
0.308 -0.013 -0.029
0.303 -0.010 -0.028
0.304 -0.007 -0.028
0.306 -0.004 -0.029
0.308 -0.001 -0.029
0.310 0.001 -0.029
0.315 0.004 -0.029
0.316 0.007 -0.030
0.316 0.010 -0.030
0.322 0.013 -0.030
0.319 0.016 -0.030
0.319 0.019 -0.030
0.318 0.021 -0.030
0.316 0.024 -0.030
0.315 0.027 -0.029
0.315 0.030 -0.030
0.316 0.033 -0.030
0.316 0.036 -0.030
0.316 0.038 -0.030
0.318 0.042 -0.030
0.318 0.044 -0.030
0.319 0.048 -0.030
0.322 0.051 -0.030
0.327 0.055 -0.031
0.325 0.057 -0.031
0.324 0.060 -0.030
0.323 0.063 -0.030
0.323 0.066 -0.030
0.323 0.069 -0.030
0.321 0.072 -0.030
0.320 0.074 -0.030
0.319 0.077 -0.030
0.318 0.080 -0.030
0.318 0.083 -0.030
0.316 0.085 -0.030
0.315 0.088 -0.030
0.324 0.094 -0.031
0.319 0.095 -0.030
0.313 0.096 -0.030
0.325 0.103 -0.031
0.333 0.109 -0.032
0.322 0.108 -0.031
0.317 0.110 -0.030
0.339 0.121 -0.032
0.349 0.128 -0.033
1.270 0.593 -0.124
1.268 0.619 -0.124
1.250 0.636 -0.123
1.285 0.668 -0.126
0.991 0.548 -0.098
1.266 0.742 -0.126
1.275 0.761 -0.127
1.281 0.780 -0.128
1.294 0.803 -0.130
1.316 0.847 -0.133
1.306 0.856 -0.132
1.299 0.867 -0.132
1.289 0.876 -0.131
1.277 0.883 -0.130
1.282 0.902 -0.131
0.363 0.335 -0.039
0.370 0.348 -0.040
0.363 0.347 -0.040
0.375 0.364 -0.041
0.366 0.362 -0.041
0.378 0.386 -0.042
0.380 0.394 -0.043
0.386 0.407 -0.044
0.392 0.420 -0.044
0.400 0.436 -0.046
0.394 0.437 -0.045
0.400 0.512 -0.048
0.360 0.468 -0.043
0.238 -0.327 -0.026
0.253 -0.344 -0.027
0.260 -0.349 -0.028
0.196 -0.249 -0.021
0.190 -0.238 -0.020
0.185 -0.228 -0.019
0.176 -0.211 -0.018
0.179 -0.211 -0.018
0.186 -0.216 -0.019
0.188 -0.216 -0.019
0.204 -0.231 -0.021
0.215 -0.239 -0.022
0.277 -0.295 -0.028
0.288 -0.301 -0.029
0.291 -0.300 -0.029
0.291 -0.296 -0.029
0.294 -0.294 -0.029
0.299 -0.295 -0.029
0.299 -0.290 -0.029
0.298 -0.284 -0.029
0.298 -0.280 -0.029
0.299 -0.276 -0.029
0.299 -0.272 -0.029
0.299 -0.268 -0.029
0.300 -0.265 -0.029
0.302 -0.262 -0.029
0.306 -0.262 -0.029
0.307 -0.258 -0.029
0.306 -0.253 -0.029
0.301 -0.246 -0.028
0.225 -0.175 -0.021
0.218 -0.167 -0.020
0.217 -0.163 -0.020
0.208 -0.154 -0.019
0.205 -0.149 -0.019
0.205 -0.146 -0.019
0.207 -0.146 -0.019
0.210 -0.145 -0.019
0.212 -0.144 -0.019
0.222 -0.148 -0.020
0.223 -0.146 -0.020
0.218 -0.141 -0.020
0.205 -0.130 -0.018
0.218 -0.136 -0.020
0.223 -0.136 -0.020
0.222 -0.133 -0.020
0.218 -0.128 -0.019
0.213 -0.123 -0.019
0.214 -0.121 -0.019
0.197 -0.110 -0.017
0.210 -0.115 -0.019
0.213 -0.114 -0.019
0.211 -0.110 -0.019
0.213 -0.109 -0.019
0.203 -0.102 -0.018
0.207 -0.102 -0.018
0.214 -0.104 -0.019
0.223 -0.106 -0.020
0.225 -0.104 -0.020
0.224 -0.101 -0.019
0.229 -0.101 -0.020
0.232 -0.100 -0.020
0.231 -0.098 -0.020
0.237 -0.098 -0.021
0.212 -0.085 -0.018
0.211 -0.083 -0.018
0.213 -0.082 -0.018
0.219 -0.082 -0.019
0.237 -0.086 -0.020
0.245 -0.087 -0.021
0.248 -0.085 -0.021
0.250 -0.084 -0.021
0.255 -0.083 -0.022
0.264 -0.083 -0.023
0.266 -0.081 -0.023
0.270 -0.080 -0.023
0.398 -0.111 -0.034
0.399 -0.107 -0.034
0.405 -0.105 -0.035
0.413 -0.103 -0.035
0.431 -0.104 -0.037
0.431 -0.100 -0.037
0.428 -0.095 -0.036
0.390 -0.080 -0.033
0.376 -0.073 -0.032
0.360 -0.067 -0.030
0.290 -0.051 -0.025
0.290 -0.048 -0.025
0.288 -0.046 -0.024
0.291 -0.043 -0.025
0.292 -0.041 -0.025
0.283 -0.037 -0.024
0.281 -0.034 -0.024
0.294 -0.033 -0.025
0.300 -0.031 -0.025
0.305 -0.029 -0.026
0.299 -0.026 -0.025
0.299 -0.023 -0.025
0.296 -0.020 -0.025
0.311 -0.018 -0.026
0.314 -0.016 -0.027
0.317 -0.013 -0.027
0.301 -0.010 -0.025
0.305 -0.007 -0.026
0.306 -0.004 -0.026
0.308 -0.001 -0.026
0.310 0.001 -0.026
0.314 0.004 -0.026
0.315 0.007 -0.027
0.317 0.010 -0.027
0.323 0.013 -0.027
0.319 0.016 -0.027
0.321 0.019 -0.027
0.319 0.021 -0.027
0.318 0.024 -0.027
0.317 0.027 -0.027
0.317 0.030 -0.027
0.317 0.033 -0.027
0.318 0.036 -0.027
0.319 0.039 -0.027
0.319 0.042 -0.027
0.321 0.045 -0.027
0.322 0.048 -0.027
0.327 0.052 -0.028
0.324 0.054 -0.027
0.328 0.058 -0.028
0.322 0.060 -0.027
0.323 0.063 -0.027
0.323 0.066 -0.027
0.322 0.069 -0.027
0.322 0.072 -0.027
0.320 0.074 -0.027
0.319 0.077 -0.027
0.318 0.080 -0.027
0.316 0.082 -0.027
0.316 0.085 -0.027
0.315 0.088 -0.027
0.323 0.093 -0.028
0.317 0.095 -0.027
0.311 0.096 -0.027
0.318 0.101 -0.027
0.329 0.108 -0.028
0.308 0.104 -0.027
0.310 0.107 -0.027
0.339 0.121 -0.029
0.347 0.127 -0.030
0.330 0.124 -0.029
1.269 0.592 -0.112
1.276 0.609 -0.112
1.274 0.622 -0.113
1.273 0.634 -0.113
1.270 0.646 -0.113
1.281 0.666 -0.114
0.986 0.544 -0.088
1.274 0.746 -0.115
1.288 0.769 -0.116
1.280 0.779 -0.116
1.281 0.794 -0.116
1.303 0.854 -0.119
1.299 0.866 -0.119
1.291 0.877 -0.119
1.285 0.889 -0.118
1.302 0.932 -0.121
1.309 0.954 -0.122
1.299 0.964 -0.121
1.286 0.970 -0.120
1.272 0.976 -0.119
0.505 0.588 -0.053
0.509 0.601 -0.054
0.494 0.594 -0.052
0.488 0.596 -0.052
0.402 0.516 -0.044
0.402 0.523 -0.044
0.241 -0.331 -0.023
0.256 -0.349 -0.025
0.251 -0.336 -0.024
0.199 -0.256 -0.019
0.190 -0.241 -0.018
0.181 -0.227 -0.017
0.174 -0.215 -0.016
0.170 -0.207 -0.016
0.172 -0.206 -0.016
0.176 -0.207 -0.016
0.192 -0.224 -0.018
0.203 -0.233 -0.019
0.209 -0.236 -0.019
0.275 -0.297 -0.025
0.286 -0.304 -0.026
0.292 -0.306 -0.026
0.289 -0.298 -0.026
0.291 -0.296 -0.026
0.294 -0.294 -0.026
0.297 -0.292 -0.026
0.295 -0.286 -0.026
0.291 -0.277 -0.025
0.294 -0.276 -0.025
0.298 -0.276 -0.026
0.299 -0.272 -0.026
0.297 -0.266 -0.025
0.297 -0.263 -0.025
0.304 -0.264 -0.026
0.310 -0.265 -0.026
0.309 -0.260 -0.026
0.306 -0.254 -0.026
0.301 -0.245 -0.025
0.295 -0.237 -0.025
0.206 -0.157 -0.017
0.212 -0.159 -0.017
0.212 -0.157 -0.017
0.208 -0.151 -0.017
0.205 -0.146 -0.017
0.209 -0.147 -0.017
0.208 -0.144 -0.017
0.211 -0.144 -0.017
0.219 -0.146 -0.018
0.223 -0.146 -0.018
0.218 -0.141 -0.018
0.206 -0.130 -0.017
0.208 -0.129 -0.017
0.214 -0.131 -0.017
0.223 -0.134 -0.018
0.216 -0.127 -0.017
0.217 -0.125 -0.017
0.222 -0.126 -0.018
0.207 -0.115 -0.016
0.211 -0.115 -0.017
0.214 -0.114 -0.017
0.213 -0.112 -0.017
0.217 -0.111 -0.017
0.214 -0.108 -0.017
0.213 -0.105 -0.017
0.216 -0.104 -0.017
0.220 -0.104 -0.017
0.223 -0.103 -0.017
0.224 -0.101 -0.017
0.226 -0.100 -0.018
0.227 -0.098 -0.018
0.228 -0.096 -0.018
0.222 -0.091 -0.017
0.218 -0.088 -0.017
0.213 -0.084 -0.016
0.212 -0.081 -0.016
0.218 -0.081 -0.017
0.239 -0.087 -0.018
0.247 -0.087 -0.019
0.247 -0.085 -0.019
0.249 -0.083 -0.019
0.251 -0.082 -0.019
0.251 -0.079 -0.019
0.260 -0.080 -0.020
0.273 -0.081 -0.021
0.395 -0.110 -0.030
0.398 -0.107 -0.030
0.402 -0.104 -0.031
0.414 -0.103 -0.031
0.422 -0.102 -0.032
0.427 -0.099 -0.032
0.428 -0.095 -0.032
0.424 -0.090 -0.032
0.388 -0.079 -0.029
0.375 -0.073 -0.028
0.296 -0.052 -0.022
0.290 -0.048 -0.022
0.289 -0.046 -0.022
0.292 -0.043 -0.022
0.292 -0.041 -0.022
0.285 -0.037 -0.021
0.282 -0.034 -0.021
0.295 -0.033 -0.022
0.300 -0.031 -0.023
0.319 -0.030 -0.024
0.311 -0.027 -0.023
0.305 -0.023 -0.023
0.306 -0.021 -0.023
0.297 -0.017 -0.022
0.315 -0.016 -0.024
0.320 -0.013 -0.024
0.301 -0.010 -0.023
0.302 -0.007 -0.023
0.305 -0.004 -0.023
0.307 -0.001 -0.023
0.312 0.001 -0.023
0.314 0.004 -0.024
0.315 0.007 -0.024
0.316 0.010 -0.024
0.317 0.013 -0.024
0.326 0.016 -0.025
0.319 0.019 -0.024
0.320 0.022 -0.024
0.320 0.024 -0.024
0.319 0.027 -0.024
0.319 0.030 -0.024
0.319 0.033 -0.024
0.319 0.036 -0.024
0.319 0.039 -0.024
0.320 0.042 -0.024
0.321 0.045 -0.024
0.324 0.048 -0.025
0.325 0.051 -0.025
0.323 0.054 -0.024
0.323 0.057 -0.024
0.323 0.060 -0.024
0.322 0.063 -0.024
0.322 0.066 -0.024
0.322 0.069 -0.024
0.321 0.071 -0.024
0.320 0.074 -0.024
0.319 0.077 -0.024
0.318 0.080 -0.024
0.316 0.082 -0.024
0.315 0.085 -0.024
0.317 0.088 -0.024
0.321 0.092 -0.025
0.314 0.093 -0.024
0.308 0.095 -0.024
0.319 0.101 -0.025
0.318 0.104 -0.024
0.311 0.104 -0.024
0.313 0.108 -0.024
0.336 0.120 -0.026
0.329 0.123 -0.025
0.324 0.125 -0.025
0.331 0.131 -0.026
1.271 0.554 -0.099
1.272 0.568 -0.100
1.278 0.583 -0.100
1.278 0.597 -0.100
1.268 0.605 -0.100
1.256 0.626 -0.099
1.257 0.640 -0.099
1.268 0.659 -0.101
0.982 0.553 -0.079
1.288 0.769 -0.104
1.275 0.776 -0.103
1.254 0.777 -0.101
1.289 0.814 -0.105
1.295 0.833 -0.105
1.297 0.849 -0.106
1.297 0.865 -0.106
1.294 0.879 -0.106
1.295 0.895 -0.106
1.298 0.913 -0.107
1.303 0.933 -0.108
1.299 0.946 -0.108
1.300 0.964 -0.108
0.509 0.592 -0.048
0.508 0.601 -0.048
0.501 0.602 -0.047
0.387 0.504 -0.037
0.268 -0.369 -0.022
0.188 -0.252 -0.016
0.186 -0.246 -0.015
0.187 -0.244 -0.015
0.189 -0.243 -0.016
0.183 -0.232 -0.015
0.172 -0.215 -0.014
0.168 -0.208 -0.014
0.169 -0.205 -0.014
0.172 -0.206 -0.014
0.204 -0.237 -0.016
0.209 -0.239 -0.017
0.217 -0.245 -0.017
0.271 -0.297 -0.021
0.285 -0.307 -0.022
0.290 -0.308 -0.023
0.288 -0.301 -0.022
0.289 -0.297 -0.022
0.288 -0.292 -0.022
0.289 -0.289 -0.022
0.292 -0.287 -0.022
0.303 -0.294 -0.023
0.288 -0.275 -0.022
0.288 -0.271 -0.022
0.296 -0.274 -0.022
0.296 -0.270 -0.022
0.289 -0.259 -0.022
0.297 -0.262 -0.022
0.308 -0.267 -0.023
0.309 -0.264 -0.023
0.304 -0.256 -0.022
0.300 -0.248 -0.022
0.298 -0.243 -0.022
0.292 -0.234 -0.021
0.218 -0.169 -0.016
0.206 -0.157 -0.015
0.211 -0.159 -0.015
0.212 -0.157 -0.015
0.211 -0.153 -0.015
0.209 -0.149 -0.015
0.208 -0.146 -0.015
0.212 -0.147 -0.015
0.212 -0.144 -0.015
0.217 -0.145 -0.015
0.222 -0.146 -0.016
0.224 -0.144 -0.016
0.220 -0.139 -0.016
0.208 -0.129 -0.015
0.220 -0.134 -0.015
0.212 -0.127 -0.015
0.216 -0.127 -0.015
0.223 -0.129 -0.016
0.218 -0.124 -0.015
0.203 -0.113 -0.014
0.199 -0.109 -0.014
0.209 -0.112 -0.015
0.213 -0.112 -0.015
0.205 -0.105 -0.014
0.211 -0.106 -0.015
0.207 -0.102 -0.014
0.213 -0.103 -0.015
0.219 -0.103 -0.015
0.223 -0.103 -0.015
0.224 -0.101 -0.015
0.226 -0.100 -0.015
0.224 -0.097 -0.015
0.223 -0.094 -0.015
0.224 -0.092 -0.015
0.221 -0.089 -0.015
0.216 -0.085 -0.015
0.213 -0.082 -0.014
0.217 -0.081 -0.015
0.239 -0.087 -0.016
0.245 -0.087 -0.017
0.246 -0.085 -0.017
0.248 -0.083 -0.017
0.247 -0.080 -0.017
0.252 -0.079 -0.017
0.264 -0.081 -0.018
0.278 -0.082 -0.019
0.290 -0.083 -0.019
0.387 -0.107 -0.026
0.394 -0.106 -0.026
0.401 -0.104 -0.027
0.412 -0.103 -0.028
0.419 -0.101 -0.028
0.425 -0.098 -0.028
0.434 -0.096 -0.029
0.425 -0.090 -0.028
0.399 -0.081 -0.027
0.384 -0.075 -0.026
0.294 -0.052 -0.020
0.287 -0.048 -0.019
0.288 -0.046 -0.019
0.293 -0.044 -0.019
0.294 -0.041 -0.020
0.291 -0.038 -0.019
0.280 -0.034 -0.019
0.294 -0.033 -0.020
0.301 -0.031 -0.020
0.316 -0.030 -0.021
0.316 -0.027 -0.021
0.313 -0.024 -0.021
0.310 -0.021 -0.021
0.299 -0.018 -0.020
0.302 -0.015 -0.020
0.317 -0.013 -0.021
0.302 -0.010 -0.020
0.302 -0.007 -0.020
0.303 -0.004 -0.020
0.306 -0.001 -0.020
0.313 0.001 -0.021
0.314 0.004 -0.021
0.315 0.007 -0.021
0.315 0.010 -0.021
0.316 0.013 -0.021
0.317 0.016 -0.021
0.320 0.019 -0.021
0.320 0.022 -0.021
0.320 0.024 -0.021
0.320 0.027 -0.021
0.320 0.030 -0.021
0.320 0.033 -0.021
0.320 0.036 -0.021
0.320 0.039 -0.021
0.321 0.042 -0.021
0.323 0.045 -0.022
0.325 0.048 -0.022
0.323 0.051 -0.022
0.327 0.055 -0.022
0.322 0.057 -0.021
0.322 0.060 -0.022
0.322 0.063 -0.021
0.321 0.065 -0.021
0.320 0.068 -0.021
0.320 0.071 -0.021
0.319 0.074 -0.021
0.319 0.077 -0.021
0.317 0.079 -0.021
0.315 0.082 -0.021
0.314 0.085 -0.021
0.319 0.089 -0.021
0.322 0.093 -0.022
0.315 0.094 -0.021
0.316 0.097 -0.021
0.323 0.102 -0.022
0.325 0.106 -0.022
0.321 0.108 -0.022
0.323 0.112 -0.022
0.332 0.118 -0.023
0.337 0.123 -0.023
0.335 0.126 -0.023
0.335 0.129 -0.023
0.341 0.135 -0.023
1.263 0.550 -0.087
1.281 0.585 -0.088
1.249 0.635 -0.087
1.289 0.769 -0.091
1.280 0.778 -0.091
1.272 0.788 -0.090
1.289 0.814 -0.092
1.289 0.829 -0.092
1.297 0.849 -0.093
1.300 0.867 -0.093
1.297 0.880 -0.093
0.387 0.422 -0.031
0.511 0.594 -0.042
0.509 0.601 -0.042
0.503 0.604 -0.042
0.384 0.500 -0.033
0.182 -0.245 -0.013
0.179 -0.237 -0.013
0.179 -0.233 -0.013
0.175 -0.226 -0.012
0.171 -0.218 -0.012
0.171 -0.214 -0.012
0.170 -0.210 -0.012
0.173 -0.210 -0.012
0.181 -0.217 -0.013
0.198 -0.233 -0.014
0.210 -0.244 -0.014
0.220 -0.252 -0.015
0.258 -0.291 -0.018
0.267 -0.297 -0.018
0.276 -0.302 -0.019
0.281 -0.303 -0.019
0.284 -0.302 -0.019
0.284 -0.297 -0.019
0.282 -0.290 -0.019
0.284 -0.288 -0.019
0.282 -0.281 -0.019
0.283 -0.278 -0.019
0.291 -0.282 -0.019
0.283 -0.270 -0.019
0.287 -0.270 -0.019
0.294 -0.272 -0.019
0.291 -0.264 -0.019
0.290 -0.260 -0.019
0.303 -0.267 -0.020
0.308 -0.267 -0.020
0.297 -0.254 -0.019
0.289 -0.243 -0.018
0.290 -0.240 -0.018
0.292 -0.238 -0.019
0.280 -0.224 -0.018
0.220 -0.171 -0.014
0.210 -0.160 -0.013
0.206 -0.154 -0.013
0.213 -0.157 -0.013
0.212 -0.154 -0.013
0.210 -0.150 -0.013
0.206 -0.144 -0.013
0.210 -0.145 -0.013
0.214 -0.145 -0.013
0.212 -0.142 -0.013
0.223 -0.146 -0.014
0.226 -0.146 -0.014
0.222 -0.141 -0.014
0.216 -0.134 -0.013
0.223 -0.136 -0.014
0.224 -0.134 -0.014
0.222 -0.131 -0.013
0.220 -0.127 -0.013
0.218 -0.124 -0.013
0.215 -0.120 -0.013
0.216 -0.118 -0.013
0.208 -0.111 -0.012
0.209 -0.110 -0.013
0.212 -0.109 -0.013
0.205 -0.103 -0.012
0.209 -0.103 -0.012
0.210 -0.101 -0.012
0.221 -0.104 -0.013
0.225 -0.104 -0.013
0.227 -0.103 -0.013
0.222 -0.098 -0.013
0.230 -0.099 -0.014
0.225 -0.095 -0.013
0.225 -0.093 -0.013
0.220 -0.089 -0.013
0.217 -0.085 -0.013
0.214 -0.082 -0.013
0.218 -0.081 -0.013
0.234 -0.085 -0.014
0.244 -0.086 -0.014
0.247 -0.085 -0.014
0.252 -0.084 -0.015
0.252 -0.082 -0.015
0.260 -0.082 -0.015
0.269 -0.082 -0.016
0.278 -0.082 -0.016
0.279 -0.080 -0.016
0.381 -0.106 -0.022
0.392 -0.105 -0.023
0.404 -0.105 -0.023
0.413 -0.103 -0.024
0.418 -0.101 -0.024
0.424 -0.098 -0.024
0.432 -0.096 -0.025
0.400 -0.085 -0.023
0.394 -0.080 -0.023
0.388 -0.075 -0.022
0.295 -0.052 -0.017
0.290 -0.048 -0.017
0.287 -0.045 -0.017
0.294 -0.044 -0.017
0.298 -0.042 -0.017
0.295 -0.039 -0.017
0.277 -0.034 -0.016
0.294 -0.033 -0.017
0.300 -0.031 -0.017
0.308 -0.029 -0.018
0.315 -0.027 -0.018
0.315 -0.024 -0.018
0.314 -0.021 -0.018
0.302 -0.018 -0.017
0.301 -0.015 -0.017
0.315 -0.013 -0.018
0.326 -0.010 -0.019
0.301 -0.007 -0.017
0.303 -0.004 -0.017
0.305 -0.001 -0.017
0.307 0.001 -0.018
0.311 0.004 -0.018
0.313 0.007 -0.018
0.315 0.010 -0.018
0.316 0.013 -0.018
0.317 0.016 -0.018
0.318 0.018 -0.018
0.322 0.022 -0.018
0.320 0.024 -0.018
0.320 0.027 -0.018
0.321 0.030 -0.018
0.321 0.033 -0.018
0.321 0.036 -0.018
0.322 0.039 -0.019
0.324 0.042 -0.019
0.323 0.045 -0.019
0.323 0.048 -0.019
0.327 0.052 -0.019
0.321 0.054 -0.018
0.321 0.057 -0.019
0.321 0.059 -0.019
0.320 0.062 -0.019
0.320 0.065 -0.019
0.320 0.068 -0.018
0.319 0.071 -0.018
0.318 0.074 -0.018
0.318 0.077 -0.018
0.316 0.079 -0.018
0.315 0.082 -0.018
0.313 0.084 -0.018
0.325 0.091 -0.019
0.321 0.093 -0.019
0.319 0.095 -0.019
0.325 0.100 -0.019
0.334 0.106 -0.019
0.333 0.109 -0.020
0.331 0.111 -0.019
0.323 0.112 -0.019
0.331 0.118 -0.019
0.335 0.122 -0.020
0.341 0.128 -0.020
0.334 0.129 -0.020
0.318 0.126 -0.019
1.261 0.549 -0.075
1.279 0.584 -0.076
0.411 0.454 -0.028
0.513 0.597 -0.036
0.510 0.602 -0.036
0.505 0.606 -0.036
0.495 0.604 -0.035
0.427 0.537 -0.031
0.412 0.527 -0.030
0.400 0.520 -0.029
0.181 -0.246 -0.011
0.177 -0.238 -0.011
0.174 -0.231 -0.010
0.173 -0.226 -0.010
0.171 -0.221 -0.010
0.169 -0.215 -0.010
0.173 -0.216 -0.010
0.180 -0.222 -0.011
0.188 -0.228 -0.011
0.194 -0.232 -0.011
0.202 -0.238 -0.012
0.212 -0.247 -0.012
0.261 -0.294 -0.015
0.265 -0.294 -0.015
0.268 -0.293 -0.015
0.274 -0.287 -0.015
0.271 -0.279 -0.015
0.271 -0.275 -0.015
0.271 -0.271 -0.015
0.272 -0.268 -0.015
0.274 -0.262 -0.015
0.285 -0.267 -0.016
0.283 -0.261 -0.015
0.300 -0.273 -0.016
0.301 -0.270 -0.016
0.297 -0.262 -0.016
0.291 -0.248 -0.016
0.281 -0.236 -0.015
0.278 -0.230 -0.015
0.279 -0.227 -0.015
0.273 -0.219 -0.014
0.215 -0.167 -0.011
0.207 -0.158 -0.011
0.211 -0.158 -0.011
0.209 -0.155 -0.011
0.214 -0.156 -0.011
0.212 -0.151 -0.011
0.210 -0.147 -0.011
0.201 -0.138 -0.010
0.204 -0.139 -0.011
0.217 -0.145 -0.011
0.221 -0.145 -0.011
0.225 -0.145 -0.012
0.224 -0.142 -0.011
0.222 -0.138 -0.011
0.225 -0.137 -0.011
0.225 -0.135 -0.011
0.219 -0.129 -0.011
0.218 -0.126 -0.011
0.220 -0.124 -0.011
0.217 -0.121 -0.011
0.208 -0.114 -0.011
0.212 -0.113 -0.011
0.209 -0.110 -0.011
0.209 -0.107 -0.010
0.212 -0.107 -0.011
0.215 -0.106 -0.011
0.223 -0.108 -0.011
0.221 -0.105 -0.011
0.224 -0.103 -0.011
0.225 -0.102 -0.011
0.227 -0.100 -0.011
0.223 -0.096 -0.011
0.229 -0.097 -0.011
0.222 -0.091 -0.011
0.220 -0.088 -0.011
0.218 -0.085 -0.011
0.212 -0.081 -0.010
0.209 -0.078 -0.010
0.235 -0.085 -0.012
0.243 -0.086 -0.012
0.251 -0.086 -0.012
0.257 -0.086 -0.013
0.257 -0.084 -0.013
0.256 -0.081 -0.013
0.268 -0.082 -0.013
0.274 -0.081 -0.013
0.276 -0.079 -0.013
0.381 -0.106 -0.019
0.394 -0.106 -0.019
0.406 -0.105 -0.020
0.414 -0.103 -0.020
0.419 -0.101 -0.020
0.425 -0.098 -0.021
0.422 -0.094 -0.021
0.391 -0.083 -0.019
0.379 -0.077 -0.018
0.386 -0.075 -0.019
0.382 -0.071 -0.019
0.296 -0.052 -0.014
0.290 -0.049 -0.014
0.289 -0.046 -0.014
0.296 -0.044 -0.014
0.298 -0.042 -0.014
0.291 -0.038 -0.014
0.279 -0.034 -0.014
0.282 -0.032 -0.014
0.295 -0.031 -0.014
0.304 -0.029 -0.015
0.314 -0.027 -0.015
0.320 -0.025 -0.015
0.312 -0.021 -0.015
0.304 -0.018 -0.015
0.302 -0.015 -0.015
0.318 -0.013 -0.015
0.323 -0.010 -0.016
0.301 -0.007 -0.015
0.304 -0.004 -0.015
0.305 -0.001 -0.015
0.307 0.001 -0.015
0.309 0.004 -0.015
0.312 0.007 -0.015
0.314 0.010 -0.015
0.315 0.013 -0.015
0.316 0.016 -0.015
0.317 0.018 -0.015
0.318 0.021 -0.015
0.323 0.025 -0.016
0.323 0.028 -0.016
0.321 0.030 -0.016
0.322 0.033 -0.016
0.323 0.036 -0.016
0.323 0.039 -0.016
0.324 0.042 -0.016
0.333 0.047 -0.016
0.323 0.048 -0.016
0.320 0.050 -0.016
0.321 0.054 -0.016
0.321 0.057 -0.016
0.320 0.059 -0.016
0.320 0.062 -0.016
0.320 0.065 -0.016
0.319 0.068 -0.016
0.318 0.071 -0.016
0.317 0.074 -0.015
0.316 0.076 -0.015
0.315 0.079 -0.015
0.314 0.081 -0.015
0.313 0.084 -0.015
0.325 0.090 -0.016
0.322 0.093 -0.016
0.319 0.095 -0.016
0.330 0.101 -0.016
0.341 0.108 -0.017
0.338 0.110 -0.017
0.324 0.109 -0.016
0.320 0.111 -0.016
0.329 0.117 -0.016
0.339 0.124 -0.017
0.347 0.130 -0.017
0.330 0.127 -0.016
0.321 0.127 -0.016
0.324 0.193 -0.017
0.326 0.202 -0.017
0.333 0.210 -0.017
0.366 0.244 -0.019
0.346 0.235 -0.018
0.338 0.233 -0.018
0.418 0.455 -0.024
0.417 0.461 -0.024
0.511 0.594 -0.030
0.510 0.603 -0.030
0.504 0.605 -0.030
0.493 0.602 -0.029
0.428 0.540 -0.026
0.451 0.586 -0.027
0.192 -0.264 -0.009
0.177 -0.241 -0.008
0.170 -0.228 -0.008
0.172 -0.227 -0.008
0.173 -0.225 -0.008
0.171 -0.220 -0.008
0.173 -0.219 -0.008
0.182 -0.228 -0.009
0.190 -0.234 -0.009
0.197 -0.239 -0.009
0.200 -0.239 -0.009
0.201 -0.237 -0.009
0.204 -0.237 -0.009
0.238 -0.223 -0.011
0.274 -0.231 -0.012
0.267 -0.221 -0.012
0.265 -0.215 -0.011
0.261 -0.209 -0.011
0.208 -0.159 -0.009
0.209 -0.157 -0.009
0.212 -0.157 -0.009
0.212 -0.154 -0.009
0.213 -0.152 -0.009
0.212 -0.149 -0.009
0.211 -0.145 -0.009
0.206 -0.140 -0.009
0.213 -0.142 -0.009
0.218 -0.143 -0.009
0.220 -0.142 -0.009
0.224 -0.142 -0.009
0.223 -0.138 -0.009
0.222 -0.136 -0.009
0.222 -0.133 -0.009
0.219 -0.129 -0.009
0.220 -0.127 -0.009
0.221 -0.125 -0.009
0.218 -0.121 -0.009
0.205 -0.112 -0.008
0.203 -0.108 -0.008
0.205 -0.108 -0.008
0.208 -0.107 -0.009
0.210 -0.105 -0.009
0.204 -0.101 -0.008
0.209 -0.101 -0.008
0.210 -0.099 -0.009
0.218 -0.101 -0.009
0.222 -0.100 -0.009
0.224 -0.099 -0.009
0.224 -0.097 -0.009
0.226 -0.095 -0.009
0.228 -0.094 -0.009
0.223 -0.090 -0.009
0.213 -0.084 -0.009
0.211 -0.081 -0.008
0.208 -0.078 -0.008
0.231 -0.084 -0.009
0.238 -0.084 -0.010
0.240 -0.083 -0.010
0.252 -0.084 -0.010
0.250 -0.081 -0.010
0.250 -0.079 -0.010
0.254 -0.078 -0.010
0.267 -0.079 -0.011
0.276 -0.079 -0.011
0.385 -0.107 -0.015
0.398 -0.107 -0.016
0.405 -0.105 -0.016
0.413 -0.103 -0.016
0.421 -0.101 -0.017
0.430 -0.099 -0.017
0.423 -0.094 -0.017
0.399 -0.085 -0.016
0.386 -0.079 -0.015
0.391 -0.076 -0.015
0.388 -0.072 -0.015
0.292 -0.051 -0.012
0.289 -0.048 -0.011
0.287 -0.045 -0.011
0.292 -0.043 -0.012
0.298 -0.042 -0.012
0.298 -0.039 -0.012
0.289 -0.035 -0.011
0.281 -0.032 -0.011
0.296 -0.031 -0.012
0.297 -0.028 -0.012
0.306 -0.026 -0.012
0.312 -0.024 -0.012
0.310 -0.021 -0.012
0.303 -0.018 -0.012
0.302 -0.015 -0.012
0.306 -0.012 -0.012
0.317 -0.010 -0.012
0.310 -0.007 -0.012
0.302 -0.004 -0.012
0.306 -0.001 -0.012
0.307 0.001 -0.012
0.310 0.004 -0.012
0.310 0.007 -0.012
0.313 0.010 -0.012
0.314 0.013 -0.012
0.315 0.015 -0.012
0.316 0.018 -0.012
0.316 0.021 -0.012
0.318 0.024 -0.013
0.319 0.027 -0.013
0.321 0.030 -0.013
0.322 0.033 -0.013
0.324 0.036 -0.013
0.324 0.039 -0.013
0.322 0.042 -0.013
0.321 0.045 -0.013
0.320 0.048 -0.013
0.321 0.051 -0.013
0.321 0.054 -0.013
0.321 0.057 -0.013
0.320 0.059 -0.013
0.320 0.062 -0.013
0.320 0.065 -0.013
0.318 0.068 -0.013
0.317 0.070 -0.013
0.316 0.073 -0.013
0.315 0.076 -0.013
0.314 0.079 -0.012
0.313 0.081 -0.012
0.324 0.087 -0.013
0.320 0.089 -0.013
0.317 0.091 -0.013
0.315 0.094 -0.013
0.315 0.097 -0.013
0.334 0.106 -0.013
0.327 0.107 -0.013
0.320 0.107 -0.013
0.327 0.113 -0.013
0.340 0.121 -0.014
0.349 0.128 -0.014
0.347 0.130 -0.014
0.334 0.129 -0.014
0.334 0.132 -0.013
0.354 0.151 -0.014
0.314 0.140 -0.013
0.313 0.143 -0.013
0.340 0.166 -0.014
0.325 0.162 -0.013
0.318 0.162 -0.013
0.357 0.189 -0.015
0.347 0.203 -0.014
0.333 0.199 -0.014
0.327 0.199 -0.014
0.325 0.201 -0.014
0.322 0.203 -0.014
0.316 0.203 -0.013
0.314 0.206 -0.013
0.312 0.208 -0.013
0.310 0.210 -0.013
0.309 0.214 -0.013
0.312 0.219 -0.013
0.311 0.222 -0.013
0.491 0.551 -0.023
0.497 0.567 -0.023
0.506 0.588 -0.024
0.509 0.601 -0.024
0.504 0.604 -0.024
0.493 0.601 -0.024
0.425 0.536 -0.021
0.424 0.543 -0.021
0.470 0.610 -0.023
0.167 -0.229 -0.006
0.171 -0.233 -0.006
0.173 -0.231 -0.006
0.167 -0.221 -0.006
0.169 -0.221 -0.006
0.176 -0.226 -0.006
0.180 -0.229 -0.006
0.196 -0.245 -0.007
0.200 -0.247 -0.007
0.198 -0.241 -0.007
0.201 -0.240 -0.007
0.193 -0.227 -0.007
