VERSION .7
FIELDS x y z
SIZE 4 4 4
TYPE F F F
COUNT 1 1 1
WIDTH     2584
HEIGHT 1
VIEWPOINT 0 0 0 1 0 0 0
POINTS     2584
DATA ascii
0.272 -0.078 0.021
0.402 -0.108 0.032
0.406 -0.105 0.032
0.413 -0.103 0.032
0.417 -0.100 0.033
0.408 -0.095 0.032
0.363 -0.081 0.028
0.352 -0.075 0.028
0.364 -0.074 0.028
0.369 -0.072 0.029
0.352 -0.065 0.027
0.287 -0.048 0.022
0.287 -0.045 0.022
0.288 -0.043 0.022
0.289 -0.040 0.022
0.290 -0.038 0.023
0.289 -0.035 0.022
0.288 -0.033 0.022
0.285 -0.030 0.022
0.287 -0.027 0.022
0.288 -0.025 0.022
0.294 -0.023 0.023
0.292 -0.020 0.023
0.295 -0.017 0.023
0.298 -0.015 0.023
0.297 -0.012 0.023
0.288 -0.009 0.022
0.294 -0.007 0.023
0.303 -0.004 0.024
0.305 -0.001 0.024
0.299 0.001 0.023
0.300 0.004 0.023
0.305 0.007 0.024
0.320 0.010 0.025
0.324 0.013 0.025
0.314 0.015 0.024
0.306 0.018 0.024
0.309 0.021 0.024
0.312 0.024 0.024
0.311 0.027 0.024
0.303 0.029 0.024
0.308 0.032 0.024
0.307 0.035 0.024
0.309 0.038 0.024
0.302 0.039 0.024
0.307 0.043 0.024
0.323 0.048 0.025
0.300 0.047 0.023
0.306 0.051 0.024
0.325 0.057 0.025
0.327 0.061 0.026
0.309 0.060 0.024
0.308 0.063 0.024
0.306 0.065 0.024
0.304 0.068 0.024
0.310 0.072 0.024
0.314 0.076 0.025
0.319 0.080 0.025
0.297 0.077 0.023
0.303 0.082 0.024
0.313 0.087 0.025
0.322 0.093 0.025
0.325 0.097 0.026
0.329 0.101 0.026
0.318 0.101 0.025
0.315 0.103 0.025
0.317 0.107 0.025
0.320 0.111 0.026
0.319 0.114 0.026
0.318 0.116 0.025
0.320 0.120 0.026
0.315 0.122 0.025
0.329 0.130 0.026
0.427 0.178 0.035
0.425 0.181 0.034
0.416 0.182 0.034
0.408 0.182 0.033
0.394 0.180 0.032
0.384 0.179 0.031
0.374 0.179 0.031
0.369 0.180 0.030
0.365 0.182 0.030
0.357 0.182 0.029
0.350 0.182 0.029
0.346 0.183 0.029
0.338 0.183 0.028
0.331 0.183 0.028
0.323 0.182 0.027
0.319 0.183 0.027
0.315 0.185 0.026
0.309 0.185 0.026
0.302 0.184 0.026
0.300 0.186 0.025
0.294 0.186 0.025
0.289 0.186 0.025
0.285 0.187 0.024
0.283 0.189 0.024
0.285 0.193 0.025
0.280 0.194 0.024
0.280 0.197 0.024
0.274 0.196 0.024
0.269 0.197 0.024
0.267 0.198 0.023
0.267 0.202 0.024
0.265 0.203 0.023
0.264 0.206 0.023
0.263 0.209 0.024
0.261 0.211 0.023
0.262 0.215 0.024
0.258 0.216 0.023
0.258 0.219 0.023
0.258 0.223 0.024
0.260 0.229 0.024
0.260 0.233 0.024
0.260 0.236 0.024
0.259 0.239 0.024
0.259 0.244 0.024
0.259 0.248 0.025
0.260 0.253 0.025
0.269 0.266 0.026
0.437 0.454 0.043
0.436 0.460 0.043
0.417 0.447 0.041
0.366 0.406 0.037
0.358 0.403 0.036
0.320 0.373 0.033
0.317 0.382 0.033
0.320 0.391 0.034
0.310 0.386 0.033
0.305 0.385 0.032
0.301 0.387 0.032
0.296 0.386 0.032
0.176 -0.242 0.021
0.179 -0.244 0.021
0.179 -0.241 0.021
0.178 -0.237 0.021
0.179 -0.235 0.021
0.181 -0.234 0.021
0.183 -0.233 0.021
0.185 -0.233 0.021
0.187 -0.231 0.021
0.189 -0.230 0.022
0.189 -0.227 0.021
0.191 -0.226 0.021
0.193 -0.225 0.022
0.196 -0.225 0.022
0.198 -0.224 0.022
0.200 -0.223 0.022
0.201 -0.221 0.022
0.203 -0.220 0.022
0.206 -0.219 0.022
0.208 -0.218 0.022
0.211 -0.218 0.023
0.214 -0.218 0.023
0.217 -0.217 0.023
0.220 -0.217 0.023
0.222 -0.216 0.023
0.224 -0.214 0.023
0.226 -0.213 0.023
0.228 -0.211 0.023
0.230 -0.210 0.024
0.233 -0.209 0.024
0.235 -0.208 0.024
0.240 -0.208 0.024
0.242 -0.207 0.024
0.245 -0.207 0.025
0.248 -0.206 0.025
0.248 -0.203 0.025
0.248 -0.199 0.025
0.242 -0.192 0.024
0.230 -0.179 0.023
0.215 -0.165 0.021
0.216 -0.162 0.021
0.215 -0.159 0.021
0.213 -0.155 0.021
0.213 -0.152 0.020
0.212 -0.149 0.020
0.214 -0.148 0.020
0.218 -0.148 0.021
0.210 -0.140 0.020
0.207 -0.136 0.020
0.210 -0.136 0.020
0.210 -0.133 0.020
0.210 -0.131 0.020
0.209 -0.128 0.020
0.205 -0.123 0.019
0.206 -0.122 0.019
0.207 -0.120 0.019
0.210 -0.119 0.019
0.208 -0.116 0.019
0.212 -0.116 0.020
0.215 -0.115 0.020
0.214 -0.112 0.020
0.216 -0.111 0.020
0.204 -0.103 0.019
0.205 -0.101 0.019
0.208 -0.100 0.019
0.211 -0.100 0.019
0.204 -0.095 0.018
0.205 -0.093 0.019
0.203 -0.090 0.018
0.206 -0.089 0.019
0.218 -0.092 0.020
0.222 -0.092 0.020
0.222 -0.089 0.020
0.220 -0.086 0.020
0.217 -0.083 0.019
0.219 -0.082 0.019
0.215 -0.078 0.019
0.224 -0.079 0.020
0.227 -0.078 0.020
0.228 -0.077 0.020
0.232 -0.076 0.021
0.236 -0.075 0.021
0.251 -0.077 0.022
0.262 -0.078 0.023
0.277 -0.080 0.024
0.405 -0.109 0.036
0.408 -0.106 0.036
0.411 -0.103 0.036
0.416 -0.100 0.036
0.410 -0.095 0.036
0.354 -0.072 0.031
0.366 -0.071 0.032
0.359 -0.067 0.031
0.345 -0.061 0.030
0.287 -0.048 0.025
0.287 -0.045 0.025
0.288 -0.043 0.025
0.290 -0.041 0.025
0.289 -0.038 0.025
0.289 -0.035 0.025
0.288 -0.033 0.025
0.287 -0.030 0.025
0.285 -0.027 0.025
0.290 -0.025 0.025
0.290 -0.022 0.025
0.288 -0.019 0.025
0.291 -0.017 0.025
0.294 -0.015 0.025
0.287 -0.012 0.025
0.278 -0.009 0.024
0.296 -0.007 0.026
0.296 -0.004 0.026
0.289 -0.001 0.025
0.287 0.001 0.025
0.294 0.004 0.025
0.306 0.007 0.026
0.320 0.010 0.028
0.326 0.013 0.028
0.324 0.016 0.028
0.311 0.018 0.027
0.303 0.020 0.026
0.301 0.023 0.026
0.304 0.026 0.026
0.308 0.029 0.027
0.304 0.031 0.026
0.312 0.035 0.027
0.312 0.038 0.027
0.308 0.040 0.027
0.305 0.043 0.027
0.301 0.045 0.026
0.304 0.048 0.026
0.305 0.051 0.027
0.317 0.056 0.028
0.322 0.060 0.028
0.311 0.061 0.027
0.302 0.062 0.026
0.303 0.065 0.027
0.305 0.068 0.027
0.308 0.072 0.027
0.317 0.077 0.028
0.311 0.078 0.027
0.311 0.081 0.027
0.308 0.083 0.027
0.332 0.093 0.029
0.324 0.094 0.029
0.327 0.098 0.029
0.326 0.100 0.029
0.320 0.102 0.028
0.314 0.103 0.028
0.321 0.108 0.029
0.321 0.111 0.029
0.324 0.115 0.029
0.321 0.118 0.029
0.318 0.119 0.028
0.315 0.121 0.028
0.320 0.127 0.029
0.410 0.167 0.037
0.424 0.176 0.038
0.425 0.181 0.038
0.417 0.182 0.038
0.407 0.182 0.037
0.393 0.180 0.036
0.385 0.180 0.035
0.378 0.180 0.034
0.369 0.180 0.034
0.365 0.182 0.034
0.358 0.182 0.033
0.353 0.183 0.033
0.347 0.184 0.032
0.338 0.183 0.031
0.330 0.183 0.031
0.324 0.183 0.030
0.318 0.183 0.030
0.313 0.184 0.029
0.310 0.185 0.029
0.306 0.186 0.029
0.296 0.184 0.028
0.293 0.185 0.028
0.289 0.186 0.028
0.284 0.187 0.027
0.281 0.188 0.027
0.277 0.189 0.027
0.268 0.186 0.026
0.265 0.187 0.026
0.262 0.188 0.026
0.261 0.190 0.025
0.261 0.194 0.026
0.261 0.197 0.026
0.262 0.201 0.026
0.261 0.204 0.026
0.261 0.207 0.026
0.260 0.210 0.026
0.258 0.212 0.026
0.258 0.216 0.026
0.258 0.219 0.026
0.258 0.223 0.026
0.258 0.227 0.027
0.259 0.232 0.027
0.257 0.234 0.027
0.257 0.237 0.027
0.258 0.242 0.027
0.258 0.247 0.027
0.257 0.250 0.027
0.256 0.253 0.027
0.437 0.454 0.048
0.434 0.458 0.048
0.357 0.396 0.040
0.360 0.406 0.041
0.324 0.384 0.037
0.327 0.394 0.038
0.323 0.395 0.038
0.316 0.393 0.037
0.306 0.387 0.036
0.302 0.388 0.036
0.301 0.392 0.036
0.180 -0.248 0.024
0.178 -0.243 0.023
0.179 -0.240 0.023
0.179 -0.238 0.023
0.180 -0.236 0.023
0.182 -0.234 0.023
0.184 -0.234 0.023
0.184 -0.232 0.023
0.187 -0.231 0.024
0.188 -0.229 0.024
0.189 -0.228 0.024
0.192 -0.227 0.024
0.194 -0.227 0.024
0.196 -0.225 0.024
0.199 -0.225 0.024
0.201 -0.224 0.024
0.202 -0.222 0.024
0.204 -0.220 0.024
0.206 -0.219 0.024
0.208 -0.218 0.025
0.210 -0.217 0.025
0.214 -0.217 0.025
0.216 -0.216 0.025
0.218 -0.215 0.025
0.221 -0.215 0.025
0.223 -0.214 0.026
0.225 -0.212 0.026
0.227 -0.211 0.026
0.230 -0.210 0.026
0.232 -0.208 0.026
0.236 -0.209 0.026
0.239 -0.208 0.027
0.242 -0.207 0.027
0.245 -0.206 0.027
0.247 -0.205 0.027
0.247 -0.202 0.027
0.247 -0.198 0.027
0.240 -0.190 0.026
0.225 -0.175 0.024
0.217 -0.166 0.023
0.213 -0.160 0.023
0.214 -0.158 0.023
0.212 -0.154 0.023
0.213 -0.153 0.023
0.215 -0.152 0.023
0.219 -0.152 0.023
0.216 -0.147 0.023
0.211 -0.141 0.022
0.205 -0.134 0.021
0.206 -0.133 0.021
0.212 -0.134 0.022
0.215 -0.134 0.022
0.213 -0.130 0.022
0.210 -0.126 0.022
0.208 -0.123 0.021
0.209 -0.121 0.021
0.208 -0.118 0.021
0.209 -0.116 0.021
0.215 -0.118 0.022
0.210 -0.112 0.021
0.212 -0.111 0.021
0.213 -0.110 0.022
0.211 -0.106 0.021
0.210 -0.104 0.021
0.210 -0.102 0.021
0.211 -0.100 0.021
0.211 -0.098 0.021
0.203 -0.092 0.020
0.207 -0.092 0.021
0.206 -0.089 0.020
0.217 -0.092 0.022
0.220 -0.091 0.022
0.219 -0.088 0.022
0.218 -0.086 0.021
0.216 -0.083 0.021
0.214 -0.080 0.021
0.222 -0.081 0.022
0.223 -0.079 0.022
0.225 -0.077 0.022
0.229 -0.077 0.022
0.233 -0.076 0.023
0.236 -0.075 0.023
0.255 -0.078 0.025
0.265 -0.079 0.026
0.281 -0.081 0.027
0.406 -0.109 0.039
0.408 -0.106 0.039
0.410 -0.103 0.040
0.414 -0.100 0.040
0.416 -0.096 0.040
0.337 -0.072 0.032
0.357 -0.073 0.034
0.371 -0.072 0.036
0.366 -0.068 0.035
0.287 -0.048 0.028
0.287 -0.045 0.028
0.287 -0.043 0.028
0.287 -0.040 0.028
0.286 -0.037 0.027
0.288 -0.035 0.028
0.287 -0.032 0.028
0.286 -0.030 0.027
0.286 -0.027 0.027
0.289 -0.025 0.028
0.291 -0.022 0.028
0.289 -0.020 0.028
0.287 -0.017 0.027
0.288 -0.014 0.028
0.285 -0.012 0.027
0.291 -0.009 0.028
0.292 -0.007 0.028
0.295 -0.004 0.028
0.288 -0.001 0.027
0.288 0.001 0.027
0.296 0.004 0.028
0.301 0.007 0.029
0.308 0.010 0.029
0.322 0.013 0.031
0.325 0.016 0.031
0.312 0.018 0.030
0.295 0.020 0.028
0.295 0.023 0.028
0.311 0.027 0.030
0.326 0.031 0.031
0.320 0.033 0.031
0.310 0.035 0.030
0.309 0.038 0.030
0.299 0.039 0.029
0.303 0.042 0.029
0.303 0.045 0.029
0.309 0.049 0.030
0.302 0.051 0.029
0.300 0.053 0.029
0.296 0.055 0.029
0.302 0.059 0.029
0.315 0.064 0.030
0.310 0.066 0.030
0.312 0.070 0.030
0.319 0.074 0.031
0.324 0.078 0.031
0.316 0.079 0.031
0.310 0.081 0.030
0.328 0.089 0.032
0.325 0.091 0.032
0.324 0.094 0.032
0.315 0.094 0.031
0.318 0.098 0.031
0.315 0.100 0.031
0.313 0.102 0.031
0.317 0.107 0.031
0.331 0.115 0.033
0.329 0.117 0.032
0.324 0.119 0.032
0.314 0.118 0.031
0.306 0.118 0.030
0.427 0.178 0.042
0.418 0.178 0.042
0.413 0.180 0.041
0.401 0.179 0.040
0.397 0.181 0.040
0.388 0.181 0.039
0.377 0.180 0.038
0.371 0.181 0.037
0.364 0.182 0.037
0.361 0.184 0.037
0.349 0.182 0.036
0.344 0.183 0.035
0.339 0.184 0.035
0.331 0.183 0.034
0.325 0.183 0.033
0.319 0.184 0.033
0.314 0.184 0.032
0.310 0.185 0.032
0.307 0.187 0.032
0.298 0.185 0.031
0.293 0.185 0.031
0.290 0.187 0.030
0.284 0.187 0.030
0.279 0.187 0.030
0.274 0.187 0.029
0.268 0.185 0.029
0.265 0.187 0.028
0.263 0.188 0.028
0.261 0.191 0.028
0.261 0.194 0.028
0.261 0.198 0.028
0.260 0.200 0.028
0.260 0.203 0.028
0.259 0.206 0.029
0.259 0.209 0.029
0.258 0.212 0.029
0.259 0.217 0.029
0.258 0.219 0.029
0.257 0.223 0.029
0.258 0.227 0.029
0.257 0.230 0.029
0.256 0.233 0.029
0.255 0.236 0.029
0.257 0.242 0.030
0.256 0.245 0.030
0.256 0.249 0.030
0.255 0.252 0.030
0.328 0.396 0.042
0.323 0.396 0.042
0.312 0.389 0.040
0.306 0.387 0.040
0.302 0.388 0.040
0.298 0.389 0.039
0.177 -0.244 0.026
0.178 -0.242 0.026
0.178 -0.240 0.025
0.179 -0.238 0.025
0.180 -0.236 0.025
0.181 -0.234 0.025
0.182 -0.232 0.025
0.183 -0.230 0.025
0.185 -0.229 0.026
0.187 -0.229 0.026
0.190 -0.228 0.026
0.193 -0.228 0.026
0.194 -0.227 0.026
0.196 -0.225 0.026
0.199 -0.225 0.026
0.201 -0.225 0.027
0.202 -0.222 0.027
0.204 -0.220 0.027
0.206 -0.219 0.027
0.208 -0.218 0.027
0.210 -0.217 0.027
0.212 -0.216 0.027
0.216 -0.216 0.027
0.217 -0.215 0.028
0.220 -0.214 0.028
0.223 -0.214 0.028
0.225 -0.212 0.028
0.227 -0.211 0.028
0.230 -0.210 0.028
0.233 -0.209 0.029
0.237 -0.210 0.029
0.240 -0.209 0.029
0.243 -0.209 0.030
0.245 -0.207 0.030
0.247 -0.205 0.030
0.248 -0.202 0.030
0.249 -0.201 0.030
0.247 -0.195 0.029
0.220 -0.171 0.026
0.211 -0.162 0.025
0.211 -0.159 0.025
0.212 -0.157 0.025
0.208 -0.151 0.024
0.208 -0.149 0.024
0.214 -0.151 0.025
0.213 -0.148 0.025
0.214 -0.146 0.025
0.210 -0.140 0.024
0.203 -0.133 0.023
0.203 -0.131 0.023
0.209 -0.132 0.024
0.216 -0.135 0.024
0.215 -0.132 0.024
0.212 -0.127 0.024
0.209 -0.123 0.023
0.207 -0.120 0.023
0.207 -0.117 0.023
0.208 -0.116 0.023
0.207 -0.113 0.023
0.206 -0.110 0.023
0.208 -0.109 0.023
0.213 -0.110 0.024
0.214 -0.108 0.024
0.201 -0.100 0.022
0.212 -0.102 0.023
0.212 -0.100 0.023
0.210 -0.097 0.023
0.208 -0.094 0.023
0.211 -0.093 0.023
0.214 -0.093 0.023
0.216 -0.092 0.023
0.217 -0.090 0.023
0.216 -0.087 0.023
0.215 -0.085 0.023
0.212 -0.081 0.023
0.209 -0.078 0.023
0.218 -0.079 0.023
0.222 -0.079 0.024
0.226 -0.078 0.024
0.230 -0.077 0.025
0.236 -0.077 0.025
0.244 -0.077 0.026
0.256 -0.078 0.027
0.265 -0.079 0.028
0.274 -0.079 0.029
0.405 -0.109 0.043
0.409 -0.106 0.043
0.412 -0.103 0.044
0.417 -0.101 0.044
0.411 -0.095 0.043
0.373 -0.076 0.039
0.381 -0.074 0.040
0.375 -0.070 0.039
0.285 -0.048 0.030
0.285 -0.045 0.030
0.286 -0.043 0.030
0.286 -0.040 0.030
0.286 -0.037 0.030
0.287 -0.035 0.030
0.287 -0.032 0.030
0.285 -0.030 0.030
0.285 -0.027 0.030
0.288 -0.025 0.030
0.290 -0.022 0.030
0.290 -0.020 0.030
0.286 -0.017 0.030
0.286 -0.014 0.030
0.289 -0.012 0.030
0.293 -0.009 0.031
0.313 -0.007 0.033
0.299 -0.004 0.031
0.294 -0.001 0.031
0.295 0.001 0.031
0.296 0.004 0.031
0.296 0.007 0.031
0.297 0.009 0.031
0.312 0.013 0.033
0.319 0.016 0.033
0.311 0.018 0.033
0.296 0.020 0.031
0.300 0.023 0.031
0.317 0.027 0.033
0.308 0.029 0.032
0.304 0.031 0.032
0.301 0.034 0.032
0.303 0.037 0.032
0.300 0.039 0.031
0.310 0.043 0.033
0.312 0.047 0.033
0.310 0.049 0.033
0.303 0.051 0.032
0.299 0.053 0.031
0.294 0.055 0.031
0.315 0.062 0.033
0.323 0.066 0.034
0.312 0.067 0.033
0.315 0.070 0.033
0.323 0.075 0.034
0.330 0.080 0.035
0.322 0.081 0.034
0.320 0.083 0.034
0.324 0.088 0.035
0.324 0.091 0.035
0.306 0.088 0.033
0.307 0.092 0.033
0.315 0.097 0.034
0.312 0.099 0.033
0.315 0.103 0.034
0.320 0.108 0.034
0.329 0.114 0.035
0.332 0.118 0.036
0.319 0.117 0.034
0.301 0.113 0.033
0.301 0.116 0.033
0.320 0.127 0.035
0.333 0.135 0.036
0.403 0.172 0.044
0.404 0.177 0.044
0.407 0.182 0.045
0.395 0.180 0.043
0.385 0.180 0.042
0.377 0.180 0.042
0.370 0.181 0.041
0.365 0.182 0.040
0.356 0.182 0.040
0.350 0.182 0.039
0.345 0.183 0.038
0.338 0.183 0.038
0.332 0.184 0.037
0.326 0.184 0.037
0.319 0.183 0.036
0.313 0.184 0.035
0.309 0.185 0.035
0.306 0.186 0.035
0.297 0.185 0.034
0.294 0.186 0.034
0.288 0.186 0.033
0.284 0.186 0.033
0.278 0.186 0.032
0.275 0.187 0.032
0.268 0.186 0.031
0.265 0.187 0.031
0.264 0.189 0.031
0.262 0.191 0.031
0.261 0.194 0.031
0.261 0.197 0.031
0.260 0.200 0.031
0.260 0.203 0.031
0.259 0.207 0.031
0.258 0.209 0.031
0.258 0.212 0.031
0.258 0.216 0.031
0.258 0.220 0.032
0.258 0.223 0.032
0.257 0.227 0.032
0.257 0.230 0.032
0.256 0.233 0.032
0.255 0.237 0.032
0.255 0.240 0.032
0.256 0.245 0.033
0.255 0.248 0.033
0.255 0.252 0.033
0.380 0.389 0.050
0.309 0.344 0.042
0.301 0.340 0.041
0.299 0.344 0.041
0.318 0.390 0.045
0.310 0.386 0.044
0.304 0.385 0.043
0.301 0.387 0.043
0.298 0.390 0.043
0.175 -0.241 0.027
0.176 -0.240 0.027
0.179 -0.241 0.028
0.180 -0.240 0.028
0.179 -0.235 0.027
0.180 -0.233 0.027
0.182 -0.232 0.028
0.185 -0.232 0.028
0.186 -0.231 0.028
0.187 -0.229 0.028
0.190 -0.229 0.028
0.192 -0.227 0.028
0.194 -0.226 0.028
0.196 -0.225 0.028
0.197 -0.223 0.028
0.199 -0.222 0.029
0.201 -0.221 0.029
0.203 -0.220 0.029
0.206 -0.219 0.029
0.208 -0.218 0.029
0.211 -0.218 0.029
0.212 -0.216 0.029
0.214 -0.215 0.030
0.218 -0.215 0.030
0.220 -0.214 0.030
0.224 -0.214 0.030
0.226 -0.213 0.031
0.228 -0.211 0.031
0.230 -0.210 0.031
0.234 -0.211 0.031
0.238 -0.210 0.032
0.242 -0.211 0.032
0.246 -0.211 0.032
0.249 -0.210 0.033
0.250 -0.208 0.033
0.251 -0.205 0.033
0.252 -0.203 0.033
0.244 -0.193 0.031
0.217 -0.169 0.028
0.208 -0.159 0.027
0.210 -0.159 0.027
0.209 -0.155 0.026
0.209 -0.152 0.026
0.208 -0.149 0.026
0.209 -0.148 0.026
0.213 -0.147 0.027
0.210 -0.143 0.026
0.213 -0.143 0.026
0.205 -0.135 0.025
0.201 -0.130 0.025
0.203 -0.129 0.025
0.208 -0.130 0.026
0.214 -0.131 0.026
0.213 -0.128 0.026
0.207 -0.122 0.025
0.207 -0.120 0.025
0.194 -0.110 0.024
0.209 -0.117 0.025
0.210 -0.115 0.025
0.208 -0.112 0.025
0.210 -0.110 0.025
0.218 -0.112 0.026
0.217 -0.109 0.026
0.213 -0.105 0.025
0.201 -0.097 0.024
0.205 -0.097 0.024
0.204 -0.095 0.024
0.209 -0.095 0.025
0.197 -0.087 0.023
0.206 -0.089 0.024
0.209 -0.089 0.025
0.218 -0.090 0.026
0.218 -0.088 0.026
0.216 -0.085 0.025
0.212 -0.081 0.025
0.210 -0.078 0.024
0.206 -0.075 0.024
0.215 -0.076 0.025
0.226 -0.078 0.026
0.234 -0.078 0.027
0.235 -0.077 0.027
0.246 -0.078 0.028
0.254 -0.078 0.029
0.262 -0.078 0.030
0.270 -0.078 0.031
0.406 -0.109 0.047
0.411 -0.107 0.047
0.417 -0.104 0.048
0.420 -0.101 0.048
0.421 -0.098 0.048
0.383 -0.078 0.044
0.389 -0.076 0.044
0.373 -0.069 0.043
0.282 -0.047 0.032
0.282 -0.045 0.032
0.284 -0.042 0.032
0.286 -0.040 0.033
0.287 -0.038 0.033
0.288 -0.035 0.033
0.288 -0.033 0.033
0.289 -0.030 0.033
0.288 -0.027 0.033
0.289 -0.025 0.033
0.290 -0.022 0.033
0.289 -0.020 0.033
0.287 -0.017 0.033
0.289 -0.014 0.033
0.289 -0.012 0.033
0.295 -0.009 0.034
0.308 -0.007 0.035
0.311 -0.004 0.035
0.296 -0.001 0.034
0.298 0.001 0.034
0.303 0.004 0.034
0.293 0.007 0.033
0.296 0.009 0.034
0.306 0.012 0.035
0.313 0.015 0.036
0.306 0.018 0.035
0.300 0.020 0.034
0.303 0.023 0.035
0.293 0.025 0.033
0.277 0.026 0.032
0.288 0.030 0.033
0.299 0.034 0.034
0.303 0.037 0.035
0.318 0.042 0.036
0.312 0.044 0.036
0.301 0.045 0.034
0.308 0.049 0.035
0.303 0.051 0.035
0.307 0.054 0.035
0.313 0.058 0.036
0.323 0.063 0.037
0.317 0.065 0.036
0.310 0.066 0.036
0.309 0.069 0.036
0.320 0.074 0.037
0.317 0.077 0.037
0.324 0.081 0.037
0.323 0.084 0.037
0.330 0.089 0.038
0.315 0.088 0.036
0.305 0.088 0.035
0.305 0.091 0.035
0.316 0.098 0.037
0.322 0.102 0.037
0.305 0.100 0.036
0.320 0.108 0.037
0.320 0.111 0.037
0.314 0.112 0.037
0.304 0.111 0.036
0.298 0.112 0.035
0.303 0.117 0.036
0.312 0.124 0.037
0.333 0.135 0.039
0.340 0.142 0.040
0.408 0.178 0.048
0.400 0.179 0.048
0.393 0.180 0.047
0.386 0.180 0.046
0.377 0.180 0.045
0.372 0.182 0.045
0.365 0.182 0.044
0.360 0.183 0.043
0.349 0.182 0.042
0.345 0.183 0.042
0.339 0.184 0.041
0.332 0.184 0.040
0.324 0.183 0.040
0.318 0.183 0.039
0.312 0.183 0.038
0.308 0.184 0.038
0.305 0.186 0.038
0.298 0.185 0.037
0.293 0.185 0.036
0.288 0.186 0.036
0.283 0.186 0.036
0.278 0.186 0.035
0.273 0.186 0.034
0.268 0.186 0.034
0.266 0.187 0.034
0.263 0.189 0.034
0.262 0.192 0.034
0.261 0.194 0.034
0.260 0.197 0.034
0.260 0.201 0.034
0.260 0.203 0.034
0.260 0.207 0.034
0.259 0.210 0.034
0.258 0.213 0.034
0.258 0.216 0.034
0.258 0.220 0.034
0.257 0.223 0.034
0.257 0.227 0.035
0.257 0.230 0.035
0.256 0.234 0.035
0.256 0.237 0.035
0.256 0.242 0.035
0.256 0.246 0.035
0.255 0.249 0.035
0.254 0.251 0.035
0.373 0.389 0.053
0.302 0.336 0.044
0.295 0.334 0.043
0.296 0.340 0.044
0.296 0.346 0.044
0.292 0.347 0.044
0.298 0.360 0.045
0.313 0.384 0.048
0.310 0.386 0.048
0.302 0.382 0.047
0.300 0.386 0.047
0.300 0.392 0.047
0.172 -0.238 0.029
0.176 -0.240 0.030
0.179 -0.242 0.030
0.182 -0.242 0.030
0.185 -0.242 0.030
0.184 -0.238 0.030
0.185 -0.236 0.030
0.186 -0.234 0.030
0.188 -0.234 0.030
0.192 -0.234 0.031
0.195 -0.235 0.031
0.198 -0.235 0.031
0.202 -0.236 0.032
0.205 -0.236 0.032
0.207 -0.234 0.032
0.282 -0.258 0.041
0.287 -0.259 0.041
0.291 -0.258 0.042
0.291 -0.253 0.041
0.292 -0.251 0.041
0.294 -0.249 0.042
0.297 -0.247 0.042
0.291 -0.238 0.041
0.208 -0.159 0.029
0.204 -0.154 0.028
0.210 -0.156 0.029
0.205 -0.150 0.028
0.209 -0.150 0.028
0.210 -0.148 0.028
0.211 -0.147 0.029
0.213 -0.145 0.029
0.208 -0.139 0.028
0.205 -0.135 0.027
0.203 -0.132 0.027
0.202 -0.128 0.027
0.205 -0.128 0.027
0.210 -0.129 0.028
0.213 -0.128 0.028
0.212 -0.125 0.028
0.210 -0.122 0.028
0.211 -0.120 0.028
0.211 -0.118 0.028
0.211 -0.115 0.028
0.212 -0.114 0.028
0.215 -0.113 0.028
0.215 -0.111 0.028
0.216 -0.109 0.028
0.213 -0.105 0.027
0.203 -0.098 0.026
0.207 -0.098 0.027
0.211 -0.098 0.027
0.207 -0.094 0.027
0.209 -0.093 0.027
0.206 -0.089 0.026
0.213 -0.090 0.027
0.217 -0.090 0.028
0.220 -0.089 0.028
0.219 -0.086 0.028
0.215 -0.083 0.027
0.210 -0.079 0.026
0.216 -0.079 0.027
0.222 -0.079 0.028
0.223 -0.077 0.028
0.231 -0.077 0.029
0.239 -0.078 0.030
0.243 -0.077 0.030
0.256 -0.079 0.032
0.260 -0.077 0.032
0.265 -0.076 0.033
0.280 -0.078 0.035
0.409 -0.110 0.051
0.417 -0.108 0.052
0.420 -0.105 0.052
0.429 -0.104 0.053
0.426 -0.099 0.053
0.347 -0.077 0.043
0.382 -0.074 0.047
0.371 -0.069 0.046
0.282 -0.047 0.035
0.280 -0.044 0.035
0.283 -0.042 0.035
0.284 -0.040 0.035
0.287 -0.038 0.035
0.289 -0.035 0.036
0.292 -0.033 0.036
0.293 -0.030 0.036
0.291 -0.028 0.036
0.291 -0.025 0.036
0.289 -0.022 0.036
0.289 -0.020 0.035
0.289 -0.017 0.035
0.291 -0.014 0.036
0.294 -0.012 0.036
0.297 -0.009 0.036
0.302 -0.007 0.037
0.298 -0.004 0.037
0.293 -0.001 0.036
0.295 0.001 0.036
0.301 0.004 0.037
0.305 0.007 0.037
0.294 0.009 0.036
0.306 0.012 0.038
0.308 0.015 0.038
0.311 0.018 0.038
0.306 0.021 0.038
0.304 0.023 0.037
0.298 0.025 0.037
0.290 0.027 0.036
0.301 0.031 0.037
0.301 0.034 0.037
0.317 0.039 0.039
0.305 0.040 0.038
0.313 0.044 0.039
0.307 0.046 0.038
0.303 0.048 0.037
0.307 0.051 0.038
0.307 0.054 0.038
0.309 0.058 0.038
0.318 0.062 0.039
0.313 0.064 0.039
0.310 0.066 0.039
0.313 0.070 0.039
0.305 0.071 0.038
0.300 0.073 0.037
0.302 0.076 0.038
0.327 0.085 0.041
0.312 0.084 0.039
0.309 0.086 0.039
0.309 0.089 0.039
0.307 0.092 0.038
0.312 0.096 0.039
0.299 0.095 0.038
0.306 0.100 0.039
0.317 0.107 0.040
0.317 0.110 0.040
0.304 0.109 0.038
0.306 0.112 0.039
0.305 0.115 0.039
0.305 0.118 0.039
0.316 0.125 0.040
0.328 0.133 0.042
0.343 0.143 0.044
0.347 0.148 0.044
0.384 0.168 0.049
0.397 0.178 0.051
0.394 0.180 0.051
0.386 0.181 0.050
0.380 0.182 0.049
0.372 0.182 0.048
0.369 0.185 0.048
0.364 0.186 0.047
0.350 0.182 0.046
0.342 0.182 0.045
0.337 0.183 0.044
0.331 0.183 0.044
0.326 0.184 0.043
0.317 0.183 0.042
0.313 0.184 0.041
0.308 0.184 0.041
0.303 0.185 0.040
0.299 0.186 0.040
0.293 0.185 0.039
0.288 0.186 0.039
0.283 0.186 0.038
0.278 0.186 0.038
0.272 0.185 0.037
0.268 0.186 0.037
0.265 0.187 0.036
0.263 0.189 0.036
0.262 0.192 0.036
0.261 0.195 0.036
0.260 0.197 0.036
0.259 0.200 0.036
0.260 0.204 0.037
0.260 0.207 0.037
0.260 0.211 0.037
0.260 0.214 0.037
0.258 0.216 0.037
0.258 0.220 0.037
0.258 0.223 0.037
0.256 0.226 0.037
0.257 0.230 0.037
0.256 0.234 0.038
0.257 0.238 0.038
0.256 0.242 0.038
0.256 0.246 0.038
0.255 0.249 0.038
0.254 0.251 0.038
0.357 0.366 0.055
0.361 0.376 0.055
0.333 0.358 0.052
0.323 0.353 0.051
0.309 0.344 0.049
0.292 0.330 0.046
0.296 0.340 0.047
0.297 0.347 0.048
0.293 0.348 0.047
0.295 0.357 0.048
0.302 0.371 0.050
0.302 0.377 0.050
0.299 0.379 0.050
0.299 0.385 0.050
0.299 0.391 0.051
0.176 -0.244 0.032
0.177 -0.242 0.032
0.180 -0.243 0.032
0.185 -0.246 0.033
0.258 -0.339 0.046
0.260 -0.337 0.046
0.266 -0.340 0.047
0.267 -0.336 0.047
0.272 -0.318 0.046
0.279 -0.321 0.047
0.280 -0.318 0.047
0.282 -0.315 0.047
0.282 -0.311 0.047
0.288 -0.312 0.047
0.290 -0.309 0.047
0.289 -0.304 0.047
0.289 -0.299 0.047
0.289 -0.294 0.046
0.287 -0.288 0.046
0.288 -0.285 0.046
0.289 -0.282 0.046
0.288 -0.276 0.045
0.295 -0.278 0.046
0.295 -0.274 0.046
0.292 -0.267 0.045
0.291 -0.262 0.045
0.292 -0.259 0.045
0.292 -0.255 0.045
0.290 -0.249 0.044
0.293 -0.247 0.044
0.294 -0.245 0.044
0.288 -0.236 0.043
0.205 -0.158 0.030
0.201 -0.152 0.030
0.203 -0.151 0.030
0.210 -0.153 0.031
0.204 -0.146 0.030
0.205 -0.145 0.030
0.209 -0.145 0.030
0.210 -0.143 0.030
0.212 -0.142 0.031
0.208 -0.137 0.030
0.205 -0.133 0.029
0.205 -0.130 0.029
0.207 -0.129 0.030
0.210 -0.129 0.030
0.212 -0.127 0.030
0.212 -0.125 0.030
0.212 -0.123 0.030
0.213 -0.121 0.030
0.208 -0.116 0.029
0.211 -0.115 0.030
0.213 -0.114 0.030
0.214 -0.112 0.030
0.211 -0.109 0.029
0.212 -0.107 0.029
0.206 -0.102 0.029
0.203 -0.098 0.028
0.205 -0.097 0.028
0.210 -0.097 0.029
0.206 -0.093 0.028
0.209 -0.093 0.029
0.204 -0.089 0.028
0.211 -0.089 0.029
0.215 -0.089 0.029
0.218 -0.088 0.030
0.220 -0.087 0.030
0.215 -0.083 0.029
0.213 -0.080 0.029
0.214 -0.078 0.029
0.222 -0.079 0.030
0.224 -0.077 0.030
0.226 -0.076 0.030
0.235 -0.077 0.032
0.249 -0.079 0.033
0.255 -0.078 0.034
0.255 -0.076 0.034
0.268 -0.077 0.036
0.277 -0.077 0.037
0.411 -0.111 0.055
0.416 -0.108 0.056
0.422 -0.106 0.056
0.424 -0.102 0.057
0.422 -0.098 0.056
0.353 -0.072 0.047
0.359 -0.070 0.048
0.362 -0.067 0.048
0.285 -0.048 0.038
0.285 -0.045 0.038
0.282 -0.042 0.037
0.283 -0.040 0.037
0.286 -0.037 0.038
0.288 -0.035 0.038
0.291 -0.033 0.038
0.293 -0.031 0.039
0.292 -0.028 0.039
0.290 -0.025 0.038
0.289 -0.022 0.038
0.289 -0.020 0.038
0.289 -0.017 0.038
0.296 -0.015 0.039
0.296 -0.012 0.039
0.294 -0.009 0.039
0.295 -0.007 0.039
0.290 -0.004 0.038
0.288 -0.001 0.038
0.295 0.001 0.039
0.301 0.004 0.040
0.304 0.007 0.040
0.305 0.010 0.040
0.300 0.012 0.040
0.301 0.015 0.040
0.305 0.018 0.040
0.303 0.020 0.040
0.308 0.024 0.041
0.312 0.027 0.041
0.315 0.030 0.042
0.302 0.031 0.040
0.307 0.035 0.041
0.297 0.036 0.039
0.303 0.040 0.040
0.305 0.043 0.040
0.308 0.046 0.041
0.310 0.049 0.041
0.302 0.051 0.040
0.305 0.054 0.040
0.312 0.058 0.041
0.317 0.062 0.042
0.329 0.067 0.044
0.318 0.068 0.042
0.315 0.070 0.042
0.317 0.074 0.042
0.318 0.077 0.042
0.309 0.078 0.041
0.302 0.079 0.040
0.300 0.081 0.040
0.303 0.085 0.041
0.310 0.090 0.042
0.309 0.092 0.042
0.302 0.093 0.041
0.301 0.096 0.041
0.309 0.101 0.042
0.323 0.109 0.044
0.318 0.111 0.043
0.310 0.111 0.042
0.310 0.114 0.042
0.302 0.114 0.041
0.301 0.116 0.041
0.315 0.125 0.043
0.334 0.136 0.046
0.336 0.140 0.046
0.345 0.147 0.047
0.395 0.177 0.055
0.393 0.180 0.054
0.388 0.182 0.054
0.379 0.182 0.053
0.374 0.183 0.052
0.367 0.184 0.051
0.358 0.183 0.050
0.348 0.182 0.049
0.342 0.182 0.048
0.334 0.181 0.047
0.329 0.183 0.047
0.323 0.183 0.046
0.318 0.183 0.045
0.313 0.184 0.045
0.308 0.185 0.044
0.302 0.184 0.043
0.298 0.185 0.043
0.293 0.186 0.042
0.288 0.186 0.042
0.284 0.187 0.041
0.276 0.185 0.040
0.271 0.185 0.040
0.267 0.185 0.039
0.264 0.186 0.039
0.262 0.189 0.039
0.262 0.192 0.039
0.261 0.195 0.039
0.260 0.197 0.039
0.259 0.200 0.039
0.259 0.203 0.039
0.260 0.207 0.039
0.259 0.210 0.039
0.260 0.214 0.040
0.259 0.217 0.040
0.258 0.220 0.040
0.257 0.223 0.040
0.257 0.227 0.040
0.256 0.230 0.040
0.256 0.233 0.040
0.256 0.238 0.041
0.257 0.242 0.041
0.256 0.246 0.041
0.254 0.248 0.041
0.256 0.254 0.041
0.263 0.265 0.043
0.323 0.348 0.054
0.318 0.349 0.054
0.312 0.347 0.053
0.278 0.316 0.047
0.285 0.328 0.049
0.295 0.346 0.051
0.294 0.350 0.051
0.296 0.358 0.052
0.299 0.368 0.053
0.301 0.376 0.053
0.298 0.378 0.053
0.297 0.383 0.053
0.297 0.388 0.054
0.182 -0.252 0.035
0.178 -0.244 0.034
0.184 -0.248 0.035
0.194 -0.258 0.037
0.266 -0.349 0.050
0.270 -0.350 0.051
0.272 -0.348 0.051
0.278 -0.350 0.052
0.280 -0.347 0.052
0.283 -0.347 0.052
0.283 -0.341 0.052
0.286 -0.339 0.052
0.283 -0.332 0.051
0.280 -0.323 0.050
0.284 -0.322 0.051
0.287 -0.321 0.051
0.288 -0.318 0.051
0.288 -0.313 0.051
0.290 -0.310 0.051
0.289 -0.305 0.050
0.289 -0.300 0.050
0.289 -0.296 0.050
0.288 -0.290 0.049
0.287 -0.285 0.049
0.286 -0.279 0.048
0.288 -0.276 0.048
0.291 -0.275 0.049
0.290 -0.270 0.048
0.290 -0.265 0.048
0.290 -0.262 0.048
0.291 -0.258 0.048
0.289 -0.252 0.047
0.288 -0.248 0.047
0.287 -0.243 0.047
0.283 -0.236 0.046
0.279 -0.229 0.045
0.274 -0.221 0.044
0.202 -0.155 0.032
0.200 -0.151 0.032
0.204 -0.151 0.032
0.205 -0.150 0.032
0.203 -0.146 0.032
0.198 -0.140 0.031
0.200 -0.139 0.031
0.208 -0.142 0.032
0.213 -0.143 0.033
0.214 -0.141 0.033
0.211 -0.136 0.032
0.202 -0.128 0.031
0.205 -0.128 0.031
0.209 -0.128 0.032
0.210 -0.126 0.032
0.212 -0.125 0.032
0.211 -0.122 0.032
0.204 -0.116 0.031
0.212 -0.118 0.032
0.204 -0.112 0.030
0.213 -0.114 0.032
0.210 -0.111 0.031
0.211 -0.109 0.031
0.211 -0.107 0.031
0.213 -0.105 0.032
0.202 -0.098 0.030
0.202 -0.096 0.030
0.206 -0.095 0.030
0.212 -0.096 0.031
0.202 -0.090 0.030
0.210 -0.091 0.031
0.203 -0.086 0.030
0.211 -0.088 0.031
0.218 -0.088 0.032
0.219 -0.086 0.032
0.216 -0.083 0.031
0.201 -0.075 0.029
0.212 -0.077 0.031
0.218 -0.077 0.031
0.225 -0.078 0.032
0.228 -0.076 0.033
0.230 -0.075 0.033
0.244 -0.077 0.035
0.252 -0.077 0.036
0.255 -0.076 0.037
0.259 -0.075 0.037
0.411 -0.111 0.059
0.414 -0.108 0.059
0.415 -0.104 0.059
0.416 -0.101 0.059
0.408 -0.095 0.058
0.403 -0.090 0.057
0.387 -0.083 0.055
0.360 -0.074 0.051
0.352 -0.069 0.050
0.347 -0.065 0.049
0.337 -0.060 0.048
0.286 -0.048 0.040
0.286 -0.045 0.040
0.284 -0.042 0.040
0.282 -0.040 0.040
0.285 -0.037 0.040
0.286 -0.035 0.040
0.289 -0.033 0.041
0.290 -0.030 0.041
0.289 -0.027 0.041
0.289 -0.025 0.041
0.288 -0.022 0.041
0.289 -0.020 0.041
0.294 -0.017 0.041
0.297 -0.015 0.042
0.294 -0.012 0.041
0.292 -0.009 0.041
0.292 -0.007 0.041
0.292 -0.004 0.041
0.295 -0.001 0.042
0.298 0.001 0.042
0.299 0.004 0.042
0.299 0.007 0.042
0.298 0.009 0.042
0.298 0.012 0.042
0.300 0.015 0.042
0.304 0.018 0.043
0.306 0.021 0.043
0.306 0.023 0.043
0.312 0.027 0.044
0.298 0.028 0.042
0.308 0.032 0.043
0.301 0.034 0.042
0.298 0.036 0.042
0.294 0.039 0.042
0.303 0.043 0.043
0.306 0.046 0.043
0.302 0.048 0.043
0.299 0.050 0.042
0.308 0.055 0.044
0.316 0.059 0.045
0.322 0.063 0.046
0.311 0.064 0.044
0.315 0.067 0.045
0.314 0.070 0.045
0.325 0.076 0.046
0.318 0.077 0.045
0.309 0.078 0.044
0.294 0.077 0.042
0.298 0.081 0.043
0.300 0.084 0.043
0.306 0.089 0.044
0.302 0.090 0.043
0.304 0.094 0.044
0.295 0.094 0.043
0.317 0.104 0.046
0.320 0.108 0.046
0.311 0.108 0.045
0.318 0.114 0.046
0.316 0.116 0.046
0.301 0.114 0.044
0.297 0.115 0.043
0.320 0.127 0.047
0.334 0.136 0.049
0.338 0.141 0.050
0.341 0.146 0.050
0.354 0.155 0.052
0.385 0.172 0.057
0.395 0.181 0.058
0.388 0.182 0.058
0.378 0.181 0.056
0.373 0.183 0.055
0.363 0.181 0.054
0.355 0.182 0.053
0.349 0.182 0.052
0.339 0.181 0.051
0.332 0.181 0.050
0.327 0.181 0.049
0.323 0.183 0.049
0.318 0.183 0.048
0.312 0.184 0.048
0.307 0.184 0.047
0.301 0.184 0.046
0.296 0.184 0.046
0.292 0.185 0.045
0.287 0.186 0.044
0.283 0.186 0.044
0.280 0.187 0.044
0.271 0.185 0.042
0.266 0.185 0.042
0.263 0.186 0.041
0.262 0.189 0.041
0.261 0.192 0.041
0.261 0.194 0.042
0.260 0.197 0.042
0.260 0.201 0.042
0.259 0.203 0.042
0.259 0.206 0.042
0.258 0.210 0.042
0.259 0.214 0.042
0.258 0.217 0.042
0.258 0.220 0.042
0.257 0.223 0.043
0.257 0.227 0.043
0.256 0.230 0.043
0.255 0.233 0.043
0.255 0.237 0.043
0.256 0.242 0.044
0.256 0.246 0.044
0.256 0.250 0.044
0.255 0.253 0.044
0.260 0.263 0.045
0.288 0.301 0.051
0.294 0.313 0.052
0.300 0.324 0.054
0.308 0.338 0.055
0.295 0.329 0.053
0.282 0.320 0.051
0.285 0.329 0.052
0.288 0.338 0.053
0.289 0.344 0.054
0.296 0.358 0.055
0.305 0.375 0.057
0.300 0.375 0.057
0.298 0.379 0.057
0.296 0.382 0.057
0.296 0.387 0.057
0.177 -0.245 0.036
0.176 -0.241 0.036
0.190 -0.256 0.039
0.196 -0.261 0.040
0.275 -0.356 0.055
0.279 -0.356 0.055
0.281 -0.354 0.056
0.283 -0.351 0.056
0.284 -0.348 0.056
0.286 -0.345 0.056
0.286 -0.340 0.055
0.287 -0.337 0.055
0.287 -0.331 0.055
0.289 -0.329 0.055
0.291 -0.326 0.055
0.290 -0.320 0.054
0.290 -0.316 0.054
0.291 -0.311 0.054
0.289 -0.305 0.053
0.290 -0.302 0.053
0.292 -0.298 0.053
0.290 -0.292 0.053
0.288 -0.286 0.052
0.286 -0.279 0.052
0.288 -0.277 0.052
0.289 -0.273 0.052
0.287 -0.268 0.051
0.288 -0.264 0.051
0.289 -0.261 0.051
0.286 -0.254 0.050
0.286 -0.250 0.050
0.286 -0.246 0.050
0.284 -0.241 0.049
0.281 -0.234 0.048
0.280 -0.229 0.048
0.277 -0.223 0.047
0.205 -0.158 0.035
0.201 -0.152 0.034
0.202 -0.151 0.034
0.205 -0.150 0.034
0.204 -0.147 0.034
0.200 -0.141 0.033
0.201 -0.139 0.033
0.203 -0.139 0.034
0.209 -0.140 0.034
0.212 -0.140 0.035
0.214 -0.139 0.035
0.206 -0.131 0.033
0.202 -0.127 0.033
0.205 -0.126 0.033
0.209 -0.126 0.034
0.211 -0.125 0.034
0.209 -0.121 0.034
0.208 -0.119 0.033
0.210 -0.118 0.034
0.212 -0.116 0.034
0.205 -0.110 0.033
0.211 -0.111 0.033
0.213 -0.110 0.034
0.214 -0.108 0.034
0.215 -0.106 0.034
0.216 -0.105 0.034
0.210 -0.100 0.033
0.209 -0.097 0.033
0.213 -0.097 0.033
0.214 -0.095 0.033
0.205 -0.089 0.032
0.215 -0.091 0.033
0.209 -0.086 0.032
0.215 -0.087 0.033
0.218 -0.086 0.034
0.215 -0.083 0.033
0.213 -0.080 0.033
0.214 -0.078 0.033
0.220 -0.078 0.034
0.225 -0.078 0.035
0.234 -0.079 0.036
0.233 -0.076 0.036
0.239 -0.076 0.037
0.247 -0.076 0.038
0.253 -0.075 0.039
0.261 -0.075 0.040
0.277 -0.077 0.042
0.406 -0.109 0.062
0.405 -0.105 0.062
0.404 -0.101 0.061
0.405 -0.098 0.061
0.412 -0.096 0.062
0.401 -0.090 0.061
0.394 -0.084 0.060
0.349 -0.068 0.053
0.340 -0.063 0.051
0.285 -0.048 0.043
0.283 -0.045 0.043
0.282 -0.042 0.042
0.283 -0.040 0.043
0.283 -0.037 0.043
0.285 -0.035 0.043
0.287 -0.032 0.043
0.288 -0.030 0.043
0.287 -0.027 0.043
0.290 -0.025 0.043
0.292 -0.022 0.044
0.294 -0.020 0.044
0.296 -0.017 0.044
0.297 -0.015 0.044
0.295 -0.012 0.044
0.292 -0.009 0.044
0.295 -0.007 0.044
0.296 -0.004 0.044
0.299 -0.001 0.045
0.298 0.001 0.045
0.298 0.004 0.045
0.298 0.007 0.045
0.295 0.009 0.044
0.293 0.012 0.044
0.299 0.015 0.045
0.295 0.017 0.044
0.295 0.020 0.044
0.300 0.023 0.045
0.293 0.025 0.044
0.299 0.028 0.045
0.298 0.031 0.045
0.302 0.034 0.045
0.297 0.036 0.045
0.296 0.039 0.045
0.298 0.042 0.045
0.299 0.045 0.045
0.298 0.047 0.045
0.300 0.050 0.045
0.305 0.054 0.046
0.312 0.058 0.047
0.302 0.059 0.046
0.297 0.061 0.045
0.311 0.067 0.047
0.319 0.071 0.048
0.313 0.073 0.048
0.317 0.077 0.048
0.306 0.077 0.047
0.294 0.077 0.045
0.295 0.080 0.045
0.299 0.084 0.046
0.299 0.087 0.046
0.298 0.089 0.046
0.294 0.091 0.045
0.298 0.095 0.046
0.313 0.103 0.048
0.305 0.103 0.047
0.305 0.106 0.047
0.315 0.113 0.049
0.320 0.118 0.050
0.308 0.116 0.048
0.308 0.119 0.048
0.318 0.126 0.050
0.333 0.136 0.052
0.343 0.143 0.054
0.340 0.145 0.053
0.393 0.176 0.062
0.391 0.179 0.062
0.380 0.178 0.060
0.373 0.179 0.059
0.370 0.182 0.059
0.362 0.181 0.058
0.355 0.182 0.057
0.348 0.182 0.055
0.339 0.181 0.054
0.332 0.180 0.053
0.327 0.182 0.053
0.323 0.183 0.052
0.318 0.183 0.051
0.311 0.183 0.051
0.306 0.184 0.050
0.299 0.183 0.049
0.295 0.184 0.048
0.291 0.185 0.048
0.286 0.185 0.047
0.283 0.187 0.047
0.277 0.186 0.046
0.274 0.187 0.046
0.267 0.186 0.045
0.264 0.187 0.044
0.262 0.189 0.044
0.261 0.191 0.044
0.261 0.194 0.044
0.261 0.198 0.044
0.260 0.201 0.044
0.260 0.204 0.045
0.258 0.207 0.045
0.258 0.210 0.045
0.258 0.213 0.045
0.258 0.217 0.045
0.258 0.220 0.045
0.257 0.223 0.045
0.258 0.228 0.046
0.257 0.231 0.046
0.256 0.234 0.046
0.255 0.238 0.046
0.255 0.241 0.046
0.255 0.245 0.046
0.256 0.250 0.047
0.255 0.254 0.047
0.259 0.262 0.048
0.285 0.298 0.054
0.292 0.311 0.055
0.290 0.314 0.055
0.281 0.308 0.054
0.284 0.318 0.055
0.283 0.321 0.055
0.283 0.327 0.055
0.288 0.338 0.056
0.288 0.344 0.057
0.292 0.355 0.058
0.298 0.368 0.060
0.300 0.376 0.061
0.297 0.378 0.060
0.294 0.380 0.060
0.292 0.382 0.060
0.150 -0.208 0.033
0.278 -0.360 0.059
0.280 -0.358 0.059
0.282 -0.356 0.059
0.282 -0.351 0.059
0.284 -0.349 0.059
0.287 -0.347 0.059
0.290 -0.345 0.059
0.287 -0.337 0.059
0.289 -0.334 0.059
0.290 -0.331 0.059
0.292 -0.328 0.059
0.292 -0.322 0.058
0.291 -0.317 0.058
0.291 -0.312 0.057
0.291 -0.308 0.057
0.292 -0.303 0.057
0.292 -0.299 0.057
0.292 -0.294 0.056
0.291 -0.289 0.056
0.289 -0.282 0.055
0.290 -0.278 0.055
0.290 -0.274 0.055
0.289 -0.269 0.054
0.288 -0.265 0.054
0.288 -0.260 0.054
0.287 -0.255 0.053
0.285 -0.250 0.053
0.285 -0.246 0.052
0.285 -0.242 0.052
0.282 -0.236 0.052
0.282 -0.231 0.051
0.279 -0.225 0.050
0.268 -0.213 0.048
0.199 -0.150 0.035
0.200 -0.149 0.036
0.206 -0.151 0.037
0.208 -0.149 0.037
0.204 -0.144 0.036
0.204 -0.142 0.036
0.205 -0.140 0.036
0.208 -0.139 0.036
0.209 -0.138 0.036
0.212 -0.138 0.037
0.213 -0.136 0.037
0.204 -0.127 0.035
0.204 -0.126 0.035
0.209 -0.126 0.036
0.209 -0.124 0.036
0.208 -0.121 0.035
0.207 -0.118 0.035
0.209 -0.117 0.035
0.215 -0.118 0.036
0.205 -0.110 0.035
0.210 -0.111 0.035
0.212 -0.109 0.036
0.214 -0.108 0.036
0.213 -0.106 0.036
0.216 -0.105 0.036
0.203 -0.097 0.034
0.206 -0.096 0.034
0.210 -0.095 0.035
0.211 -0.094 0.035
0.205 -0.089 0.034
0.214 -0.091 0.035
0.202 -0.084 0.033
0.215 -0.087 0.035
0.213 -0.084 0.035
0.210 -0.081 0.034
0.213 -0.080 0.035
0.211 -0.077 0.035
0.223 -0.079 0.036
0.229 -0.079 0.037
0.228 -0.077 0.037
0.240 -0.078 0.039
0.238 -0.075 0.039
0.245 -0.075 0.040
0.252 -0.075 0.041
0.263 -0.076 0.042
0.373 -0.101 0.060
0.389 -0.101 0.063
0.401 -0.101 0.065
0.403 -0.097 0.065
0.400 -0.093 0.064
0.399 -0.089 0.064
0.389 -0.083 0.062
0.369 -0.076 0.059
0.357 -0.070 0.057
0.342 -0.064 0.055
0.296 -0.050 0.047
0.281 -0.045 0.045
0.282 -0.042 0.045
0.282 -0.040 0.045
0.283 -0.037 0.045
0.285 -0.035 0.045
0.288 -0.033 0.046
0.286 -0.030 0.046
0.287 -0.027 0.046
0.292 -0.025 0.047
0.297 -0.023 0.047
0.298 -0.020 0.047
0.298 -0.018 0.047
0.296 -0.015 0.047
0.295 -0.012 0.047
0.291 -0.009 0.046
0.292 -0.007 0.046
0.295 -0.004 0.047
0.298 -0.001 0.047
0.297 0.001 0.047
0.297 0.004 0.047
0.295 0.007 0.047
0.298 0.009 0.047
0.301 0.012 0.048
0.292 0.014 0.047
0.285 0.017 0.045
0.286 0.019 0.046
0.303 0.023 0.048
0.302 0.026 0.048
0.293 0.028 0.047
0.301 0.031 0.048
0.301 0.034 0.048
0.304 0.037 0.049
0.302 0.040 0.048
0.301 0.042 0.048
0.302 0.045 0.048
0.300 0.048 0.048
0.295 0.050 0.047
0.300 0.053 0.048
0.303 0.057 0.049
0.301 0.059 0.048
0.307 0.063 0.049
0.310 0.067 0.050
0.308 0.069 0.050
0.318 0.074 0.051
0.316 0.077 0.051
0.310 0.078 0.050
0.300 0.079 0.049
0.295 0.080 0.048
0.295 0.083 0.048
0.303 0.088 0.049
0.295 0.088 0.048
0.290 0.090 0.047
0.285 0.091 0.046
0.298 0.101 0.049
0.300 0.104 0.049
0.312 0.112 0.051
0.316 0.116 0.052
0.309 0.117 0.051
0.307 0.119 0.051
0.317 0.126 0.052
0.337 0.138 0.056
0.336 0.140 0.056
0.370 0.159 0.061
0.376 0.165 0.063
0.387 0.174 0.065
0.381 0.175 0.064
0.373 0.175 0.062
0.369 0.177 0.062
0.365 0.179 0.061
0.362 0.181 0.061
0.351 0.180 0.059
0.346 0.181 0.059
0.342 0.183 0.058
0.335 0.183 0.057
0.328 0.182 0.056
0.323 0.183 0.055
0.318 0.184 0.054
0.311 0.183 0.053
0.305 0.183 0.053
0.300 0.184 0.052
0.295 0.184 0.051
0.291 0.185 0.051
0.287 0.186 0.050
0.283 0.186 0.050
0.277 0.186 0.049
0.272 0.186 0.048
0.268 0.187 0.048
0.265 0.187 0.047
0.262 0.189 0.047
0.261 0.191 0.047
0.260 0.194 0.047
0.260 0.198 0.047
0.260 0.201 0.047
0.259 0.204 0.047
0.259 0.207 0.047
0.258 0.210 0.047
0.257 0.213 0.047
0.258 0.218 0.048
0.257 0.220 0.048
0.257 0.224 0.048
0.257 0.228 0.048
0.257 0.232 0.049
0.256 0.235 0.049
0.256 0.238 0.049
0.255 0.241 0.049
0.256 0.246 0.049
0.256 0.251 0.050
0.256 0.254 0.050
0.259 0.262 0.051
0.286 0.299 0.057
0.289 0.307 0.058
0.290 0.314 0.058
0.279 0.307 0.057
0.273 0.305 0.056
0.276 0.313 0.057
0.279 0.323 0.058
0.286 0.336 0.060
0.288 0.344 0.060
0.292 0.355 0.062
0.297 0.366 0.063
0.298 0.374 0.064
0.295 0.375 0.063
0.291 0.376 0.063
0.287 0.377 0.063
0.116 -0.161 0.027
0.122 -0.167 0.028
0.126 -0.171 0.029
0.136 -0.181 0.031
0.274 -0.347 0.061
0.281 -0.350 0.062
0.282 -0.347 0.062
0.288 -0.348 0.063
0.288 -0.344 0.063
0.288 -0.339 0.062
0.288 -0.334 0.062
0.291 -0.332 0.062
0.292 -0.328 0.062
0.292 -0.323 0.061
0.291 -0.317 0.061
0.291 -0.313 0.061
0.292 -0.309 0.061
0.293 -0.304 0.060
0.292 -0.299 0.060
0.292 -0.294 0.059
0.292 -0.290 0.059
0.291 -0.284 0.059
0.291 -0.280 0.058
0.289 -0.274 0.058
0.289 -0.270 0.057
0.289 -0.265 0.057
0.288 -0.260 0.057
0.287 -0.256 0.056
0.286 -0.251 0.056
0.285 -0.246 0.055
0.285 -0.242 0.055
0.284 -0.237 0.055
0.282 -0.232 0.054
0.280 -0.226 0.054
0.271 -0.215 0.052
0.259 -0.202 0.049
0.208 -0.160 0.039
0.200 -0.151 0.038
0.202 -0.150 0.038
0.206 -0.151 0.039
0.205 -0.148 0.038
0.203 -0.144 0.038
0.204 -0.142 0.038
0.210 -0.144 0.039
0.211 -0.142 0.039
0.213 -0.141 0.039
0.215 -0.139 0.039
0.220 -0.140 0.040
0.216 -0.135 0.039
0.211 -0.130 0.038
0.209 -0.126 0.038
0.207 -0.122 0.037
0.206 -0.120 0.037
0.209 -0.119 0.038
0.210 -0.118 0.038
0.204 -0.112 0.036
0.210 -0.113 0.037
0.201 -0.106 0.036
0.211 -0.109 0.037
0.209 -0.106 0.037
0.216 -0.107 0.038
0.213 -0.103 0.038
0.210 -0.100 0.037
0.201 -0.094 0.035
0.198 -0.090 0.035
0.205 -0.091 0.036
0.214 -0.093 0.037
0.216 -0.089 0.038
0.203 -0.082 0.035
0.211 -0.083 0.037
0.211 -0.081 0.037
0.204 -0.077 0.035
0.204 -0.075 0.035
0.221 -0.079 0.038
0.227 -0.078 0.039
0.227 -0.076 0.039
0.227 -0.074 0.039
0.240 -0.076 0.041
0.243 -0.075 0.042
0.250 -0.075 0.043
0.261 -0.075 0.045
0.267 -0.075 0.046
0.393 -0.102 0.067
0.403 -0.101 0.069
0.401 -0.097 0.068
0.390 -0.091 0.066
0.385 -0.086 0.065
0.378 -0.081 0.064
0.369 -0.076 0.063
0.357 -0.070 0.060
0.343 -0.064 0.058
0.294 -0.049 0.050
0.285 -0.045 0.048
0.283 -0.042 0.048
0.284 -0.040 0.048
0.282 -0.037 0.048
0.285 -0.035 0.048
0.286 -0.032 0.048
0.284 -0.030 0.048
0.286 -0.027 0.048
0.290 -0.025 0.049
0.296 -0.023 0.050
0.298 -0.020 0.050
0.296 -0.017 0.050
0.296 -0.015 0.050
0.294 -0.012 0.049
0.291 -0.009 0.049
0.290 -0.007 0.049
0.294 -0.004 0.049
0.297 -0.001 0.050
0.296 0.001 0.050
0.293 0.004 0.049
0.295 0.007 0.050
0.301 0.009 0.051
0.302 0.012 0.051
0.295 0.015 0.050
0.291 0.017 0.049
0.296 0.020 0.050
0.297 0.023 0.050
0.297 0.026 0.050
0.297 0.028 0.050
0.296 0.031 0.050
0.300 0.034 0.051
0.304 0.037 0.051
0.300 0.039 0.051
0.300 0.042 0.051
0.301 0.045 0.051
0.302 0.048 0.051
0.301 0.051 0.051
0.302 0.054 0.051
0.303 0.057 0.051
0.307 0.060 0.052
0.314 0.064 0.053
0.296 0.064 0.050
0.307 0.069 0.052
0.312 0.073 0.053
0.314 0.076 0.054
0.309 0.078 0.053
0.302 0.079 0.052
0.297 0.081 0.051
0.298 0.084 0.051
0.301 0.087 0.052
0.300 0.090 0.052
0.285 0.088 0.049
0.272 0.087 0.047
0.268 0.088 0.046
0.276 0.094 0.048
0.290 0.101 0.050
0.301 0.108 0.052
0.306 0.113 0.053
0.304 0.115 0.053
0.306 0.119 0.053
0.320 0.127 0.056
0.332 0.136 0.058
0.370 0.158 0.065
0.376 0.165 0.066
0.377 0.169 0.066
0.374 0.172 0.066
0.370 0.174 0.065
0.364 0.175 0.065
0.360 0.177 0.064
0.354 0.178 0.063
0.347 0.178 0.062
0.343 0.179 0.061
0.341 0.182 0.061
0.334 0.182 0.060
0.327 0.182 0.059
0.320 0.181 0.058
0.315 0.182 0.057
0.310 0.183 0.056
0.304 0.183 0.056
0.301 0.184 0.055
0.297 0.185 0.055
0.291 0.185 0.054
0.287 0.186 0.053
0.283 0.186 0.052
0.277 0.186 0.052
0.271 0.185 0.051
0.267 0.186 0.050
0.264 0.187 0.050
0.262 0.189 0.049
0.260 0.191 0.049
0.259 0.194 0.049
0.259 0.197 0.049
0.259 0.200 0.050
0.259 0.204 0.050
0.260 0.208 0.050
0.258 0.211 0.050
0.258 0.214 0.050
0.258 0.217 0.050
0.258 0.221 0.051
0.257 0.224 0.051
0.257 0.228 0.051
0.257 0.232 0.051
0.257 0.235 0.052
0.256 0.239 0.052
0.255 0.242 0.052
0.255 0.246 0.052
0.256 0.251 0.053
0.254 0.253 0.053
0.262 0.266 0.054
0.275 0.283 0.057
0.275 0.288 0.058
0.272 0.299 0.058
0.267 0.299 0.058
0.267 0.304 0.058
0.277 0.320 0.060
0.281 0.331 0.062
0.287 0.344 0.064
0.291 0.354 0.065
0.294 0.363 0.066
0.294 0.369 0.067
0.292 0.372 0.066
0.283 0.367 0.065
0.282 0.371 0.065
0.110 -0.153 0.027
0.116 -0.159 0.028
0.118 -0.160 0.028
0.129 -0.172 0.031
0.287 -0.342 0.065
0.288 -0.339 0.065
0.290 -0.336 0.065
0.290 -0.331 0.065
0.291 -0.327 0.065
0.291 -0.322 0.065
0.290 -0.317 0.064
0.291 -0.312 0.064
0.293 -0.309 0.064
0.294 -0.306 0.064
0.291 -0.298 0.063
0.292 -0.295 0.063
0.293 -0.292 0.063
0.292 -0.286 0.062
0.289 -0.279 0.061
0.289 -0.274 0.061
0.289 -0.270 0.061
0.289 -0.266 0.060
0.287 -0.260 0.060
0.287 -0.256 0.059
0.286 -0.251 0.059
0.285 -0.246 0.058
0.285 -0.242 0.058
0.284 -0.237 0.058
0.283 -0.233 0.057
0.282 -0.228 0.057
0.273 -0.217 0.055
0.221 -0.171 0.044
0.213 -0.162 0.042
0.208 -0.155 0.041
0.205 -0.151 0.041
0.207 -0.149 0.041
0.205 -0.145 0.040
0.204 -0.142 0.040
0.207 -0.142 0.040
0.213 -0.143 0.041
0.217 -0.143 0.042
0.221 -0.144 0.043
0.222 -0.141 0.043
0.219 -0.137 0.042
0.214 -0.132 0.041
0.207 -0.125 0.040
0.205 -0.121 0.039
0.206 -0.120 0.039
0.210 -0.120 0.040
0.211 -0.118 0.040
0.208 -0.114 0.039
0.204 -0.110 0.038
0.212 -0.112 0.040
0.210 -0.108 0.039
0.208 -0.105 0.039
0.210 -0.104 0.039
0.212 -0.103 0.039
0.209 -0.100 0.039
0.203 -0.094 0.038
0.216 -0.098 0.040
0.213 -0.095 0.039
0.212 -0.092 0.039
0.215 -0.091 0.040
0.209 -0.087 0.038
0.215 -0.087 0.039
0.214 -0.085 0.039
0.213 -0.082 0.039
0.216 -0.081 0.039
0.215 -0.079 0.039
0.221 -0.079 0.040
0.224 -0.078 0.041
0.223 -0.075 0.040
0.225 -0.074 0.041
0.231 -0.073 0.042
0.241 -0.074 0.044
0.250 -0.075 0.045
0.258 -0.075 0.046
0.266 -0.074 0.048
0.390 -0.102 0.070
0.400 -0.101 0.072
0.393 -0.095 0.071
0.388 -0.090 0.069
0.380 -0.085 0.068
0.375 -0.080 0.067
0.368 -0.075 0.066
0.353 -0.069 0.063
0.288 -0.048 0.051
0.285 -0.045 0.051
0.285 -0.043 0.051
0.284 -0.040 0.051
0.286 -0.038 0.051
0.285 -0.035 0.051
0.285 -0.032 0.051
0.285 -0.030 0.051
0.283 -0.027 0.050
0.284 -0.024 0.050
0.290 -0.022 0.051
0.292 -0.020 0.052
0.290 -0.017 0.051
0.292 -0.015 0.052
0.293 -0.012 0.052
0.289 -0.009 0.051
0.292 -0.007 0.052
0.294 -0.004 0.052
0.293 -0.001 0.052
0.293 0.001 0.052
0.293 0.004 0.052
0.296 0.007 0.053
0.302 0.009 0.054
0.299 0.012 0.053
0.295 0.015 0.052
0.293 0.017 0.052
0.292 0.020 0.052
0.295 0.023 0.052
0.295 0.025 0.052
0.294 0.028 0.052
0.293 0.031 0.052
0.296 0.034 0.053
0.295 0.036 0.052
0.297 0.039 0.053
0.299 0.042 0.053
0.300 0.045 0.054
0.300 0.048 0.054
0.303 0.051 0.054
0.302 0.054 0.054
0.297 0.055 0.053
0.298 0.058 0.053
0.315 0.065 0.056
0.316 0.068 0.057
0.301 0.067 0.054
0.304 0.071 0.055
0.308 0.075 0.055
0.301 0.076 0.054
0.298 0.078 0.054
0.305 0.083 0.055
0.298 0.084 0.054
0.299 0.087 0.054
0.303 0.091 0.055
0.288 0.089 0.052
0.279 0.089 0.051
0.280 0.092 0.051
0.267 0.091 0.049
0.270 0.094 0.049
0.279 0.100 0.051
0.292 0.108 0.053
0.300 0.113 0.055
0.309 0.120 0.057
0.324 0.129 0.060
0.331 0.135 0.061
0.332 0.139 0.061
0.335 0.144 0.062
0.364 0.163 0.068
0.368 0.169 0.068
0.364 0.171 0.068
0.359 0.173 0.067
0.353 0.174 0.066
0.348 0.175 0.065
0.344 0.177 0.065
0.341 0.178 0.064
0.338 0.181 0.064
0.335 0.183 0.064
0.325 0.181 0.062
0.319 0.181 0.061
0.312 0.181 0.060
0.307 0.181 0.059
0.304 0.183 0.058
0.300 0.184 0.058
0.296 0.185 0.057
0.291 0.185 0.056
0.286 0.185 0.056
0.283 0.187 0.055
0.275 0.185 0.054
0.270 0.185 0.053
0.266 0.185 0.052
0.263 0.187 0.052
0.262 0.189 0.052
0.260 0.191 0.052
0.260 0.194 0.052
0.259 0.197 0.052
0.259 0.201 0.052
0.260 0.205 0.053
0.260 0.209 0.053
0.259 0.212 0.053
0.258 0.214 0.053
0.258 0.217 0.053
0.258 0.221 0.053
0.257 0.224 0.054
0.257 0.228 0.054
0.256 0.231 0.054
0.258 0.237 0.055
0.257 0.240 0.055
0.255 0.242 0.055
0.254 0.245 0.055
0.254 0.250 0.055
0.253 0.253 0.055
0.267 0.271 0.058
0.273 0.281 0.060
0.266 0.279 0.059
0.258 0.275 0.058
0.253 0.274 0.057
0.260 0.287 0.059
0.260 0.291 0.059
0.267 0.304 0.061
0.274 0.318 0.063
0.283 0.333 0.066
0.284 0.339 0.066
0.289 0.351 0.068
0.291 0.360 0.069
0.286 0.360 0.068
0.281 0.359 0.067
0.277 0.359 0.067
0.271 0.356 0.066
0.106 -0.148 0.027
0.106 -0.146 0.027
0.106 -0.144 0.027
0.107 -0.143 0.027
0.107 -0.141 0.027
0.110 -0.143 0.027
0.289 -0.336 0.069
0.290 -0.331 0.068
0.290 -0.326 0.068
0.290 -0.322 0.068
0.290 -0.317 0.067
0.291 -0.312 0.067
0.292 -0.309 0.067
0.291 -0.304 0.067
0.292 -0.299 0.066
0.292 -0.296 0.066
0.293 -0.292 0.066
0.290 -0.284 0.065
0.289 -0.278 0.064
0.289 -0.274 0.064
0.290 -0.271 0.064
0.289 -0.266 0.063
0.287 -0.260 0.063
0.287 -0.256 0.062
0.287 -0.252 0.062
0.285 -0.246 0.061
0.285 -0.242 0.061
0.284 -0.238 0.061
0.283 -0.233 0.060
0.282 -0.228 0.060
0.275 -0.219 0.058
0.224 -0.173 0.047
0.216 -0.164 0.045
0.211 -0.157 0.044
0.209 -0.153 0.043
0.208 -0.150 0.043
0.204 -0.145 0.042
0.202 -0.141 0.042
0.204 -0.140 0.042
0.209 -0.141 0.043
0.216 -0.143 0.044
0.219 -0.142 0.044
0.220 -0.140 0.045
0.219 -0.137 0.044
0.215 -0.133 0.043
0.206 -0.125 0.041
0.204 -0.121 0.041
0.206 -0.120 0.041
0.207 -0.118 0.041
0.206 -0.115 0.041
0.206 -0.113 0.041
0.203 -0.110 0.040
0.212 -0.112 0.042
0.205 -0.106 0.040
0.208 -0.106 0.041
0.210 -0.105 0.041
0.213 -0.104 0.042
0.207 -0.099 0.040
0.203 -0.094 0.040
0.206 -0.094 0.040
0.208 -0.093 0.040
0.203 -0.088 0.039
0.210 -0.089 0.041
0.198 -0.082 0.038
0.213 -0.086 0.041
0.213 -0.084 0.041
0.212 -0.082 0.041
0.221 -0.083 0.042
0.226 -0.083 0.043
0.218 -0.078 0.042
0.223 -0.077 0.043
0.224 -0.075 0.043
0.228 -0.074 0.043
0.232 -0.074 0.044
0.239 -0.074 0.045
0.246 -0.074 0.047
0.252 -0.073 0.048
0.376 -0.098 0.071
0.380 -0.096 0.072
0.385 -0.093 0.073
0.381 -0.089 0.072
0.378 -0.085 0.071
0.366 -0.078 0.069
0.358 -0.073 0.067
0.350 -0.069 0.066
0.333 -0.062 0.063
0.307 -0.055 0.058
0.293 -0.049 0.055
0.283 -0.045 0.053
0.282 -0.042 0.053
0.283 -0.040 0.053
0.284 -0.037 0.053
0.287 -0.035 0.054
0.287 -0.032 0.054
0.285 -0.030 0.053
0.280 -0.027 0.052
0.281 -0.024 0.052
0.284 -0.022 0.053
0.287 -0.020 0.054
0.289 -0.017 0.054
0.289 -0.014 0.054
0.288 -0.012 0.054
0.290 -0.009 0.054
0.295 -0.007 0.055
0.293 -0.004 0.055
0.290 -0.001 0.054
0.288 0.001 0.054
0.293 0.004 0.055
0.300 0.007 0.056
0.298 0.009 0.056
0.297 0.012 0.055
0.294 0.015 0.055
0.293 0.017 0.055
