VERSION .7
FIELDS x y z
SIZE 4 4 4
TYPE F F F
COUNT 1 1 1
WIDTH     2586
HEIGHT 1
VIEWPOINT 0 0 0 1 0 0 0
POINTS     2586
DATA ascii
0.193 0.087 0.080
0.190 0.088 0.079
0.189 0.090 0.079
0.187 0.091 0.078
0.181 0.090 0.076
0.187 0.095 0.078
0.193 0.100 0.081
0.196 0.104 0.083
0.192 0.104 0.081
0.188 0.104 0.080
0.188 0.106 0.080
0.191 0.110 0.081
0.200 0.118 0.086
0.201 0.121 0.086
0.194 0.119 0.084
0.186 0.116 0.081
0.185 0.118 0.080
0.183 0.118 0.079
0.198 0.131 0.087
0.198 0.133 0.087
0.198 0.136 0.087
0.199 0.139 0.088
0.217 0.155 0.096
0.218 0.158 0.097
0.207 0.152 0.092
0.197 0.148 0.088
0.198 0.151 0.089
0.196 0.153 0.088
0.195 0.155 0.089
0.194 0.157 0.088
0.181 0.149 0.083
0.179 0.150 0.082
0.179 0.152 0.083
0.178 0.154 0.083
0.179 0.158 0.084
0.179 0.160 0.084
0.177 0.162 0.084
0.176 0.163 0.083
0.178 0.168 0.085
0.178 0.171 0.085
0.176 0.172 0.085
0.174 0.173 0.085
0.175 0.177 0.085
0.173 0.178 0.085
0.172 0.180 0.085
0.172 0.183 0.086
0.173 0.187 0.086
0.171 0.189 0.086
0.170 0.190 0.086
0.169 0.193 0.086
0.170 0.197 0.087
0.170 0.200 0.088
0.169 0.202 0.087
0.167 0.202 0.087
0.165 0.204 0.087
0.165 0.207 0.087
0.165 0.210 0.087
0.164 0.211 0.087
0.164 0.215 0.088
0.096 -0.126 0.051
0.102 -0.131 0.054
0.102 -0.130 0.054
0.102 -0.128 0.054
0.102 -0.126 0.053
0.102 -0.125 0.053
0.103 -0.124 0.053
0.106 -0.126 0.055
0.121 -0.141 0.062
0.119 -0.137 0.061
0.120 -0.137 0.061
0.121 -0.135 0.061
0.119 -0.131 0.060
0.115 -0.125 0.058
0.114 -0.122 0.057
0.114 -0.120 0.057
0.110 -0.114 0.054
0.103 -0.105 0.051
0.104 -0.104 0.051
0.106 -0.105 0.051
0.109 -0.106 0.053
0.112 -0.107 0.054
0.116 -0.109 0.056
0.127 -0.118 0.061
0.193 -0.174 0.092
0.195 -0.172 0.092
0.196 -0.171 0.092
0.199 -0.170 0.093
0.199 -0.167 0.092
0.199 -0.165 0.092
0.201 -0.163 0.093
0.202 -0.161 0.093
0.199 -0.156 0.091
0.198 -0.154 0.091
0.198 -0.151 0.090
0.197 -0.147 0.089
0.198 -0.145 0.089
0.199 -0.144 0.089
0.201 -0.142 0.090
0.200 -0.139 0.089
0.199 -0.136 0.089
0.199 -0.134 0.088
0.200 -0.132 0.088
0.201 -0.130 0.089
0.200 -0.127 0.088
0.199 -0.125 0.087
0.200 -0.122 0.087
0.200 -0.120 0.087
0.200 -0.118 0.087
0.200 -0.116 0.087
0.201 -0.114 0.087
0.202 -0.112 0.087
0.202 -0.110 0.087
0.201 -0.107 0.086
0.200 -0.105 0.086
0.201 -0.103 0.086
0.202 -0.101 0.086
0.202 -0.099 0.086
0.204 -0.098 0.086
0.207 -0.097 0.088
0.214 -0.098 0.091
0.210 -0.094 0.089
0.205 -0.090 0.087
0.207 -0.088 0.087
0.209 -0.087 0.088
0.207 -0.084 0.087
0.206 -0.082 0.086
0.209 -0.081 0.087
0.209 -0.078 0.087
0.204 -0.075 0.085
0.204 -0.073 0.085
0.207 -0.072 0.086
0.207 -0.070 0.086
0.207 -0.068 0.086
0.212 -0.067 0.088
0.213 -0.065 0.088
0.214 -0.064 0.088
0.215 -0.062 0.088
0.217 -0.060 0.089
0.218 -0.058 0.090
0.218 -0.056 0.090
0.217 -0.054 0.089
0.217 -0.052 0.089
0.219 -0.050 0.090
0.221 -0.049 0.091
0.222 -0.047 0.091
0.220 -0.044 0.090
0.219 -0.042 0.089
0.218 -0.040 0.089
0.219 -0.038 0.089
0.219 -0.036 0.089
0.219 -0.034 0.089
0.219 -0.032 0.089
0.221 -0.030 0.090
0.220 -0.028 0.090
0.221 -0.026 0.090
0.229 -0.024 0.093
0.237 -0.023 0.096
0.240 -0.021 0.097
0.213 -0.015 0.086
0.201 -0.012 0.082
0.192 -0.010 0.078
0.199 -0.008 0.081
0.203 -0.007 0.082
0.195 -0.004 0.079
0.189 -0.003 0.077
0.199 -0.001 0.081
0.198 0.001 0.080
0.186 0.003 0.075
0.187 0.006 0.076
0.180 0.008 0.073
0.187 0.010 0.076
0.190 0.013 0.077
0.219 0.022 0.089
0.218 0.023 0.089
0.195 0.023 0.079
0.188 0.024 0.077
0.198 0.029 0.081
0.195 0.030 0.080
0.178 0.029 0.073
0.174 0.030 0.071
0.169 0.031 0.069
0.170 0.033 0.070
0.194 0.039 0.080
0.208 0.044 0.085
0.219 0.049 0.090
0.230 0.053 0.095
0.234 0.056 0.096
0.233 0.058 0.096
0.228 0.059 0.094
0.219 0.059 0.090
0.209 0.058 0.086
0.201 0.058 0.083
0.199 0.060 0.083
0.201 0.062 0.084
0.202 0.065 0.084
0.202 0.066 0.084
0.201 0.068 0.084
0.200 0.070 0.084
0.200 0.072 0.084
0.198 0.073 0.083
0.197 0.075 0.083
0.197 0.077 0.083
0.198 0.079 0.083
0.198 0.081 0.083
0.196 0.083 0.083
0.196 0.085 0.083
0.196 0.087 0.083
0.196 0.089 0.083
0.194 0.090 0.083
0.194 0.092 0.083
0.193 0.094 0.083
0.192 0.096 0.083
0.189 0.096 0.081
0.194 0.101 0.084
0.194 0.103 0.084
0.182 0.099 0.079
0.185 0.102 0.080
0.184 0.104 0.080
0.170 0.098 0.074
0.168 0.099 0.074
0.164 0.098 0.072
0.174 0.107 0.077
0.180 0.112 0.080
0.179 0.114 0.080
0.180 0.117 0.080
0.194 0.129 0.087
0.193 0.130 0.087
0.191 0.132 0.086
0.191 0.134 0.086
0.214 0.153 0.097
0.212 0.154 0.097
0.195 0.144 0.089
0.187 0.141 0.086
0.189 0.145 0.087
0.188 0.147 0.087
0.194 0.154 0.090
0.195 0.158 0.091
0.190 0.156 0.089
0.178 0.149 0.084
0.177 0.151 0.084
0.175 0.152 0.083
0.174 0.154 0.083
0.176 0.158 0.085
0.175 0.160 0.085
0.173 0.161 0.084
0.173 0.164 0.085
0.175 0.169 0.086
0.174 0.171 0.086
0.173 0.173 0.086
0.172 0.175 0.086
0.171 0.176 0.086
0.169 0.178 0.086
0.168 0.180 0.086
0.169 0.184 0.087
0.168 0.185 0.087
0.167 0.187 0.087
0.166 0.190 0.087
0.167 0.193 0.088
0.167 0.197 0.088
0.166 0.199 0.088
0.165 0.200 0.088
0.164 0.202 0.088
0.164 0.205 0.088
0.162 0.207 0.088
0.162 0.209 0.088
0.161 0.211 0.088
0.102 -0.133 0.056
0.102 -0.132 0.056
0.102 -0.131 0.056
0.101 -0.127 0.055
0.101 -0.126 0.054
0.105 -0.129 0.056
0.119 -0.144 0.063
0.124 -0.148 0.066
0.125 -0.146 0.066
0.124 -0.143 0.065
0.123 -0.140 0.064
0.122 -0.137 0.064
0.121 -0.134 0.063
0.118 -0.128 0.060
0.117 -0.125 0.060
0.115 -0.122 0.059
0.112 -0.116 0.057
0.108 -0.111 0.055
0.104 -0.104 0.052
0.106 -0.105 0.053
0.109 -0.106 0.054
0.111 -0.107 0.055
0.113 -0.106 0.055
0.119 -0.110 0.058
0.129 -0.118 0.063
0.193 -0.171 0.093
0.195 -0.170 0.094
0.197 -0.169 0.094
0.197 -0.166 0.094
0.198 -0.164 0.094
0.198 -0.161 0.094
0.197 -0.158 0.093
0.197 -0.155 0.092
0.197 -0.153 0.092
0.196 -0.150 0.091
0.196 -0.147 0.091
0.196 -0.144 0.091
0.197 -0.143 0.091
0.197 -0.140 0.091
0.198 -0.139 0.091
0.198 -0.136 0.090
0.196 -0.132 0.089
0.198 -0.131 0.090
0.199 -0.129 0.090
0.200 -0.127 0.090
0.198 -0.124 0.089
0.201 -0.123 0.090
0.200 -0.120 0.089
0.200 -0.118 0.089
0.200 -0.116 0.089
0.201 -0.114 0.089
0.200 -0.112 0.089
0.201 -0.110 0.089
0.200 -0.107 0.088
0.200 -0.105 0.088
0.201 -0.103 0.088
0.201 -0.101 0.088
0.202 -0.099 0.088
0.202 -0.097 0.088
0.202 -0.095 0.088
0.202 -0.093 0.088
0.200 -0.090 0.087
0.201 -0.088 0.087
0.200 -0.086 0.086
0.200 -0.084 0.086
0.201 -0.082 0.086
0.202 -0.080 0.087
0.202 -0.078 0.087
0.202 -0.076 0.086
0.202 -0.074 0.086
0.204 -0.073 0.087
0.205 -0.071 0.087
0.206 -0.069 0.087
0.207 -0.068 0.088
0.209 -0.066 0.089
0.211 -0.065 0.089
0.208 -0.062 0.088
0.210 -0.060 0.089
0.213 -0.059 0.090
0.214 -0.057 0.090
0.215 -0.056 0.091
0.213 -0.053 0.090
0.213 -0.051 0.090
0.213 -0.049 0.089
0.215 -0.047 0.090
0.213 -0.045 0.089
0.213 -0.043 0.089
0.211 -0.040 0.088
0.214 -0.039 0.089
0.214 -0.037 0.090
0.215 -0.035 0.090
0.214 -0.033 0.089
0.215 -0.031 0.090
0.216 -0.029 0.090
0.220 -0.028 0.092
0.226 -0.026 0.094
0.230 -0.025 0.096
0.232 -0.023 0.096
0.230 -0.020 0.096
0.201 -0.014 0.084
0.195 -0.012 0.081
0.190 -0.010 0.079
0.189 -0.008 0.078
0.187 -0.006 0.078
0.180 -0.004 0.075
0.178 -0.002 0.074
0.182 -0.001 0.076
0.182 0.001 0.076
0.182 0.003 0.075
0.175 0.004 0.073
0.172 0.006 0.072
0.168 0.007 0.070
0.168 0.009 0.070
0.171 0.010 0.071
0.175 0.012 0.073
0.174 0.014 0.072
0.165 0.016 0.069
0.172 0.019 0.072
0.176 0.021 0.073
0.174 0.022 0.073
0.168 0.023 0.070
0.158 0.023 0.066
0.168 0.028 0.070
0.161 0.028 0.068
0.161 0.030 0.068
0.175 0.034 0.074
0.187 0.038 0.079
0.204 0.043 0.086
0.220 0.049 0.092
0.227 0.053 0.096
0.231 0.056 0.097
0.225 0.057 0.095
0.220 0.057 0.093
0.213 0.058 0.090
0.199 0.056 0.084
0.194 0.056 0.082
0.197 0.059 0.084
0.198 0.061 0.084
0.199 0.064 0.085
0.199 0.066 0.085
0.199 0.068 0.085
0.200 0.070 0.085
0.199 0.072 0.085
0.197 0.073 0.084
0.195 0.074 0.084
0.195 0.076 0.084
0.196 0.079 0.084
0.195 0.081 0.084
0.193 0.082 0.084
0.193 0.084 0.084
0.194 0.086 0.085
0.194 0.088 0.085
0.194 0.090 0.085
0.192 0.091 0.084
0.191 0.093 0.084
0.195 0.097 0.086
0.201 0.102 0.089
0.194 0.101 0.086
0.178 0.095 0.079
0.170 0.093 0.076
0.175 0.097 0.078
0.172 0.098 0.077
0.165 0.095 0.074
0.160 0.095 0.072
0.166 0.100 0.075
0.172 0.105 0.078
0.175 0.110 0.080
0.183 0.117 0.084
0.184 0.120 0.084
0.186 0.123 0.085
0.188 0.127 0.087
0.186 0.128 0.086
0.187 0.131 0.087
0.205 0.147 0.095
0.202 0.147 0.095
0.185 0.137 0.087
0.188 0.142 0.089
0.184 0.141 0.087
0.184 0.144 0.087
0.187 0.149 0.089
0.191 0.155 0.092
0.190 0.157 0.091
0.184 0.155 0.089
0.175 0.149 0.085
0.173 0.151 0.085
0.172 0.152 0.084
0.172 0.155 0.085
0.172 0.158 0.085
0.171 0.159 0.085
0.170 0.161 0.085
0.172 0.166 0.086
0.171 0.168 0.087
0.171 0.171 0.087
0.167 0.170 0.086
0.166 0.172 0.086
0.167 0.176 0.087
0.167 0.179 0.087
0.167 0.181 0.088
0.166 0.184 0.088
0.164 0.185 0.087
0.164 0.187 0.088
0.164 0.190 0.088
0.164 0.194 0.089
0.164 0.197 0.089
0.163 0.198 0.089
0.162 0.200 0.089
0.161 0.202 0.089
0.160 0.204 0.089
0.159 0.206 0.089
0.160 0.210 0.090
0.102 -0.134 0.057
0.102 -0.133 0.057
0.102 -0.130 0.057
0.101 -0.128 0.056
0.121 -0.150 0.067
0.121 -0.149 0.067
0.122 -0.148 0.067
0.124 -0.148 0.067
0.127 -0.149 0.068
0.127 -0.147 0.068
0.125 -0.142 0.067
0.123 -0.138 0.065
0.121 -0.134 0.064
0.120 -0.131 0.063
0.119 -0.128 0.063
0.118 -0.125 0.062
0.117 -0.121 0.061
0.112 -0.115 0.058
0.105 -0.106 0.054
0.106 -0.106 0.054
0.109 -0.107 0.056
0.110 -0.106 0.056
0.113 -0.107 0.057
0.117 -0.109 0.059
0.128 -0.117 0.064
0.190 -0.169 0.094
0.190 -0.166 0.094
0.193 -0.166 0.095
0.195 -0.165 0.095
0.195 -0.162 0.095
0.195 -0.160 0.095
0.194 -0.156 0.094
0.195 -0.154 0.094
0.195 -0.151 0.093
0.193 -0.148 0.092
0.194 -0.145 0.092
0.194 -0.143 0.092
0.194 -0.141 0.092
0.194 -0.138 0.091
0.194 -0.136 0.091
0.193 -0.133 0.090
0.194 -0.131 0.091
0.196 -0.130 0.091
0.199 -0.129 0.092
0.196 -0.125 0.090
0.196 -0.123 0.090
0.196 -0.121 0.090
0.198 -0.119 0.091
0.198 -0.117 0.091
0.199 -0.116 0.091
0.199 -0.114 0.091
0.200 -0.111 0.090
0.197 -0.108 0.089
0.197 -0.106 0.089
0.198 -0.104 0.089
0.199 -0.102 0.089
0.201 -0.101 0.090
0.202 -0.099 0.090
0.200 -0.096 0.089
0.200 -0.094 0.089
0.200 -0.092 0.089
0.199 -0.090 0.088
0.200 -0.088 0.088
0.199 -0.086 0.088
0.199 -0.083 0.088
0.201 -0.082 0.088
0.202 -0.080 0.089
0.201 -0.078 0.088
0.201 -0.076 0.088
0.201 -0.074 0.088
0.203 -0.072 0.088
0.204 -0.071 0.089
0.205 -0.069 0.089
0.205 -0.067 0.089
0.206 -0.065 0.089
0.205 -0.063 0.089
0.203 -0.061 0.088
0.205 -0.059 0.088
0.207 -0.058 0.090
0.211 -0.057 0.091
0.209 -0.054 0.090
0.209 -0.052 0.090
0.209 -0.050 0.090
0.210 -0.048 0.090
0.210 -0.046 0.090
0.209 -0.044 0.090
0.208 -0.042 0.089
0.210 -0.040 0.090
0.209 -0.038 0.090
0.209 -0.036 0.090
0.208 -0.034 0.089
0.209 -0.032 0.089
0.211 -0.030 0.090
0.214 -0.029 0.091
0.229 -0.029 0.098
0.233 -0.027 0.100
0.228 -0.024 0.097
0.227 -0.022 0.097
0.187 -0.015 0.080
0.191 -0.013 0.081
0.192 -0.012 0.082
0.189 -0.010 0.080
0.183 -0.008 0.078
0.176 -0.006 0.075
0.175 -0.004 0.074
0.173 -0.002 0.074
0.176 -0.001 0.075
0.178 0.001 0.076
0.177 0.003 0.075
0.170 0.004 0.072
0.164 0.005 0.070
0.164 0.007 0.070
0.166 0.009 0.071
0.169 0.010 0.072
0.165 0.012 0.070
0.165 0.013 0.070
0.155 0.014 0.066
0.154 0.015 0.066
0.158 0.017 0.068
0.165 0.019 0.071
0.164 0.021 0.070
0.159 0.022 0.068
0.146 0.021 0.063
0.133 0.021 0.057
0.153 0.025 0.066
0.148 0.026 0.064
0.160 0.029 0.069
0.173 0.034 0.075
0.185 0.038 0.080
0.204 0.043 0.088
0.212 0.047 0.092
0.222 0.052 0.096
0.219 0.053 0.095
0.215 0.054 0.093
0.210 0.055 0.091
0.204 0.055 0.088
0.197 0.055 0.085
0.193 0.056 0.084
0.195 0.059 0.085
0.196 0.061 0.085
0.196 0.063 0.086
0.196 0.065 0.086
0.197 0.067 0.086
0.196 0.069 0.086
0.196 0.071 0.086
0.195 0.072 0.086
0.192 0.074 0.085
0.193 0.076 0.085
0.193 0.078 0.085
0.191 0.079 0.085
0.192 0.081 0.085
0.190 0.082 0.084
0.190 0.084 0.085
0.191 0.087 0.086
0.188 0.088 0.084
0.188 0.090 0.084
0.192 0.094 0.087
0.196 0.098 0.089
0.200 0.102 0.090
0.180 0.094 0.082
0.167 0.089 0.076
0.165 0.090 0.075
0.156 0.087 0.071
0.161 0.091 0.074
0.163 0.094 0.075
0.167 0.099 0.077
0.170 0.103 0.079
0.175 0.108 0.081
0.181 0.114 0.084
0.185 0.119 0.086
0.185 0.121 0.087
0.184 0.122 0.087
0.185 0.126 0.087
0.183 0.127 0.087
0.182 0.128 0.087
0.204 0.146 0.097
0.204 0.149 0.098
0.191 0.142 0.092
0.184 0.139 0.089
0.182 0.141 0.088
0.179 0.140 0.087
0.179 0.143 0.088
0.180 0.146 0.088
0.185 0.153 0.091
0.182 0.153 0.090
0.176 0.151 0.088
0.171 0.150 0.086
0.170 0.151 0.086
0.170 0.153 0.086
0.169 0.156 0.086
0.169 0.158 0.086
0.168 0.160 0.087
0.168 0.163 0.087
0.168 0.166 0.088
0.167 0.167 0.087
0.164 0.168 0.086
0.164 0.170 0.087
0.165 0.174 0.088
0.166 0.178 0.089
0.165 0.180 0.089
0.163 0.181 0.089
0.163 0.184 0.089
0.161 0.185 0.088
0.162 0.189 0.089
0.162 0.192 0.090
0.162 0.195 0.090
0.161 0.196 0.090
0.157 0.195 0.089
0.158 0.199 0.090
0.156 0.200 0.089
0.155 0.200 0.088
0.103 -0.134 0.059
0.122 -0.156 0.069
0.123 -0.155 0.069
0.123 -0.153 0.069
0.123 -0.151 0.069
0.124 -0.150 0.069
0.124 -0.148 0.069
0.127 -0.149 0.070
0.126 -0.147 0.070
0.127 -0.145 0.069
0.124 -0.140 0.068
0.123 -0.137 0.067
0.123 -0.135 0.067
0.122 -0.132 0.066
0.121 -0.129 0.065
0.119 -0.125 0.064
0.118 -0.121 0.063
0.108 -0.110 0.057
0.108 -0.107 0.057
0.108 -0.106 0.057
0.111 -0.107 0.058
0.113 -0.107 0.058
0.115 -0.107 0.059
0.123 -0.113 0.063
0.185 -0.165 0.094
0.186 -0.163 0.094
0.188 -0.162 0.095
0.191 -0.162 0.096
0.192 -0.160 0.096
0.192 -0.157 0.095
0.192 -0.155 0.095
0.191 -0.151 0.094
0.190 -0.148 0.093
0.190 -0.146 0.093
0.191 -0.144 0.093
0.192 -0.142 0.093
0.190 -0.138 0.092
0.191 -0.136 0.092
0.191 -0.134 0.092
0.192 -0.132 0.092
0.193 -0.130 0.092
0.194 -0.129 0.092
0.192 -0.125 0.091
0.193 -0.123 0.091
0.193 -0.121 0.091
0.193 -0.119 0.091
0.192 -0.116 0.090
0.192 -0.114 0.090
0.193 -0.112 0.090
0.194 -0.111 0.090
0.196 -0.110 0.091
0.195 -0.107 0.090
0.195 -0.105 0.090
0.195 -0.103 0.090
0.196 -0.101 0.090
0.198 -0.100 0.091
0.199 -0.098 0.091
0.198 -0.095 0.090
0.197 -0.093 0.090
0.198 -0.091 0.090
0.198 -0.089 0.090
0.198 -0.087 0.090
0.200 -0.086 0.090
0.198 -0.083 0.089
0.199 -0.081 0.090
0.200 -0.080 0.090
0.199 -0.077 0.090
0.199 -0.075 0.089
0.200 -0.074 0.089
0.201 -0.072 0.090
0.202 -0.070 0.090
0.203 -0.068 0.090
0.203 -0.066 0.090
0.203 -0.064 0.090
0.202 -0.062 0.090
0.203 -0.061 0.090
0.203 -0.059 0.090
0.203 -0.057 0.090
0.204 -0.055 0.090
0.205 -0.053 0.090
0.205 -0.051 0.091
0.206 -0.050 0.091
0.207 -0.048 0.091
0.207 -0.046 0.091
0.205 -0.043 0.090
0.208 -0.042 0.092
0.206 -0.040 0.090
0.207 -0.038 0.091
0.205 -0.036 0.090
0.204 -0.033 0.090
0.204 -0.031 0.089
0.205 -0.030 0.090
0.221 -0.030 0.096
0.232 -0.029 0.101
0.233 -0.027 0.102
0.229 -0.025 0.100
0.184 -0.016 0.080
0.179 -0.014 0.078
0.181 -0.013 0.079
0.185 -0.011 0.081
0.180 -0.009 0.079
0.172 -0.007 0.075
0.167 -0.005 0.073
0.166 -0.004 0.072
0.168 -0.002 0.073
0.174 -0.001 0.076
0.174 0.001 0.076
0.172 0.002 0.075
0.169 0.004 0.074
0.163 0.005 0.071
0.165 0.007 0.072
0.168 0.009 0.073
0.165 0.010 0.072
0.163 0.012 0.071
0.157 0.013 0.069
0.152 0.014 0.067
0.151 0.015 0.066
0.160 0.017 0.070
0.163 0.019 0.071
0.163 0.021 0.071
0.153 0.021 0.067
0.147 0.021 0.064
0.130 0.020 0.057
0.143 0.024 0.063
0.146 0.026 0.064
0.146 0.027 0.064
0.194 0.040 0.086
0.203 0.043 0.089
0.211 0.047 0.093
0.211 0.049 0.093
0.208 0.050 0.092
0.203 0.051 0.090
0.201 0.053 0.089
0.198 0.054 0.088
0.193 0.054 0.086
0.191 0.056 0.085
0.191 0.058 0.085
0.193 0.060 0.086
0.194 0.062 0.087
0.194 0.064 0.087
0.191 0.065 0.086
0.191 0.067 0.086
0.190 0.069 0.085
0.189 0.070 0.085
0.191 0.073 0.086
0.191 0.075 0.086
0.189 0.076 0.086
0.186 0.077 0.085
0.187 0.080 0.085
0.187 0.082 0.085
0.186 0.083 0.085
0.186 0.085 0.085
0.185 0.087 0.085
0.189 0.091 0.087
0.192 0.094 0.089
0.192 0.096 0.089
0.162 0.085 0.075
0.161 0.086 0.075
0.157 0.086 0.073
0.157 0.088 0.074
0.160 0.091 0.075
0.173 0.101 0.082
0.170 0.101 0.081
0.176 0.107 0.083
0.181 0.112 0.086
0.182 0.114 0.087
0.182 0.117 0.087
0.181 0.119 0.087
0.182 0.121 0.088
0.181 0.123 0.087
0.181 0.125 0.088
0.179 0.126 0.087
0.179 0.129 0.088
0.178 0.133 0.088
0.177 0.134 0.088
0.176 0.136 0.087
0.174 0.137 0.087
0.172 0.138 0.086
0.172 0.140 0.086
0.172 0.143 0.087
0.176 0.148 0.089
0.175 0.151 0.090
0.173 0.152 0.089
0.169 0.151 0.087
0.167 0.151 0.087
0.167 0.154 0.087
0.167 0.157 0.087
0.165 0.158 0.087
0.166 0.162 0.088
0.166 0.164 0.089
0.165 0.166 0.088
0.163 0.167 0.088
0.161 0.168 0.087
0.162 0.172 0.088
0.162 0.174 0.089
0.162 0.177 0.089
0.161 0.179 0.089
0.159 0.180 0.089
0.158 0.182 0.089
0.160 0.186 0.090
0.161 0.191 0.091
0.159 0.191 0.091
0.157 0.192 0.090
0.155 0.193 0.090
0.154 0.194 0.089
0.155 0.199 0.091
0.154 0.201 0.090
0.121 -0.155 0.070
0.122 -0.155 0.071
0.124 -0.154 0.071
0.124 -0.153 0.071
0.125 -0.152 0.072
0.126 -0.151 0.072
0.126 -0.148 0.071
0.125 -0.146 0.071
0.126 -0.145 0.071
0.126 -0.143 0.071
0.125 -0.139 0.070
0.124 -0.136 0.069
0.124 -0.134 0.069
0.123 -0.131 0.068
0.120 -0.126 0.066
0.119 -0.122 0.064
0.117 -0.118 0.063
0.108 -0.108 0.058
0.109 -0.107 0.058
0.110 -0.107 0.059
0.112 -0.107 0.059
0.114 -0.107 0.060
0.122 -0.113 0.064
0.177 -0.161 0.093
0.182 -0.163 0.095
0.184 -0.161 0.095
0.185 -0.160 0.095
0.187 -0.159 0.096
0.189 -0.158 0.097
0.189 -0.155 0.096
0.189 -0.153 0.096
0.189 -0.150 0.095
0.188 -0.147 0.095
0.188 -0.144 0.094
0.189 -0.142 0.094
0.188 -0.140 0.094
0.188 -0.137 0.093
0.188 -0.135 0.093
0.189 -0.133 0.093
0.190 -0.131 0.093
0.190 -0.129 0.093
0.190 -0.126 0.092
0.190 -0.125 0.092
0.190 -0.122 0.092
0.190 -0.120 0.092
0.190 -0.117 0.091
0.189 -0.114 0.091
0.189 -0.112 0.091
0.189 -0.110 0.090
0.190 -0.109 0.090
0.191 -0.107 0.091
0.193 -0.106 0.091
0.192 -0.103 0.091
0.192 -0.101 0.091
0.193 -0.100 0.091
0.195 -0.099 0.092
0.195 -0.096 0.091
0.194 -0.094 0.091
0.194 -0.092 0.091
0.195 -0.090 0.091
0.195 -0.088 0.091
0.195 -0.086 0.091
0.196 -0.085 0.091
0.197 -0.083 0.091
0.195 -0.080 0.090
0.197 -0.079 0.091
0.197 -0.077 0.091
0.197 -0.075 0.090
0.197 -0.073 0.090
0.198 -0.071 0.090
0.199 -0.069 0.091
0.199 -0.067 0.091
0.200 -0.066 0.091
0.200 -0.064 0.091
0.200 -0.062 0.091
0.201 -0.060 0.091
0.202 -0.058 0.092
0.200 -0.056 0.091
0.200 -0.054 0.090
0.201 -0.052 0.091
0.203 -0.051 0.091
0.204 -0.049 0.092
0.206 -0.048 0.093
0.218 -0.048 0.098
0.216 -0.046 0.097
0.200 -0.040 0.090
0.195 -0.038 0.088
0.195 -0.036 0.088
0.199 -0.034 0.089
0.198 -0.032 0.089
0.199 -0.031 0.089
0.205 -0.030 0.092
0.219 -0.030 0.098
0.233 -0.029 0.104
0.233 -0.027 0.104
0.224 -0.024 0.100
0.189 -0.019 0.084
0.176 -0.016 0.078
0.173 -0.014 0.077
0.174 -0.012 0.078
0.179 -0.011 0.080
0.177 -0.009 0.079
0.170 -0.007 0.076
0.162 -0.005 0.072
0.161 -0.004 0.072
0.168 -0.002 0.075
0.179 -0.001 0.080
0.175 0.001 0.078
0.169 0.002 0.076
0.164 0.004 0.073
0.165 0.005 0.073
0.160 0.007 0.071
0.167 0.009 0.075
0.166 0.010 0.074
0.159 0.013 0.071
0.154 0.014 0.069
0.154 0.015 0.069
0.161 0.017 0.072
0.165 0.019 0.074
0.158 0.020 0.071
0.155 0.021 0.070
0.151 0.022 0.068
0.153 0.024 0.069
0.148 0.026 0.066
0.148 0.027 0.066
0.162 0.031 0.073
0.197 0.040 0.089
0.207 0.044 0.093
0.208 0.046 0.094
0.206 0.048 0.093
0.198 0.048 0.090
0.196 0.049 0.089
0.195 0.051 0.088
0.191 0.052 0.087
0.188 0.053 0.086
0.186 0.054 0.085
0.189 0.057 0.086
0.189 0.059 0.086
0.189 0.061 0.086
0.188 0.063 0.086
0.190 0.065 0.087
0.189 0.067 0.087
0.187 0.068 0.086
0.186 0.069 0.086
0.184 0.071 0.085
0.183 0.072 0.085
0.185 0.075 0.086
0.182 0.075 0.084
0.183 0.078 0.085
0.185 0.081 0.086
0.185 0.083 0.087
0.182 0.083 0.085
0.183 0.086 0.086
0.186 0.089 0.088
0.187 0.092 0.088
0.177 0.089 0.084
0.162 0.083 0.077
0.157 0.083 0.075
0.156 0.083 0.074
0.158 0.087 0.076
0.165 0.092 0.079
0.173 0.099 0.083
0.174 0.102 0.084
0.176 0.105 0.085
0.178 0.108 0.086
0.179 0.111 0.087
0.179 0.113 0.087
0.179 0.115 0.088
0.178 0.117 0.088
0.178 0.119 0.088
0.175 0.119 0.087
0.175 0.121 0.087
0.176 0.124 0.088
0.177 0.127 0.089
0.176 0.132 0.089
0.173 0.132 0.088
0.172 0.133 0.087
0.171 0.135 0.088
0.168 0.135 0.086
0.168 0.137 0.087
0.168 0.140 0.087
0.169 0.143 0.088
0.169 0.146 0.088
0.171 0.150 0.090
0.169 0.151 0.090
0.167 0.152 0.089
0.164 0.151 0.087
0.163 0.153 0.087
0.162 0.155 0.088
0.162 0.158 0.088
0.160 0.159 0.088
0.162 0.164 0.089
0.161 0.165 0.089
0.160 0.167 0.089
0.158 0.168 0.088
0.157 0.170 0.088
0.159 0.175 0.090
0.158 0.177 0.090
0.157 0.178 0.090
0.157 0.180 0.090
0.157 0.184 0.091
0.157 0.187 0.091
0.155 0.188 0.091
0.155 0.190 0.091
0.153 0.191 0.091
0.152 0.192 0.090
0.154 0.197 0.092
0.120 -0.154 0.071
0.121 -0.153 0.072
0.124 -0.155 0.073
0.126 -0.155 0.074
0.127 -0.155 0.074
0.125 -0.150 0.073
0.125 -0.148 0.072
0.125 -0.145 0.072
0.126 -0.144 0.072
0.126 -0.142 0.072
0.125 -0.140 0.071
0.125 -0.137 0.071
0.124 -0.134 0.070
0.124 -0.132 0.070
0.123 -0.129 0.069
0.121 -0.125 0.067
0.119 -0.122 0.066
0.109 -0.109 0.060
0.109 -0.107 0.060
0.110 -0.107 0.060
0.112 -0.107 0.061
0.114 -0.107 0.061
0.180 -0.164 0.096
0.180 -0.161 0.096
0.182 -0.160 0.096
0.183 -0.159 0.097
0.185 -0.157 0.097
0.186 -0.156 0.097
0.187 -0.154 0.098
0.187 -0.152 0.097
0.188 -0.149 0.097
0.187 -0.146 0.096
0.186 -0.143 0.095
0.186 -0.141 0.095
0.186 -0.138 0.095
0.186 -0.136 0.094
0.186 -0.133 0.094
0.186 -0.131 0.094
0.186 -0.129 0.093
0.187 -0.127 0.093
0.188 -0.125 0.094
0.187 -0.122 0.093
0.187 -0.120 0.092
0.187 -0.118 0.092
0.187 -0.116 0.092
0.187 -0.114 0.092
0.187 -0.111 0.092
0.187 -0.109 0.091
0.187 -0.107 0.091
0.187 -0.105 0.091
0.188 -0.103 0.091
0.188 -0.102 0.091
0.190 -0.100 0.092
0.190 -0.099 0.092
0.191 -0.097 0.092
0.190 -0.094 0.091
0.191 -0.093 0.091
0.192 -0.091 0.092
0.192 -0.089 0.091
0.192 -0.087 0.091
0.192 -0.085 0.091
0.192 -0.083 0.091
0.191 -0.081 0.091
0.193 -0.079 0.091
0.194 -0.078 0.091
0.194 -0.076 0.091
0.194 -0.074 0.091
0.193 -0.071 0.090
0.193 -0.069 0.090
0.194 -0.068 0.091
0.196 -0.067 0.092
0.196 -0.065 0.092
0.197 -0.063 0.092
0.196 -0.061 0.091
0.197 -0.059 0.092
0.198 -0.057 0.092
0.198 -0.055 0.092
0.196 -0.053 0.091
0.197 -0.051 0.091
0.201 -0.050 0.093
0.203 -0.049 0.094
0.212 -0.049 0.098
0.207 -0.046 0.096
0.197 -0.042 0.091
0.191 -0.039 0.088
0.191 -0.037 0.088
0.192 -0.035 0.088
0.197 -0.034 0.090
0.192 -0.032 0.088
0.190 -0.029 0.087
0.200 -0.029 0.091
0.211 -0.029 0.096
0.232 -0.029 0.106
0.232 -0.027 0.106
0.219 -0.024 0.100
0.178 -0.017 0.081
0.175 -0.015 0.080
0.173 -0.014 0.079
0.172 -0.012 0.078
0.176 -0.011 0.080
0.179 -0.009 0.081
0.178 -0.007 0.081
0.162 -0.005 0.074
0.165 -0.004 0.075
0.176 -0.002 0.080
0.181 -0.001 0.083
0.177 0.001 0.081
0.166 0.002 0.076
0.159 0.004 0.073
0.155 0.005 0.071
0.167 0.007 0.076
0.168 0.009 0.077
0.167 0.010 0.076
0.161 0.011 0.074
0.158 0.013 0.072
0.156 0.014 0.071
0.158 0.016 0.072
0.160 0.017 0.073
0.162 0.019 0.074
0.158 0.020 0.072
0.155 0.021 0.071
0.151 0.022 0.069
0.151 0.024 0.069
0.153 0.025 0.070
0.131 0.023 0.060
0.144 0.027 0.066
0.151 0.029 0.070
0.195 0.040 0.090
0.203 0.043 0.094
0.206 0.046 0.095
0.200 0.047 0.092
0.194 0.047 0.090
0.188 0.048 0.087
0.186 0.049 0.087
0.185 0.050 0.086
0.183 0.052 0.085
0.183 0.054 0.085
0.182 0.055 0.085
0.187 0.058 0.087
0.187 0.060 0.087
0.189 0.063 0.089
0.190 0.065 0.089
0.188 0.066 0.088
0.185 0.067 0.087
0.183 0.068 0.086
0.180 0.069 0.085
0.177 0.070 0.084
0.177 0.072 0.084
0.176 0.073 0.084
0.173 0.074 0.082
0.172 0.075 0.082
0.172 0.077 0.082
0.173 0.079 0.083
0.175 0.082 0.084
0.179 0.086 0.086
0.176 0.087 0.085
0.162 0.081 0.078
0.151 0.078 0.073
0.154 0.081 0.075
0.158 0.085 0.077
0.167 0.092 0.082
0.171 0.096 0.084
0.172 0.098 0.085
0.173 0.101 0.086
0.175 0.104 0.087
0.176 0.107 0.087
0.176 0.109 0.088
0.176 0.111 0.088
0.175 0.113 0.088
0.175 0.115 0.088
0.174 0.116 0.088
0.172 0.118 0.087
0.172 0.120 0.087
0.172 0.122 0.088
0.172 0.124 0.088
0.176 0.129 0.091
0.173 0.130 0.090
0.171 0.131 0.089
0.169 0.131 0.088
0.166 0.131 0.087
0.164 0.132 0.086
0.165 0.135 0.087
0.165 0.138 0.088
0.163 0.139 0.087
0.161 0.140 0.086
0.162 0.143 0.087
0.165 0.148 0.089
0.167 0.153 0.091
0.169 0.157 0.093
0.162 0.153 0.089
0.160 0.154 0.089
0.158 0.155 0.088
0.158 0.157 0.089
0.158 0.160 0.089
0.158 0.163 0.089
0.157 0.165 0.089
0.157 0.167 0.090
0.156 0.169 0.090
0.155 0.171 0.090
0.156 0.174 0.091
0.155 0.176 0.091
0.155 0.179 0.091
0.154 0.181 0.091
0.154 0.184 0.092
0.153 0.186 0.092
0.152 0.188 0.092
0.151 0.189 0.091
0.149 0.189 0.090
0.146 0.188 0.089
0.117 -0.151 0.071
0.121 -0.153 0.073
0.125 -0.156 0.075
0.128 -0.158 0.077
0.128 -0.156 0.077
0.126 -0.152 0.075
0.122 -0.145 0.073
0.127 -0.148 0.075
0.125 -0.144 0.073
0.125 -0.141 0.073
0.125 -0.140 0.073
0.124 -0.137 0.072
0.125 -0.135 0.072
0.123 -0.132 0.071
0.124 -0.130 0.071
0.123 -0.127 0.070
0.120 -0.122 0.068
0.119 -0.119 0.067
0.109 -0.108 0.061
0.111 -0.108 0.062
0.114 -0.109 0.063
0.117 -0.110 0.064
0.179 -0.163 0.098
0.178 -0.160 0.097
0.179 -0.158 0.097
0.181 -0.158 0.098
0.182 -0.155 0.098
0.183 -0.154 0.098
0.184 -0.152 0.098
0.184 -0.150 0.098
0.184 -0.147 0.098
0.183 -0.144 0.097
0.183 -0.141 0.096
0.183 -0.139 0.096
0.183 -0.137 0.095
0.183 -0.134 0.095
0.183 -0.132 0.095
0.183 -0.129 0.094
0.183 -0.127 0.094
0.183 -0.125 0.094
0.183 -0.123 0.094
0.184 -0.121 0.094
0.184 -0.118 0.093
0.184 -0.116 0.093
0.185 -0.115 0.093
0.185 -0.113 0.093
0.185 -0.111 0.093
0.185 -0.109 0.093
0.185 -0.106 0.092
0.185 -0.104 0.092
0.186 -0.103 0.092
0.186 -0.101 0.092
0.187 -0.099 0.092
0.188 -0.097 0.093
0.187 -0.095 0.092
0.188 -0.093 0.092
0.188 -0.091 0.092
0.189 -0.090 0.093
0.190 -0.088 0.093
0.187 -0.085 0.091
0.189 -0.084 0.092
0.189 -0.082 0.092
0.189 -0.080 0.091
0.190 -0.078 0.092
0.190 -0.076 0.091
0.190 -0.074 0.091
0.189 -0.072 0.091
0.189 -0.070 0.091
0.190 -0.068 0.091
0.191 -0.067 0.091
0.191 -0.065 0.091
0.191 -0.063 0.091
0.192 -0.062 0.091
0.193 -0.060 0.092
0.193 -0.058 0.092
0.195 -0.057 0.092
0.194 -0.054 0.092
0.192 -0.052 0.091
0.193 -0.050 0.091
0.197 -0.050 0.093
0.203 -0.049 0.096
0.197 -0.046 0.093
0.184 -0.041 0.087
0.188 -0.040 0.088
0.193 -0.039 0.091
0.191 -0.037 0.090
0.193 -0.035 0.090
0.215 -0.035 0.101
0.188 -0.029 0.088
0.193 -0.028 0.090
0.202 -0.027 0.095
0.219 -0.028 0.102
0.225 -0.026 0.105
0.179 -0.018 0.084
0.173 -0.015 0.081
0.170 -0.013 0.079
0.169 -0.012 0.079
0.176 -0.011 0.082
0.176 -0.009 0.082
0.169 -0.007 0.079
0.170 -0.005 0.079
0.164 -0.004 0.077
0.173 -0.002 0.080
0.180 -0.001 0.084
0.175 0.001 0.082
0.158 0.002 0.074
0.155 0.004 0.072
0.158 0.005 0.074
0.166 0.007 0.078
0.170 0.009 0.079
0.168 0.010 0.079
0.167 0.012 0.078
0.162 0.013 0.076
0.158 0.014 0.074
0.159 0.016 0.075
0.159 0.017 0.074
0.158 0.019 0.074
0.157 0.020 0.073
0.151 0.021 0.071
0.153 0.023 0.072
0.153 0.024 0.072
0.150 0.025 0.071
0.146 0.026 0.069
0.138 0.026 0.065
0.144 0.028 0.068
0.194 0.042 0.092
0.198 0.044 0.094
0.195 0.046 0.092
0.187 0.046 0.089
0.183 0.046 0.087
0.181 0.048 0.086
0.177 0.048 0.084
0.169 0.048 0.080
0.174 0.051 0.083
0.172 0.052 0.082
0.169 0.053 0.081
0.176 0.057 0.084
0.175 0.059 0.084
0.174 0.060 0.084
0.171 0.061 0.082
0.172 0.063 0.083
0.178 0.067 0.086
0.177 0.068 0.086
0.175 0.069 0.085
0.173 0.070 0.084
0.174 0.073 0.085
0.174 0.074 0.085
0.173 0.076 0.084
0.169 0.076 0.083
0.169 0.078 0.083
0.169 0.080 0.083
0.161 0.077 0.079
0.151 0.075 0.075
0.144 0.073 0.071
0.150 0.078 0.075
0.158 0.083 0.078
0.170 0.092 0.085
0.171 0.094 0.086
0.171 0.096 0.086
0.171 0.098 0.086
0.171 0.100 0.087
0.173 0.104 0.088
0.174 0.106 0.088
0.173 0.108 0.088
0.171 0.109 0.088
0.171 0.111 0.088
0.172 0.113 0.089
0.171 0.115 0.088
0.170 0.117 0.088
0.169 0.118 0.088
0.169 0.120 0.088
0.169 0.123 0.089
0.170 0.126 0.090
0.171 0.128 0.090
0.167 0.128 0.089
0.163 0.127 0.087
0.163 0.129 0.087
0.160 0.129 0.086
0.157 0.129 0.085
0.158 0.132 0.086
0.157 0.134 0.086
0.156 0.136 0.086
0.157 0.139 0.087
0.155 0.139 0.086
0.154 0.140 0.086
0.165 0.153 0.092
0.164 0.156 0.093
0.164 0.158 0.093
0.161 0.158 0.092
0.157 0.157 0.090
0.156 0.158 0.090
0.155 0.160 0.090
0.154 0.162 0.090
0.155 0.166 0.091
0.155 0.168 0.091
0.153 0.169 0.091
0.152 0.171 0.091
0.152 0.174 0.091
0.152 0.176 0.091
0.152 0.179 0.092
0.151 0.181 0.092
0.151 0.183 0.092
0.150 0.185 0.092
0.148 0.186 0.092
0.147 0.187 0.091
0.121 -0.154 0.075
0.129 -0.162 0.079
0.129 -0.160 0.079
0.129 -0.158 0.079
0.129 -0.156 0.079
0.128 -0.152 0.078
0.121 -0.142 0.073
0.123 -0.142 0.074
0.126 -0.144 0.076
0.126 -0.142 0.075
0.126 -0.139 0.075
0.124 -0.135 0.073
0.124 -0.133 0.073
0.123 -0.130 0.072
0.123 -0.128 0.071
0.121 -0.124 0.070
0.121 -0.122 0.070
0.120 -0.119 0.069
0.111 -0.109 0.063
0.114 -0.110 0.065
0.170 -0.158 0.096
0.176 -0.161 0.098
0.176 -0.159 0.098
0.176 -0.156 0.098
0.178 -0.155 0.099
0.179 -0.154 0.099
0.179 -0.151 0.098
0.180 -0.149 0.098
0.181 -0.148 0.098
0.182 -0.146 0.098
0.180 -0.142 0.097
0.179 -0.138 0.096
0.179 -0.136 0.096
0.180 -0.134 0.096
0.181 -0.133 0.096
0.181 -0.130 0.096
0.181 -0.128 0.095
0.181 -0.126 0.095
0.181 -0.123 0.095
0.181 -0.121 0.094
0.181 -0.119 0.094
0.182 -0.117 0.094
0.182 -0.115 0.094
0.182 -0.114 0.094
0.182 -0.111 0.094
0.183 -0.109 0.094
0.183 -0.107 0.094
0.182 -0.105 0.093
0.183 -0.103 0.093
0.185 -0.102 0.094
0.185 -0.100 0.094
0.184 -0.097 0.093
0.184 -0.096 0.093
0.184 -0.094 0.093
0.185 -0.092 0.093
0.186 -0.090 0.093
0.186 -0.089 0.093
0.184 -0.086 0.092
0.184 -0.084 0.092
0.186 -0.082 0.092
0.187 -0.081 0.093
0.186 -0.079 0.092
0.186 -0.077 0.092
0.185 -0.075 0.091
0.186 -0.073 0.092
0.186 -0.071 0.091
0.186 -0.069 0.091
0.187 -0.067 0.091
0.187 -0.066 0.092
0.187 -0.064 0.091
0.187 -0.062 0.091
0.189 -0.061 0.092
0.189 -0.059 0.092
0.190 -0.057 0.092
0.190 -0.055 0.092
0.190 -0.053 0.092
0.189 -0.051 0.091
0.189 -0.049 0.091
0.199 -0.050 0.096
0.186 -0.045 0.090
0.176 -0.041 0.085
0.184 -0.041 0.088
0.190 -0.040 0.091
0.188 -0.038 0.090
0.190 -0.037 0.091
0.192 -0.035 0.092
0.196 -0.034 0.094
0.220 -0.036 0.105
0.216 -0.034 0.103
0.200 -0.027 0.095
0.211 -0.027 0.101
0.210 -0.025 0.101
0.196 -0.021 0.094
0.180 -0.018 0.086
0.171 -0.015 0.081
0.170 -0.014 0.081
0.171 -0.012 0.082
0.172 -0.010 0.082
0.172 -0.009 0.082
0.171 -0.007 0.082
0.164 -0.005 0.078
0.158 -0.004 0.076
0.161 -0.002 0.077
0.170 -0.001 0.081
0.169 0.001 0.080
0.162 0.002 0.077
0.155 0.004 0.074
0.153 0.005 0.073
0.162 0.007 0.077
0.163 0.009 0.078
0.166 0.010 0.079
0.167 0.012 0.080
0.167 0.013 0.080
0.161 0.015 0.077
0.161 0.016 0.077
0.157 0.017 0.075
0.156 0.018 0.075
0.152 0.020 0.073
0.156 0.021 0.075
0.153 0.023 0.074
0.154 0.024 0.074
0.152 0.025 0.073
0.148 0.026 0.071
0.143 0.027 0.069
0.147 0.029 0.071
0.156 0.032 0.075
0.187 0.042 0.090
0.185 0.043 0.090
0.182 0.045 0.088
0.179 0.046 0.087
0.177 0.047 0.086
0.175 0.048 0.085
0.175 0.050 0.085
0.178 0.052 0.087
0.178 0.054 0.087
0.177 0.056 0.086
0.175 0.057 0.086
0.174 0.058 0.085
0.173 0.060 0.085
0.171 0.061 0.084
0.172 0.063 0.085
0.175 0.066 0.086
0.174 0.067 0.086
0.172 0.068 0.085
0.171 0.070 0.085
0.174 0.073 0.087
0.175 0.075 0.087
0.173 0.076 0.086
0.169 0.076 0.085
0.163 0.075 0.082
0.159 0.075 0.080
0.154 0.075 0.078
0.148 0.073 0.075
0.148 0.075 0.075
0.166 0.086 0.084
0.166 0.088 0.084
0.170 0.092 0.087
0.170 0.094 0.087
0.170 0.096 0.087
0.169 0.097 0.087
0.169 0.099 0.087
0.170 0.102 0.088
0.170 0.104 0.089
0.170 0.106 0.089
0.169 0.107 0.088
0.167 0.108 0.088
0.168 0.111 0.088
0.168 0.113 0.089
0.167 0.115 0.088
0.166 0.116 0.089
0.165 0.118 0.088
0.165 0.120 0.088
0.164 0.121 0.088
0.168 0.127 0.091
0.165 0.127 0.090
0.162 0.127 0.088
0.158 0.126 0.087
0.156 0.126 0.086
0.155 0.128 0.086
0.152 0.128 0.085
0.155 0.133 0.087
0.155 0.135 0.087
0.151 0.134 0.085
0.147 0.133 0.083
0.148 0.136 0.084
0.154 0.144 0.088
0.158 0.150 0.091
0.163 0.158 0.094
0.163 0.160 0.095
0.161 0.161 0.094
0.158 0.161 0.093
0.153 0.158 0.091
0.152 0.160 0.090
0.151 0.162 0.091
0.150 0.163 0.090
0.151 0.167 0.091
0.151 0.170 0.092
0.150 0.171 0.092
0.149 0.174 0.092
0.148 0.175 0.092
0.148 0.178 0.093
0.148 0.180 0.093
0.146 0.181 0.092
0.146 0.183 0.092
0.146 0.185 0.093
0.126 -0.161 0.080
0.127 -0.160 0.080
0.128 -0.159 0.080
0.127 -0.155 0.079
0.129 -0.155 0.080
0.129 -0.154 0.080
0.124 -0.146 0.077
0.125 -0.145 0.077
0.126 -0.144 0.077
0.127 -0.143 0.077
0.125 -0.139 0.076
0.125 -0.136 0.075
0.125 -0.135 0.075
0.125 -0.132 0.074
0.124 -0.129 0.074
0.124 -0.127 0.073
0.123 -0.124 0.073
0.123 -0.122 0.072
0.119 -0.116 0.069
0.171 -0.160 0.099
0.174 -0.160 0.100
0.174 -0.157 0.099
0.175 -0.156 0.100
0.176 -0.154 0.099
0.177 -0.152 0.100
0.177 -0.150 0.099
0.178 -0.148 0.099
0.179 -0.146 0.099
0.178 -0.143 0.099
0.178 -0.140 0.098
0.177 -0.137 0.097
0.177 -0.135 0.097
0.178 -0.133 0.097
0.178 -0.131 0.097
0.178 -0.129 0.096
0.178 -0.126 0.096
0.178 -0.124 0.096
0.179 -0.122 0.096
0.178 -0.120 0.095
0.177 -0.117 0.094
0.179 -0.116 0.095
0.180 -0.115 0.095
0.177 -0.111 0.094
0.177 -0.109 0.093
0.179 -0.107 0.094
0.180 -0.106 0.094
0.179 -0.103 0.093
0.178 -0.101 0.093
0.180 -0.100 0.093
0.179 -0.097 0.093
0.181 -0.096 0.093
0.181 -0.094 0.093
0.182 -0.093 0.093
0.181 -0.090 0.093
0.182 -0.089 0.093
0.182 -0.087 0.093
0.182 -0.085 0.093
0.183 -0.083 0.093
0.184 -0.082 0.093
0.184 -0.080 0.093
0.184 -0.078 0.093
0.183 -0.075 0.092
0.183 -0.074 0.092
0.183 -0.072 0.092
0.183 -0.070 0.092
0.183 -0.068 0.091
0.184 -0.066 0.092
0.185 -0.065 0.092
0.184 -0.063 0.092
0.183 -0.061 0.091
0.184 -0.059 0.092
0.183 -0.057 0.091
0.184 -0.055 0.091
0.184 -0.054 0.091
0.184 -0.052 0.091
0.185 -0.050 0.091
0.201 -0.053 0.099
0.182 -0.046 0.090
0.175 -0.042 0.086
0.183 -0.043 0.090
0.186 -0.041 0.091
0.184 -0.039 0.090
0.188 -0.038 0.092
0.188 -0.036 0.092
0.187 -0.035 0.092
0.191 -0.033 0.094
0.219 -0.036 0.107
0.218 -0.034 0.107
0.177 -0.026 0.086
0.184 -0.025 0.090
0.198 -0.025 0.097
0.213 -0.025 0.104
0.177 -0.017 0.086
0.169 -0.015 0.083
0.172 -0.014 0.084
0.165 -0.012 0.081
0.165 -0.010 0.080
0.166 -0.009 0.081
0.168 -0.007 0.082
0.164 -0.005 0.080
0.160 -0.004 0.078
0.159 -0.002 0.078
0.166 -0.001 0.081
0.166 0.001 0.081
0.161 0.002 0.079
0.155 0.004 0.075
0.150 0.005 0.073
0.153 0.007 0.074
0.158 0.008 0.077
0.161 0.010 0.079
0.163 0.012 0.080
0.164 0.013 0.080
0.160 0.015 0.078
0.159 0.016 0.078
0.155 0.017 0.076
0.153 0.018 0.075
0.153 0.020 0.075
0.155 0.021 0.076
0.159 0.024 0.078
0.151 0.024 0.074
0.152 0.025 0.075
0.152 0.027 0.075
0.148 0.028 0.073
0.147 0.029 0.072
0.155 0.032 0.076
0.160 0.034 0.079
0.174 0.039 0.086
0.178 0.042 0.088
0.178 0.044 0.088
0.175 0.045 0.087
0.173 0.046 0.086
0.173 0.048 0.086
0.175 0.050 0.087
0.176 0.052 0.088
0.176 0.054 0.088
0.175 0.055 0.087
0.174 0.057 0.087
0.173 0.058 0.087
0.172 0.060 0.086
0.171 0.061 0.086
0.171 0.062 0.086
0.170 0.064 0.086
0.171 0.066 0.086
0.171 0.068 0.086
0.173 0.071 0.088
0.172 0.072 0.087
0.171 0.073 0.087
0.172 0.076 0.088
0.163 0.074 0.084
0.159 0.073 0.081
0.149 0.071 0.077
0.149 0.072 0.077
0.151 0.075 0.078
0.164 0.083 0.085
0.165 0.086 0.086
0.166 0.088 0.086
0.166 0.090 0.087
0.168 0.093 0.088
0.168 0.095 0.088
0.167 0.096 0.088
0.167 0.098 0.088
0.167 0.101 0.089
0.166 0.102 0.088
0.164 0.103 0.088
0.166 0.106 0.089
0.165 0.107 0.089
0.165 0.109 0.089
0.165 0.111 0.089
0.163 0.112 0.088
0.162 0.114 0.088
0.161 0.115 0.088
0.162 0.118 0.089
0.161 0.120 0.089
0.162 0.122 0.090
0.164 0.126 0.091
0.157 0.123 0.088
0.156 0.124 0.087
0.154 0.125 0.087
0.153 0.126 0.086
0.156 0.131 0.089
0.157 0.135 0.090
0.150 0.131 0.086
0.147 0.131 0.085
0.147 0.133 0.086
0.151 0.139 0.088
0.154 0.144 0.090
0.151 0.144 0.089
0.151 0.147 0.090
0.156 0.154 0.093
0.158 0.159 0.095
0.157 0.161 0.095
0.155 0.162 0.094
0.151 0.160 0.092
0.149 0.160 0.091
0.149 0.163 0.092
0.149 0.165 0.092
0.149 0.169 0.093
0.147 0.168 0.092
0.145 0.170 0.092
0.145 0.172 0.092
0.143 0.173 0.091
0.142 0.174 0.091
0.144 0.178 0.092
0.143 0.180 0.093
0.126 -0.159 0.081
0.125 -0.156 0.080
0.125 -0.154 0.080
0.127 -0.154 0.081
0.127 -0.152 0.081
0.126 -0.149 0.080
0.127 -0.147 0.080
0.127 -0.146 0.080
0.127 -0.143 0.079
0.125 -0.139 0.077
0.125 -0.137 0.077
0.126 -0.136 0.077
0.126 -0.134 0.077
0.127 -0.132 0.077
0.128 -0.132 0.078
0.127 -0.129 0.076
0.130 -0.129 0.078
0.165 -0.159 0.098
0.168 -0.159 0.099
0.171 -0.160 0.101
0.171 -0.158 0.100
0.173 -0.156 0.101
0.173 -0.154 0.101
0.174 -0.153 0.101
0.174 -0.150 0.100
0.175 -0.148 0.100
0.176 -0.146 0.100
0.176 -0.144 0.100
0.176 -0.142 0.100
0.176 -0.139 0.099
0.176 -0.137 0.099
0.175 -0.134 0.098
0.175 -0.131 0.097
0.174 -0.129 0.097
0.174 -0.126 0.096
0.175 -0.125 0.096
0.175 -0.122 0.096
0.176 -0.121 0.096
0.175 -0.118 0.095
0.175 -0.116 0.095
0.176 -0.115 0.096
0.177 -0.113 0.095
0.175 -0.109 0.094
0.175 -0.107 0.094
0.177 -0.106 0.095
0.178 -0.105 0.095
0.175 -0.102 0.093
0.176 -0.100 0.094
0.177 -0.098 0.094
0.178 -0.097 0.094
0.178 -0.095 0.094
0.179 -0.093 0.094
0.178 -0.091 0.094
0.178 -0.089 0.093
0.178 -0.087 0.093
0.179 -0.086 0.093
0.180 -0.084 0.093
0.180 -0.082 0.094
0.181 -0.081 0.094
0.182 -0.079 0.094
0.182 -0.077 0.094
0.182 -0.075 0.094
0.181 -0.073 0.093
0.181 -0.071 0.093
0.179 -0.069 0.092
0.180 -0.067 0.092
0.181 -0.066 0.092
0.182 -0.064 0.093
0.182 -0.062 0.093
0.182 -0.060 0.093
0.181 -0.058 0.092
0.181 -0.057 0.092
0.182 -0.055 0.092
0.182 -0.053 0.092
0.182 -0.051 0.092
0.189 -0.051 0.095
0.187 -0.049 0.094
0.179 -0.045 0.090
0.182 -0.044 0.092
0.184 -0.043 0.093
0.184 -0.041 0.092
0.184 -0.039 0.092
0.184 -0.038 0.092
0.186 -0.036 0.093
0.185 -0.034 0.093
0.184 -0.032 0.092
0.214 -0.035 0.107
0.213 -0.033 0.106
0.181 -0.027 0.091
0.179 -0.024 0.089
0.184 -0.023 0.092
0.216 -0.025 0.108
0.201 -0.022 0.100
0.169 -0.017 0.084
0.171 -0.015 0.085
0.161 -0.013 0.080
0.159 -0.011 0.079
0.160 -0.010 0.080
0.159 -0.008 0.079
0.162 -0.007 0.080
0.163 -0.005 0.081
0.164 -0.004 0.082
0.167 -0.002 0.083
0.166 -0.001 0.083
0.164 0.001 0.082
0.159 0.002 0.079
0.156 0.004 0.078
0.154 0.005 0.077
0.155 0.007 0.077
0.158 0.008 0.078
0.159 0.010 0.079
0.158 0.011 0.079
0.154 0.012 0.077
0.157 0.014 0.078
0.155 0.016 0.078
0.153 0.017 0.076
0.152 0.018 0.076
0.156 0.020 0.078
0.158 0.022 0.079
0.154 0.023 0.077
0.154 0.024 0.077
0.153 0.026 0.077
0.153 0.027 0.077
0.153 0.029 0.077
0.152 0.030 0.076
0.149 0.031 0.075
0.154 0.033 0.077
0.166 0.037 0.084
0.174 0.041 0.088
0.174 0.043 0.088
0.171 0.044 0.087
0.164 0.044 0.083
0.170 0.047 0.086
0.173 0.049 0.088
0.173 0.051 0.088
0.174 0.053 0.089
0.173 0.054 0.088
0.170 0.055 0.087
0.170 0.057 0.087
0.170 0.059 0.087
0.170 0.061 0.087
0.169 0.062 0.087
0.168 0.064 0.087
0.168 0.065 0.087
0.173 0.069 0.089
0.169 0.069 0.088
0.168 0.071 0.087
0.174 0.075 0.091
0.162 0.072 0.085
0.158 0.072 0.083
0.150 0.070 0.079
0.148 0.070 0.078
0.150 0.073 0.079
0.159 0.079 0.084
0.163 0.083 0.086
0.164 0.085 0.087
0.164 0.087 0.087
0.165 0.089 0.088
0.165 0.091 0.088
0.166 0.094 0.089
0.165 0.095 0.089
0.165 0.097 0.089
0.164 0.099 0.089
0.162 0.100 0.088
0.162 0.102 0.088
0.163 0.104 0.089
0.163 0.107 0.090
0.161 0.107 0.089
0.161 0.109 0.089
0.161 0.111 0.089
0.159 0.112 0.089
0.159 0.114 0.089
0.158 0.116 0.089
0.158 0.118 0.089
0.158 0.120 0.089
0.161 0.124 0.091
0.159 0.125 0.091
0.152 0.122 0.087
0.150 0.122 0.086
0.153 0.127 0.088
0.155 0.131 0.090
0.156 0.134 0.091
0.151 0.132 0.088
0.149 0.133 0.088
0.152 0.138 0.090
0.155 0.144 0.093
0.155 0.145 0.093
0.153 0.146 0.092
0.146 0.143 0.089
0.146 0.144 0.089
0.147 0.149 0.090
0.149 0.155 0.092
0.151 0.160 0.094
0.151 0.162 0.094
0.148 0.162 0.093
0.148 0.165 0.094
0.148 0.168 0.095
0.144 0.166 0.093
0.144 0.168 0.093
0.143 0.170 0.093
0.143 0.173 0.093
0.143 0.176 0.094
0.143 0.177 0.094
0.142 0.179 0.094
0.124 -0.156 0.081
0.125 -0.155 0.082
0.126 -0.155 0.082
0.125 -0.152 0.081
0.125 -0.149 0.081
0.126 -0.149 0.081
0.128 -0.148 0.082
0.128 -0.146 0.082
0.127 -0.144 0.081
0.126 -0.141 0.080
0.126 -0.139 0.080
0.127 -0.137 0.079
0.127 -0.136 0.080
0.129 -0.136 0.080
0.130 -0.134 0.080
0.135 -0.137 0.083
0.159 -0.157 0.097
0.165 -0.160 0.100
0.167 -0.159 0.101
0.169 -0.158 0.101
0.170 -0.157 0.102
0.171 -0.155 0.102
0.171 -0.153 0.102
0.171 -0.150 0.101
0.171 -0.148 0.101
0.172 -0.146 0.101
0.173 -0.144 0.101
0.173 -0.142 0.101
0.174 -0.140 0.100
0.174 -0.138 0.100
0.171 -0.134 0.098
0.171 -0.131 0.098
0.171 -0.129 0.097
0.171 -0.127 0.097
0.173 -0.126 0.098
0.172 -0.123 0.097
0.172 -0.121 0.097
0.173 -0.119 0.097
0.172 -0.117 0.096
0.173 -0.115 0.096
0.174 -0.113 0.096
0.174 -0.111 0.096
0.172 -0.108 0.095
0.173 -0.106 0.095
0.174 -0.105 0.095
0.174 -0.103 0.095
0.174 -0.101 0.095
0.174 -0.099 0.094
0.174 -0.097 0.094
0.174 -0.095 0.094
0.174 -0.093 0.093
0.175 -0.092 0.094
0.175 -0.090 0.094
0.176 -0.088 0.094
0.176 -0.086 0.094
0.176 -0.085 0.094
0.176 -0.082 0.094
0.177 -0.081 0.094
0.178 -0.080 0.094
0.179 -0.078 0.095
0.180 -0.076 0.095
0.179 -0.074 0.094
0.179 -0.072 0.094
0.177 -0.070 0.093
0.177 -0.068 0.093
0.177 -0.066 0.093
0.177 -0.064 0.093
0.178 -0.063 0.093
0.181 -0.062 0.094
0.180 -0.060 0.093
0.179 -0.058 0.093
0.180 -0.056 0.093
0.180 -0.054 0.093
0.180 -0.053 0.093
0.180 -0.051 0.093
0.189 -0.052 0.097
0.186 -0.049 0.096
0.184 -0.047 0.095
0.181 -0.044 0.093
0.182 -0.043 0.094
0.182 -0.041 0.094
0.182 -0.039 0.093
0.181 -0.037 0.093
0.182 -0.035 0.093
0.183 -0.034 0.093
0.180 -0.031 0.092
0.203 -0.034 0.104
0.202 -0.032 0.103
0.192 -0.028 0.098
0.180 -0.025 0.092
0.178 -0.023 0.091
0.199 -0.023 0.101
0.204 -0.022 0.104
0.164 -0.016 0.083
0.172 -0.015 0.088
0.161 -0.013 0.082
0.157 -0.011 0.080
0.158 -0.010 0.080
0.158 -0.008 0.080
0.161 -0.007 0.082
0.161 -0.005 0.082
0.164 -0.004 0.083
0.167 -0.002 0.085
0.167 -0.001 0.085
0.162 0.001 0.082
0.157 0.002 0.080
0.158 0.004 0.080
0.159 0.005 0.081
0.163 0.007 0.083
0.159 0.008 0.081
0.159 0.010 0.081
0.155 0.011 0.079
0.154 0.013 0.078
0.150 0.014 0.077
0.152 0.015 0.078
0.152 0.017 0.077
0.152 0.018 0.078
0.156 0.020 0.080
0.159 0.022 0.082
0.155 0.023 0.079
0.152 0.024 0.078
0.152 0.025 0.078
0.153 0.027 0.079
0.154 0.029 0.079
0.151 0.030 0.078
0.150 0.031 0.077
0.151 0.033 0.078
0.163 0.037 0.084
0.170 0.040 0.088
0.171 0.042 0.088
0.164 0.042 0.085
0.164 0.044 0.085
0.163 0.045 0.085
0.162 0.046 0.084
0.162 0.048 0.084
0.168 0.052 0.088
0.167 0.053 0.087
0.168 0.055 0.088
0.168 0.057 0.088
0.169 0.059 0.088
0.168 0.060 0.088
0.167 0.062 0.088
0.167 0.063 0.088
0.168 0.065 0.088
0.167 0.067 0.088
0.166 0.068 0.088
0.165 0.069 0.087
0.167 0.072 0.089
0.157 0.069 0.084
0.150 0.068 0.080
0.149 0.069 0.080
0.152 0.072 0.082
0.158 0.077 0.085
0.161 0.080 0.087
0.162 0.083 0.088
0.162 0.084 0.088
0.163 0.087 0.088
0.163 0.089 0.089
0.162 0.090 0.089
0.161 0.091 0.088
0.160 0.093 0.088
0.160 0.095 0.088
0.160 0.097 0.089
0.160 0.099 0.089
0.160 0.101 0.089
0.160 0.102 0.089
0.159 0.104 0.089
0.158 0.106 0.089
0.158 0.107 0.089
0.158 0.110 0.090
0.157 0.111 0.090
0.156 0.113 0.089
0.156 0.115 0.090
0.156 0.116 0.090
0.156 0.118 0.090
0.155 0.120 0.090
0.158 0.125 0.092
0.152 0.122 0.089
0.147 0.121 0.087
0.147 0.123 0.087
0.151 0.128 0.090
0.152 0.131 0.091
0.151 0.133 0.091
0.150 0.135 0.091
0.153 0.139 0.093
0.154 0.143 0.094
0.153 0.145 0.094
0.152 0.146 0.094
0.148 0.144 0.092
0.136 0.135 0.085
0.156 0.160 0.098
0.156 0.164 0.099
0.154 0.163 0.098
0.150 0.162 0.096
0.147 0.161 0.095
0.143 0.160 0.093
0.147 0.167 0.096
0.148 0.170 0.097
0.146 0.171 0.096
0.145 0.173 0.096
0.143 0.173 0.095
0.142 0.175 0.095
0.142 0.177 0.095
0.124 -0.155 0.083
0.125 -0.154 0.083
0.125 -0.152 0.083
0.125 -0.150 0.083
0.126 -0.149 0.083
0.127 -0.149 0.083
0.126 -0.145 0.082
0.127 -0.144 0.083
0.127 -0.142 0.082
0.127 -0.140 0.082
0.128 -0.138 0.082
0.129 -0.137 0.082
0.130 -0.137 0.082
0.139 -0.144 0.088
0.160 -0.163 0.101
0.161 -0.162 0.101
0.162 -0.160 0.101
0.164 -0.159 0.102
0.167 -0.159 0.103
0.166 -0.156 0.102
0.168 -0.155 0.102
0.169 -0.154 0.103
0.169 -0.151 0.102
0.169 -0.149 0.102
0.170 -0.147 0.102
0.170 -0.145 0.102
0.170 -0.143 0.101
0.170 -0.140 0.101
0.170 -0.138 0.100
0.171 -0.136 0.101
0.168 -0.131 0.098
0.168 -0.129 0.098
0.167 -0.126 0.097
0.169 -0.125 0.098
0.169 -0.124 0.098
0.170 -0.122 0.098
0.170 -0.120 0.098
0.170 -0.117 0.097
0.170 -0.115 0.097
0.170 -0.113 0.096
0.171 -0.112 0.097
0.171 -0.110 0.096
0.170 -0.107 0.096
0.170 -0.105 0.095
0.171 -0.104 0.096
0.172 -0.102 0.096
0.172 -0.100 0.096
0.171 -0.098 0.095
0.171 -0.096 0.095
0.170 -0.093 0.094
0.171 -0.092 0.094
0.172 -0.090 0.094
0.172 -0.088 0.094
0.173 -0.087 0.094
0.174 -0.085 0.095
0.172 -0.083 0.094
0.173 -0.081 0.094
0.174 -0.080 0.094
0.175 -0.078 0.094
0.174 -0.076 0.094
0.175 -0.075 0.094
0.176 -0.073 0.095
0.176 -0.071 0.094
0.175 -0.069 0.094
0.175 -0.067 0.093
0.175 -0.065 0.093
0.175 -0.064 0.094
0.177 -0.063 0.094
0.178 -0.061 0.095
0.177 -0.059 0.094
0.176 -0.057 0.093
0.176 -0.055 0.093
0.177 -0.054 0.094
0.177 -0.052 0.093
0.179 -0.051 0.094
0.183 -0.050 0.096
0.182 -0.048 0.096
0.179 -0.045 0.094
0.179 -0.044 0.094
0.179 -0.042 0.094
0.180 -0.040 0.094
0.179 -0.038 0.094
0.178 -0.036 0.093
0.176 -0.034 0.092
0.178 -0.033 0.093
0.177 -0.031 0.092
0.198 -0.033 0.103
0.198 -0.031 0.103
0.191 -0.028 0.099
0.181 -0.025 0.094
0.177 -0.023 0.092
0.183 -0.022 0.095
0.193 -0.021 0.100
0.190 -0.019 0.099
0.166 -0.015 0.087
0.167 -0.013 0.087
0.161 -0.011 0.084
0.159 -0.010 0.082
0.161 -0.008 0.084
0.160 -0.007 0.083
0.157 -0.005 0.081
0.156 -0.004 0.081
0.162 -0.002 0.084
0.158 -0.001 0.082
0.157 0.001 0.082
0.158 0.002 0.082
0.159 0.004 0.083
0.158 0.005 0.082
0.158 0.007 0.082
0.160 0.008 0.083
0.154 0.010 0.080
0.154 0.011 0.080
0.153 0.012 0.079
0.150 0.014 0.078
0.149 0.015 0.078
0.153 0.017 0.080
0.153 0.018 0.080
0.153 0.020 0.080
0.155 0.022 0.081
0.156 0.023 0.082
0.150 0.024 0.078
0.150 0.025 0.078
0.151 0.027 0.079
0.151 0.028 0.079
0.152 0.030 0.080
0.150 0.031 0.079
0.152 0.033 0.080
0.162 0.037 0.085
0.167 0.040 0.088
0.167 0.041 0.088
0.164 0.042 0.087
0.164 0.044 0.087
0.162 0.045 0.086
0.163 0.047 0.086
0.161 0.048 0.086
0.160 0.049 0.085
0.159 0.051 0.085
0.160 0.052 0.085
0.163 0.055 0.087
0.165 0.058 0.088
0.167 0.060 0.090
0.167 0.061 0.089
0.165 0.063 0.089
0.164 0.064 0.089
0.165 0.066 0.089
0.163 0.067 0.088
0.162 0.069 0.088
0.156 0.067 0.084
0.148 0.066 0.081
0.149 0.068 0.081
0.151 0.070 0.082
0.157 0.075 0.086
0.160 0.078 0.088
0.160 0.080 0.088
0.160 0.082 0.088
0.160 0.084 0.089
0.160 0.086 0.089
0.160 0.087 0.089
0.159 0.089 0.089
0.158 0.090 0.089
0.158 0.092 0.089
0.158 0.094 0.089
0.158 0.096 0.089
0.158 0.098 0.090
0.157 0.099 0.089
0.156 0.100 0.089
0.157 0.103 0.090
0.156 0.105 0.090
0.156 0.106 0.090
0.156 0.108 0.090
0.155 0.110 0.090
0.154 0.112 0.090
0.154 0.113 0.090
0.154 0.115 0.090
0.153 0.117 0.090
0.152 0.118 0.090
0.151 0.120 0.090
0.161 0.130 0.096
0.148 0.121 0.089
0.146 0.122 0.088
0.145 0.124 0.088
0.147 0.128 0.090
0.147 0.130 0.090
0.145 0.130 0.089
0.146 0.134 0.091
0.149 0.139 0.093
0.149 0.141 0.093
0.147 0.141 0.092
0.140 0.137 0.089
0.134 0.133 0.085
0.146 0.148 0.094
0.146 0.150 0.094
0.145 0.152 0.094
0.147 0.157 0.096
0.149 0.161 0.097
0.148 0.163 0.098
0.148 0.166 0.098
0.147 0.168 0.098
0.148 0.171 0.099
0.147 0.172 0.099
0.145 0.173 0.098
0.144 0.174 0.098
0.137 0.169 0.094
0.139 0.174 0.096
0.119 -0.149 0.081
0.123 -0.152 0.084
0.124 -0.152 0.084
0.126 -0.151 0.085
0.127 -0.150 0.085
0.127 -0.148 0.085
0.126 -0.145 0.084
0.127 -0.144 0.084
0.128 -0.143 0.085
0.130 -0.143 0.085
0.130 -0.141 0.085
0.147 -0.158 0.096
0.152 -0.160 0.099
0.157 -0.163 0.101
0.160 -0.163 0.103
0.162 -0.163 0.103
0.162 -0.160 0.103
0.163 -0.159 0.103
0.164 -0.157 0.103
0.164 -0.155 0.103
0.165 -0.153 0.103
0.167 -0.152 0.104
0.167 -0.150 0.103
0.167 -0.147 0.103
0.166 -0.145 0.102
0.168 -0.144 0.103
0.167 -0.141 0.102
0.167 -0.138 0.101
0.168 -0.136 0.101
0.168 -0.134 0.101
0.166 -0.130 0.100
0.166 -0.128 0.099
0.165 -0.125 0.098
0.165 -0.123 0.098
0.167 -0.122 0.098
0.167 -0.120 0.098
0.167 -0.118 0.098
0.168 -0.116 0.098
0.168 -0.114 0.098
0.168 -0.112 0.097
0.168 -0.110 0.097
0.168 -0.108 0.097
0.168 -0.106 0.097
0.168 -0.104 0.096
0.169 -0.103 0.097
0.169 -0.101 0.096
0.169 -0.099 0.096
0.169 -0.096 0.095
0.168 -0.094 0.095
0.168 -0.092 0.095
0.168 -0.090 0.094
