VERSION .7
FIELDS x y z
SIZE 4 4 4
TYPE F F F
COUNT 1 1 1
WIDTH     2443
HEIGHT 1
VIEWPOINT 0 0 0 1 0 0 0
POINTS     2443
DATA ascii
0.362 -0.067 -0.044
0.288 -0.051 -0.035
0.286 -0.048 -0.035
0.287 -0.045 -0.035
0.293 -0.044 -0.035
0.281 -0.039 -0.034
0.281 -0.037 -0.034
0.283 -0.035 -0.034
0.295 -0.033 -0.036
0.296 -0.031 -0.036
0.290 -0.025 -0.035
0.301 -0.023 -0.036
0.290 -0.020 -0.035
0.303 -0.018 -0.036
0.308 -0.015 -0.037
0.298 -0.012 -0.036
0.301 -0.010 -0.036
0.305 -0.007 -0.037
0.307 -0.004 -0.037
0.310 -0.001 -0.037
0.312 0.001 -0.038
0.314 0.004 -0.038
0.316 0.007 -0.038
0.319 0.010 -0.038
0.317 0.013 -0.038
0.316 0.016 -0.038
0.316 0.018 -0.038
0.315 0.021 -0.038
0.314 0.024 -0.038
0.313 0.027 -0.038
0.311 0.029 -0.038
0.311 0.032 -0.038
0.312 0.035 -0.038
0.311 0.038 -0.038
0.314 0.041 -0.038
0.314 0.044 -0.038
0.318 0.047 -0.038
0.320 0.051 -0.039
0.325 0.054 -0.039
0.323 0.057 -0.039
0.326 0.061 -0.040
0.324 0.063 -0.039
0.323 0.066 -0.039
0.322 0.069 -0.039
0.321 0.072 -0.039
0.320 0.074 -0.039
0.320 0.077 -0.039
0.319 0.080 -0.039
0.317 0.083 -0.039
0.315 0.085 -0.038
0.314 0.088 -0.038
0.330 0.095 -0.040
0.319 0.095 -0.039
0.310 0.095 -0.038
0.311 0.099 -0.038
0.306 0.100 -0.038
0.307 0.103 -0.038
0.310 0.107 -0.038
0.319 0.114 -0.039
0.326 0.119 -0.040
0.318 0.123 -0.040
1.243 0.505 -0.155
1.237 0.528 -0.155
0.354 0.166 -0.045
0.343 0.164 -0.043
0.250 -0.344 -0.036
0.259 -0.353 -0.037
0.258 -0.346 -0.037
0.261 -0.345 -0.037
0.267 -0.349 -0.038
0.206 -0.251 -0.029
0.203 -0.244 -0.028
0.195 -0.227 -0.027
0.181 -0.208 -0.025
0.179 -0.202 -0.024
0.180 -0.200 -0.024
0.193 -0.212 -0.026
0.201 -0.217 -0.027
0.300 -0.305 -0.039
0.295 -0.295 -0.039
0.294 -0.290 -0.038
0.296 -0.287 -0.038
0.299 -0.285 -0.039
0.299 -0.281 -0.038
0.299 -0.277 -0.038
0.300 -0.273 -0.038
0.301 -0.270 -0.038
0.304 -0.268 -0.038
0.303 -0.264 -0.038
0.301 -0.258 -0.038
0.298 -0.251 -0.037
0.299 -0.248 -0.037
0.300 -0.245 -0.037
0.293 -0.235 -0.036
0.231 -0.182 -0.029
0.220 -0.171 -0.027
0.211 -0.161 -0.026
0.205 -0.154 -0.025
0.196 -0.145 -0.024
0.212 -0.154 -0.026
0.213 -0.153 -0.026
0.214 -0.150 -0.026
0.211 -0.146 -0.025
0.212 -0.144 -0.026
0.213 -0.143 -0.026
0.213 -0.140 -0.026
0.215 -0.139 -0.026
0.213 -0.135 -0.025
0.213 -0.132 -0.025
0.215 -0.131 -0.026
0.217 -0.131 -0.026
0.213 -0.126 -0.025
0.213 -0.123 -0.025
0.214 -0.122 -0.025
0.200 -0.111 -0.023
0.211 -0.115 -0.025
0.217 -0.116 -0.025
0.201 -0.105 -0.023
0.208 -0.107 -0.024
0.206 -0.104 -0.024
0.215 -0.106 -0.025
0.218 -0.105 -0.025
0.221 -0.105 -0.026
0.223 -0.103 -0.026
0.222 -0.101 -0.026
0.217 -0.096 -0.025
0.220 -0.095 -0.025
0.224 -0.094 -0.026
0.223 -0.092 -0.026
0.221 -0.089 -0.025
0.216 -0.085 -0.025
0.214 -0.082 -0.024
0.210 -0.078 -0.024
0.220 -0.080 -0.025
0.229 -0.081 -0.026
0.237 -0.082 -0.027
0.244 -0.082 -0.028
0.246 -0.080 -0.028
0.248 -0.078 -0.028
0.252 -0.077 -0.029
0.284 -0.084 -0.032
0.290 -0.083 -0.033
0.395 -0.110 -0.044
0.401 -0.108 -0.045
0.400 -0.104 -0.045
0.419 -0.105 -0.047
0.426 -0.103 -0.048
0.430 -0.100 -0.048
0.427 -0.095 -0.048
0.411 -0.088 -0.046
0.393 -0.080 -0.044
0.381 -0.074 -0.043
0.289 -0.051 -0.032
0.287 -0.048 -0.032
0.287 -0.045 -0.032
0.287 -0.043 -0.032
0.282 -0.039 -0.031
0.281 -0.037 -0.031
0.285 -0.035 -0.032
0.289 -0.033 -0.032
0.285 -0.030 -0.032
0.282 -0.027 -0.031
0.295 -0.025 -0.033
0.303 -0.023 -0.034
0.288 -0.020 -0.032
0.305 -0.018 -0.034
0.313 -0.016 -0.035
0.300 -0.012 -0.033
0.302 -0.010 -0.034
0.305 -0.007 -0.034
0.307 -0.004 -0.034
0.309 -0.001 -0.034
0.311 0.001 -0.035
0.314 0.004 -0.035
0.317 0.007 -0.035
0.318 0.010 -0.035
0.317 0.013 -0.035
0.317 0.016 -0.035
0.316 0.018 -0.035
0.315 0.021 -0.035
0.315 0.024 -0.035
0.314 0.027 -0.035
0.312 0.029 -0.035
0.312 0.032 -0.035
0.312 0.035 -0.035
0.313 0.038 -0.035
0.314 0.041 -0.035
0.316 0.044 -0.035
0.318 0.047 -0.036
0.321 0.051 -0.036
0.326 0.055 -0.037
0.323 0.057 -0.036
0.324 0.060 -0.036
0.323 0.063 -0.036
0.323 0.066 -0.036
0.322 0.069 -0.036
0.321 0.072 -0.036
0.320 0.074 -0.036
0.320 0.077 -0.036
0.318 0.080 -0.036
0.316 0.082 -0.036
0.315 0.085 -0.036
0.314 0.088 -0.036
0.318 0.092 -0.036
0.320 0.095 -0.036
0.314 0.097 -0.036
0.311 0.099 -0.035
0.305 0.100 -0.035
0.301 0.101 -0.034
0.310 0.107 -0.035
0.311 0.111 -0.035
0.325 0.126 -0.037
0.355 0.166 -0.041
0.345 0.165 -0.040
0.344 0.168 -0.040
0.352 0.176 -0.041
0.364 0.342 -0.048
0.372 0.374 -0.050
0.371 0.379 -0.050
0.257 -0.354 -0.034
0.254 -0.346 -0.033
0.258 -0.346 -0.034
0.262 -0.346 -0.034
0.262 -0.342 -0.034
0.211 -0.260 -0.027
0.203 -0.247 -0.026
0.170 -0.200 -0.021
0.175 -0.203 -0.022
0.181 -0.207 -0.023
0.177 -0.200 -0.022
0.183 -0.204 -0.023
0.294 -0.304 -0.036
0.298 -0.303 -0.036
0.295 -0.295 -0.035
0.294 -0.290 -0.035
0.301 -0.292 -0.036
0.298 -0.285 -0.035
0.298 -0.281 -0.035
0.297 -0.275 -0.035
0.299 -0.272 -0.035
0.304 -0.273 -0.035
0.305 -0.269 -0.035
0.302 -0.263 -0.035
0.298 -0.255 -0.034
0.297 -0.250 -0.034
0.297 -0.247 -0.034
0.291 -0.237 -0.033
0.294 -0.236 -0.034
0.222 -0.173 -0.025
0.215 -0.165 -0.024
0.212 -0.159 -0.024
0.209 -0.155 -0.023
0.202 -0.147 -0.023
0.208 -0.148 -0.023
0.209 -0.147 -0.023
0.211 -0.146 -0.023
0.213 -0.145 -0.024
0.214 -0.143 -0.024
0.213 -0.140 -0.023
0.216 -0.137 -0.024
0.211 -0.131 -0.023
0.205 -0.125 -0.022
0.214 -0.128 -0.023
0.212 -0.125 -0.023
0.217 -0.126 -0.024
0.212 -0.120 -0.023
0.207 -0.115 -0.022
0.212 -0.115 -0.023
0.219 -0.117 -0.024
0.219 -0.115 -0.024
0.212 -0.109 -0.023
0.214 -0.108 -0.023
0.216 -0.107 -0.023
0.217 -0.105 -0.023
0.220 -0.104 -0.023
0.222 -0.103 -0.024
0.221 -0.100 -0.023
0.218 -0.097 -0.023
0.217 -0.094 -0.023
0.222 -0.094 -0.023
0.220 -0.091 -0.023
0.221 -0.089 -0.023
0.220 -0.086 -0.023
0.206 -0.079 -0.022
0.220 -0.082 -0.023
0.221 -0.080 -0.023
0.225 -0.080 -0.023
0.231 -0.080 -0.024
0.242 -0.081 -0.025
0.242 -0.079 -0.025
0.243 -0.077 -0.025
0.258 -0.079 -0.027
0.277 -0.082 -0.029
0.287 -0.083 -0.030
0.392 -0.109 -0.041
0.395 -0.106 -0.041
0.407 -0.106 -0.042
0.416 -0.104 -0.043
0.424 -0.102 -0.044
0.429 -0.099 -0.044
0.423 -0.094 -0.044
0.408 -0.087 -0.042
0.392 -0.080 -0.040
0.379 -0.074 -0.039
0.291 -0.051 -0.030
0.288 -0.048 -0.030
0.287 -0.045 -0.030
0.286 -0.043 -0.029
0.283 -0.040 -0.029
0.282 -0.037 -0.029
0.284 -0.035 -0.029
0.289 -0.033 -0.030
0.288 -0.030 -0.030
0.291 -0.028 -0.030
0.298 -0.026 -0.031
0.295 -0.023 -0.030
0.287 -0.019 -0.029
0.306 -0.018 -0.031
0.310 -0.015 -0.032
0.301 -0.012 -0.031
0.302 -0.010 -0.031
0.304 -0.007 -0.031
0.307 -0.004 -0.031
0.309 -0.001 -0.032
0.311 0.001 -0.032
0.313 0.004 -0.032
0.317 0.007 -0.032
0.318 0.010 -0.033
0.317 0.013 -0.033
0.317 0.016 -0.032
0.317 0.018 -0.032
0.316 0.021 -0.032
0.315 0.024 -0.032
0.314 0.027 -0.032
0.314 0.030 -0.032
0.314 0.032 -0.032
0.314 0.035 -0.032
0.314 0.038 -0.032
0.315 0.041 -0.032
0.317 0.044 -0.033
0.318 0.047 -0.033
0.321 0.051 -0.033
0.323 0.054 -0.033
0.323 0.057 -0.033
0.323 0.060 -0.033
0.323 0.063 -0.033
0.321 0.066 -0.033
0.321 0.069 -0.033
0.320 0.071 -0.033
0.320 0.074 -0.033
0.319 0.077 -0.033
0.318 0.080 -0.033
0.316 0.082 -0.033
0.314 0.085 -0.033
0.314 0.088 -0.033
0.317 0.091 -0.033
0.314 0.094 -0.033
0.310 0.096 -0.032
0.307 0.098 -0.032
0.309 0.101 -0.032
0.306 0.103 -0.032
0.314 0.109 -0.033
0.308 0.110 -0.032
0.308 0.116 -0.032
0.322 0.127 -0.034
1.275 0.530 -0.135
1.271 0.541 -0.135
1.255 0.547 -0.133
1.264 0.577 -0.135
0.362 0.204 -0.039
0.354 0.215 -0.039
0.347 0.216 -0.038
0.329 0.208 -0.036
0.330 0.216 -0.037
0.324 0.220 -0.036
0.375 0.274 -0.042
0.386 0.287 -0.044
0.372 0.322 -0.044
0.373 0.339 -0.044
0.372 0.344 -0.044
0.378 0.355 -0.045
0.379 0.362 -0.046
0.374 0.363 -0.045
0.384 0.379 -0.047
0.384 0.385 -0.047
0.381 0.389 -0.047
0.380 0.395 -0.047
0.398 0.434 -0.050
0.396 0.439 -0.050
0.396 0.447 -0.050
0.407 0.489 -0.053
0.406 0.496 -0.053
0.396 0.516 -0.053
0.250 -0.345 -0.030
0.251 -0.342 -0.030
0.254 -0.341 -0.030
0.252 -0.334 -0.030
0.205 -0.253 -0.024
0.172 -0.206 -0.020
0.166 -0.197 -0.019
0.165 -0.192 -0.019
0.171 -0.196 -0.019
0.183 -0.207 -0.021
0.194 -0.216 -0.022
0.283 -0.296 -0.031
0.294 -0.303 -0.032
0.297 -0.302 -0.033
0.295 -0.295 -0.032
0.298 -0.293 -0.032
0.300 -0.291 -0.032
0.299 -0.286 -0.032
0.296 -0.279 -0.032
0.297 -0.275 -0.032
0.300 -0.273 -0.032
0.303 -0.272 -0.032
0.300 -0.265 -0.032
0.298 -0.259 -0.031
0.298 -0.255 -0.031
0.297 -0.250 -0.031
0.293 -0.243 -0.031
0.297 -0.242 -0.031
0.294 -0.236 -0.030
0.231 -0.182 -0.024
0.226 -0.175 -0.023
0.216 -0.165 -0.022
0.214 -0.161 -0.022
0.214 -0.158 -0.022
0.207 -0.150 -0.021
0.205 -0.146 -0.021
0.207 -0.145 -0.021
0.211 -0.146 -0.021
0.215 -0.146 -0.022
0.213 -0.142 -0.021
0.212 -0.139 -0.021
0.215 -0.139 -0.022
0.203 -0.128 -0.020
0.212 -0.132 -0.021
0.215 -0.131 -0.021
0.207 -0.125 -0.021
0.215 -0.127 -0.021
0.215 -0.124 -0.021
0.206 -0.117 -0.020
0.208 -0.115 -0.020
0.196 -0.107 -0.019
0.212 -0.113 -0.021
0.213 -0.112 -0.021
0.200 -0.103 -0.019
0.215 -0.108 -0.021
0.211 -0.104 -0.021
0.213 -0.103 -0.021
0.218 -0.103 -0.021
0.222 -0.102 -0.021
0.221 -0.100 -0.021
0.218 -0.097 -0.021
0.219 -0.095 -0.021
0.221 -0.093 -0.021
0.220 -0.091 -0.021
0.218 -0.088 -0.021
0.217 -0.085 -0.021
0.216 -0.083 -0.021
0.208 -0.078 -0.020
0.225 -0.082 -0.021
0.225 -0.080 -0.021
0.228 -0.078 -0.022
0.233 -0.078 -0.022
0.244 -0.079 -0.023
0.248 -0.078 -0.024
0.261 -0.080 -0.025
0.274 -0.081 -0.026
0.285 -0.082 -0.027
0.391 -0.109 -0.037
0.396 -0.106 -0.037
0.399 -0.103 -0.038
0.407 -0.102 -0.038
0.420 -0.101 -0.040
0.428 -0.099 -0.040
0.429 -0.095 -0.040
0.399 -0.085 -0.038
0.386 -0.079 -0.036
0.381 -0.074 -0.036
0.366 -0.068 -0.034
0.288 -0.051 -0.027
0.285 -0.048 -0.027
0.285 -0.045 -0.027
0.288 -0.043 -0.027
0.283 -0.040 -0.027
0.281 -0.037 -0.026
0.282 -0.034 -0.026
0.290 -0.033 -0.027
0.300 -0.031 -0.028
0.306 -0.029 -0.029
0.305 -0.026 -0.029
0.292 -0.022 -0.027
0.289 -0.020 -0.027
0.300 -0.018 -0.028
0.307 -0.015 -0.029
0.302 -0.012 -0.028
0.302 -0.010 -0.028
0.303 -0.007 -0.028
0.306 -0.004 -0.029
0.309 -0.001 -0.029
0.311 0.001 -0.029
0.314 0.004 -0.029
0.315 0.007 -0.029
0.315 0.010 -0.029
0.321 0.013 -0.030
0.318 0.016 -0.030
0.317 0.018 -0.030
0.317 0.021 -0.030
0.316 0.024 -0.030
0.316 0.027 -0.030
0.315 0.030 -0.029
0.315 0.033 -0.029
0.315 0.035 -0.029
0.315 0.038 -0.030
0.317 0.041 -0.030
0.317 0.044 -0.030
0.319 0.048 -0.030
0.321 0.051 -0.030
0.324 0.054 -0.030
0.324 0.057 -0.030
0.323 0.060 -0.030
0.322 0.063 -0.030
0.322 0.066 -0.030
0.321 0.068 -0.030
0.320 0.071 -0.030
0.319 0.074 -0.030
0.318 0.077 -0.030
0.316 0.079 -0.030
0.316 0.082 -0.030
0.315 0.085 -0.030
0.313 0.087 -0.030
0.318 0.092 -0.030
0.311 0.093 -0.030
0.300 0.092 -0.029
0.305 0.097 -0.029
0.313 0.102 -0.030
0.316 0.107 -0.030
0.307 0.106 -0.029
0.322 0.115 -0.031
0.327 0.120 -0.031
0.320 0.120 -0.031
0.316 0.125 -0.030
1.281 0.533 -0.124
1.293 0.551 -0.125
1.267 0.553 -0.123
1.276 0.596 -0.124
1.246 0.595 -0.122
1.256 0.613 -0.123
1.269 0.633 -0.124
1.290 0.670 -0.127
1.292 0.686 -0.127
0.994 0.560 -0.099
1.306 0.780 -0.131
1.309 0.797 -0.131
1.295 0.803 -0.130
1.294 0.817 -0.130
1.292 0.831 -0.130
1.290 0.845 -0.131
1.295 0.864 -0.132
1.309 0.905 -0.134
1.305 0.919 -0.134
1.305 0.935 -0.134
1.316 0.993 -0.137
0.361 0.312 -0.039
0.368 0.335 -0.040
0.368 0.340 -0.040
0.376 0.353 -0.041
0.371 0.354 -0.041
0.374 0.363 -0.041
0.376 0.372 -0.042
0.376 0.378 -0.042
0.373 0.380 -0.042
0.374 0.388 -0.042
0.408 0.437 -0.046
0.398 0.434 -0.045
0.393 0.436 -0.045
0.381 0.496 -0.046
0.252 -0.347 -0.027
0.252 -0.343 -0.027
0.248 -0.332 -0.027
0.189 -0.240 -0.020
0.176 -0.217 -0.018
0.171 -0.207 -0.018
0.167 -0.200 -0.017
0.167 -0.198 -0.017
0.166 -0.194 -0.017
0.171 -0.196 -0.018
0.217 -0.241 -0.022
0.227 -0.249 -0.023
0.283 -0.300 -0.028
0.292 -0.306 -0.029
0.295 -0.304 -0.029
0.297 -0.301 -0.029
0.300 -0.300 -0.030
0.299 -0.294 -0.029
0.297 -0.288 -0.029
0.293 -0.280 -0.029
0.297 -0.279 -0.029
0.297 -0.275 -0.029
0.302 -0.275 -0.029
0.302 -0.271 -0.029
0.296 -0.261 -0.028
0.296 -0.257 -0.028
0.298 -0.255 -0.028
0.298 -0.251 -0.028
0.290 -0.240 -0.027
0.290 -0.237 -0.027
0.230 -0.182 -0.021
0.218 -0.170 -0.020
0.214 -0.163 -0.020
0.211 -0.159 -0.020
0.210 -0.155 -0.019
0.206 -0.150 -0.019
0.205 -0.147 -0.019
0.202 -0.142 -0.019
0.207 -0.143 -0.019
0.222 -0.151 -0.020
0.213 -0.142 -0.019
0.209 -0.137 -0.019
0.210 -0.136 -0.019
0.203 -0.128 -0.018
0.216 -0.134 -0.019
0.218 -0.133 -0.020
0.217 -0.130 -0.019
0.217 -0.128 -0.019
0.215 -0.124 -0.019
0.205 -0.116 -0.018
0.201 -0.112 -0.018
0.209 -0.114 -0.019
0.209 -0.112 -0.018
0.206 -0.108 -0.018
0.215 -0.111 -0.019
0.200 -0.101 -0.018
0.205 -0.101 -0.018
0.211 -0.102 -0.019
0.215 -0.102 -0.019
0.219 -0.101 -0.019
0.221 -0.100 -0.019
0.220 -0.097 -0.019
0.222 -0.096 -0.019
0.222 -0.094 -0.019
0.218 -0.090 -0.019
0.215 -0.087 -0.019
0.216 -0.085 -0.019
0.219 -0.084 -0.019
0.218 -0.081 -0.019
0.223 -0.081 -0.019
0.228 -0.081 -0.020
0.230 -0.079 -0.020
0.247 -0.083 -0.021
0.248 -0.081 -0.021
0.252 -0.080 -0.022
0.260 -0.080 -0.022
0.275 -0.082 -0.024
0.392 -0.109 -0.033
0.393 -0.106 -0.034
0.400 -0.104 -0.034
0.404 -0.101 -0.034
0.415 -0.100 -0.035
0.430 -0.099 -0.037
0.427 -0.095 -0.036
0.387 -0.082 -0.033
0.384 -0.078 -0.033
0.381 -0.074 -0.032
0.282 -0.050 -0.024
0.282 -0.047 -0.024
0.286 -0.045 -0.024
0.284 -0.042 -0.024
0.285 -0.040 -0.024
0.281 -0.037 -0.024
0.280 -0.034 -0.024
0.290 -0.033 -0.024
0.311 -0.032 -0.026
0.317 -0.030 -0.027
0.310 -0.027 -0.026
0.298 -0.023 -0.025
0.288 -0.019 -0.024
0.295 -0.017 -0.025
0.307 -0.015 -0.026
0.310 -0.013 -0.026
0.300 -0.010 -0.025
0.304 -0.007 -0.026
0.306 -0.004 -0.026
0.307 -0.001 -0.026
0.312 0.001 -0.026
0.314 0.004 -0.026
0.314 0.007 -0.027
0.315 0.010 -0.027
0.321 0.013 -0.027
0.319 0.016 -0.027
0.319 0.019 -0.027
0.318 0.021 -0.027
0.317 0.024 -0.027
0.317 0.027 -0.027
0.317 0.030 -0.027
0.316 0.033 -0.027
0.316 0.035 -0.027
0.317 0.039 -0.027
0.318 0.042 -0.027
0.320 0.045 -0.027
0.322 0.048 -0.027
0.325 0.051 -0.028
0.324 0.054 -0.028
0.331 0.058 -0.028
0.322 0.060 -0.027
0.322 0.063 -0.027
0.321 0.066 -0.027
0.321 0.068 -0.027
0.320 0.071 -0.027
0.319 0.074 -0.027
0.317 0.077 -0.027
0.315 0.079 -0.027
0.314 0.082 -0.027
0.314 0.085 -0.027
0.313 0.087 -0.027
0.318 0.092 -0.027
0.320 0.095 -0.027
0.312 0.096 -0.027
0.299 0.095 -0.026
0.294 0.096 -0.025
0.315 0.106 -0.027
0.316 0.110 -0.027
0.330 0.117 -0.029
0.340 0.124 -0.029
0.328 0.123 -0.028
0.328 0.130 -0.029
1.259 0.523 -0.110
1.282 0.546 -0.112
1.264 0.590 -0.111
1.264 0.603 -0.111
1.266 0.618 -0.112
1.275 0.635 -0.113
1.274 0.649 -0.113
1.280 0.665 -0.114
1.278 0.678 -0.114
1.276 0.747 -0.115
1.294 0.772 -0.117
1.302 0.792 -0.118
1.296 0.804 -0.118
1.292 0.816 -0.117
1.304 0.839 -0.119
1.302 0.853 -0.119
1.302 0.869 -0.119
1.308 0.889 -0.120
1.310 0.906 -0.121
1.304 0.917 -0.121
1.301 0.932 -0.121
1.301 0.948 -0.121
1.313 1.008 -0.123
1.314 1.026 -0.124
0.504 0.587 -0.053
0.505 0.597 -0.053
0.497 0.598 -0.053
0.487 0.595 -0.052
0.429 0.558 -0.047
0.263 -0.363 -0.025
0.246 -0.334 -0.023
0.239 -0.321 -0.023
0.170 -0.213 -0.016
0.166 -0.205 -0.015
0.165 -0.201 -0.015
0.170 -0.203 -0.016
0.173 -0.204 -0.016
0.217 -0.245 -0.020
0.226 -0.251 -0.020
0.289 -0.307 -0.026
0.295 -0.309 -0.026
0.297 -0.306 -0.026
0.297 -0.302 -0.026
0.299 -0.299 -0.026
0.299 -0.294 -0.026
0.294 -0.285 -0.026
0.296 -0.283 -0.026
0.295 -0.277 -0.025
0.297 -0.275 -0.026
0.300 -0.274 -0.026
0.302 -0.271 -0.026
0.295 -0.261 -0.025
0.297 -0.258 -0.025
0.299 -0.255 -0.025
0.295 -0.248 -0.025
0.292 -0.242 -0.025
0.285 -0.233 -0.024
0.280 -0.224 -0.023
0.216 -0.168 -0.018
0.208 -0.159 -0.017
0.211 -0.159 -0.017
0.208 -0.154 -0.017
0.205 -0.149 -0.017
0.201 -0.144 -0.016
0.202 -0.142 -0.017
0.202 -0.139 -0.016
0.210 -0.143 -0.017
0.213 -0.142 -0.017
0.212 -0.139 -0.017
0.208 -0.134 -0.017
0.205 -0.130 -0.017
0.207 -0.129 -0.017
0.209 -0.128 -0.017
0.218 -0.131 -0.017
0.217 -0.128 -0.017
0.216 -0.125 -0.017
0.213 -0.121 -0.017
0.202 -0.112 -0.016
0.210 -0.115 -0.017
0.209 -0.112 -0.016
0.212 -0.111 -0.017
0.215 -0.111 -0.017
0.219 -0.110 -0.017
0.213 -0.105 -0.017
0.211 -0.102 -0.017
0.215 -0.102 -0.017
0.221 -0.102 -0.017
0.222 -0.101 -0.017
0.223 -0.099 -0.017
0.224 -0.097 -0.017
0.223 -0.094 -0.017
0.215 -0.089 -0.017
0.215 -0.087 -0.017
0.221 -0.087 -0.017
0.206 -0.079 -0.016
0.214 -0.080 -0.016
0.227 -0.082 -0.017
0.233 -0.082 -0.018
0.246 -0.085 -0.019
0.256 -0.086 -0.020
0.249 -0.081 -0.019
0.247 -0.078 -0.019
0.253 -0.077 -0.019
0.383 -0.106 -0.029
0.395 -0.106 -0.030
0.402 -0.104 -0.031
0.409 -0.102 -0.031
0.414 -0.100 -0.031
0.425 -0.098 -0.032
0.423 -0.094 -0.032
0.398 -0.085 -0.030
0.387 -0.079 -0.029
0.388 -0.075 -0.029
0.284 -0.050 -0.021
0.288 -0.048 -0.022
0.285 -0.045 -0.022
0.286 -0.043 -0.022
0.286 -0.040 -0.022
0.286 -0.037 -0.022
0.285 -0.035 -0.021
0.291 -0.033 -0.022
0.303 -0.031 -0.023
0.310 -0.029 -0.023
0.307 -0.026 -0.023
0.299 -0.023 -0.023
0.294 -0.020 -0.022
0.291 -0.017 -0.022
0.315 -0.016 -0.024
0.317 -0.013 -0.024
0.299 -0.009 -0.023
0.301 -0.007 -0.023
0.305 -0.004 -0.023
0.306 -0.001 -0.023
0.312 0.001 -0.023
0.314 0.004 -0.024
0.315 0.007 -0.024
0.316 0.010 -0.024
0.316 0.013 -0.024
0.323 0.016 -0.024
0.319 0.019 -0.024
0.319 0.021 -0.024
0.318 0.024 -0.024
0.318 0.027 -0.024
0.318 0.030 -0.024
0.318 0.033 -0.024
0.318 0.036 -0.024
0.319 0.039 -0.024
0.320 0.042 -0.024
0.322 0.045 -0.024
0.323 0.048 -0.024
0.324 0.051 -0.025
0.323 0.054 -0.024
0.322 0.057 -0.024
0.321 0.060 -0.024
0.321 0.063 -0.024
0.320 0.065 -0.024
0.319 0.068 -0.024
0.319 0.071 -0.024
0.319 0.074 -0.024
0.318 0.077 -0.024
0.317 0.079 -0.024
0.314 0.082 -0.024
0.312 0.084 -0.024
0.313 0.087 -0.024
0.318 0.092 -0.024
0.321 0.096 -0.025
0.317 0.098 -0.024
0.309 0.098 -0.024
0.300 0.098 -0.023
0.302 0.101 -0.023
0.312 0.108 -0.024
0.332 0.118 -0.026
0.339 0.124 -0.026
0.318 0.123 -0.025
1.253 0.533 -0.098
1.274 0.581 -0.100
1.283 0.599 -0.101
1.273 0.607 -0.100
1.275 0.622 -0.101
1.279 0.637 -0.101
1.275 0.649 -0.101
1.265 0.657 -0.100
1.259 0.668 -0.100
1.286 0.767 -0.103
1.291 0.785 -0.104
1.289 0.799 -0.104
1.296 0.818 -0.105
1.301 0.837 -0.106
1.308 0.857 -0.107
1.298 0.866 -0.106
1.307 0.887 -0.107
1.304 0.902 -0.107
1.301 0.915 -0.107
1.292 0.925 -0.107
1.295 0.944 -0.107
1.309 0.970 -0.109
1.316 1.010 -0.110
0.508 0.591 -0.047
0.508 0.601 -0.048
0.500 0.601 -0.047
0.489 0.597 -0.046
0.479 0.594 -0.046
0.377 0.491 -0.037
0.226 -0.311 -0.019
0.203 -0.261 -0.017
0.179 -0.227 -0.015
0.173 -0.217 -0.014
0.166 -0.205 -0.014
0.169 -0.206 -0.014
0.180 -0.215 -0.015
0.195 -0.230 -0.016
0.222 -0.251 -0.018
0.236 -0.263 -0.019
0.272 -0.298 -0.021
0.280 -0.302 -0.022
0.280 -0.298 -0.022
0.293 -0.307 -0.023
0.292 -0.301 -0.023
0.295 -0.300 -0.023
0.294 -0.294 -0.023
0.289 -0.284 -0.022
0.295 -0.286 -0.023
0.296 -0.282 -0.023
0.296 -0.278 -0.022
0.293 -0.271 -0.022
0.298 -0.271 -0.022
0.293 -0.263 -0.022
0.294 -0.259 -0.022
0.297 -0.258 -0.022
0.297 -0.254 -0.022
0.295 -0.248 -0.022
0.289 -0.240 -0.021
0.284 -0.231 -0.021
0.275 -0.220 -0.020
0.206 -0.157 -0.015
0.211 -0.158 -0.015
0.209 -0.154 -0.015
0.206 -0.150 -0.015
0.203 -0.145 -0.015
0.200 -0.141 -0.014
0.204 -0.141 -0.015
0.204 -0.138 -0.015
0.211 -0.141 -0.015
0.215 -0.141 -0.015
0.214 -0.138 -0.015
0.214 -0.136 -0.015
0.207 -0.129 -0.015
0.222 -0.135 -0.016
0.210 -0.126 -0.015
0.214 -0.126 -0.015
0.217 -0.125 -0.015
0.212 -0.120 -0.015
0.199 -0.111 -0.014
0.198 -0.108 -0.014
0.211 -0.113 -0.015
0.212 -0.111 -0.015
0.199 -0.102 -0.014
0.208 -0.105 -0.014
0.206 -0.101 -0.014
0.208 -0.101 -0.014
0.219 -0.103 -0.015
0.221 -0.102 -0.015
0.221 -0.100 -0.015
0.222 -0.098 -0.015
0.224 -0.097 -0.015
0.224 -0.095 -0.015
0.222 -0.091 -0.015
0.216 -0.087 -0.015
0.215 -0.084 -0.015
0.207 -0.079 -0.014
0.208 -0.078 -0.014
0.224 -0.081 -0.015
0.230 -0.081 -0.016
0.234 -0.080 -0.016
0.245 -0.082 -0.016
0.249 -0.081 -0.017
0.244 -0.077 -0.016
0.254 -0.078 -0.017
0.274 -0.081 -0.018
0.288 -0.083 -0.019
0.398 -0.107 -0.027
0.404 -0.105 -0.027
0.412 -0.103 -0.028
0.420 -0.101 -0.028
0.427 -0.099 -0.029
0.429 -0.095 -0.029
0.403 -0.086 -0.027
0.387 -0.079 -0.026
0.381 -0.074 -0.025
0.370 -0.069 -0.025
0.289 -0.051 -0.019
0.287 -0.048 -0.019
0.286 -0.045 -0.019
0.287 -0.043 -0.019
0.289 -0.040 -0.019
0.286 -0.037 -0.019
0.279 -0.034 -0.019
0.291 -0.033 -0.019
0.287 -0.030 -0.019
0.294 -0.028 -0.020
0.301 -0.026 -0.020
0.302 -0.023 -0.020
0.302 -0.020 -0.020
0.294 -0.017 -0.019
0.301 -0.015 -0.020
0.301 -0.010 -0.020
0.301 -0.007 -0.020
0.303 -0.004 -0.020
0.304 -0.001 -0.020
0.307 0.001 -0.020
0.312 0.004 -0.021
0.315 0.007 -0.021
0.315 0.010 -0.021
0.315 0.013 -0.021
0.318 0.016 -0.021
0.323 0.019 -0.021
0.320 0.021 -0.021
0.320 0.024 -0.021
0.319 0.027 -0.021
0.319 0.030 -0.021
0.319 0.033 -0.021
0.320 0.036 -0.021
0.320 0.039 -0.021
0.321 0.042 -0.021
0.322 0.045 -0.021
0.323 0.048 -0.021
0.323 0.051 -0.022
0.323 0.054 -0.022
0.321 0.057 -0.021
0.321 0.060 -0.021
0.321 0.062 -0.021
0.320 0.065 -0.021
0.319 0.068 -0.021
0.318 0.071 -0.021
0.318 0.074 -0.021
0.318 0.077 -0.021
0.317 0.080 -0.021
0.316 0.082 -0.021
0.313 0.084 -0.021
0.321 0.090 -0.022
0.316 0.091 -0.021
0.312 0.093 -0.021
0.319 0.098 -0.022
0.318 0.101 -0.021
0.309 0.101 -0.021
0.308 0.103 -0.021
0.311 0.108 -0.021
0.320 0.114 -0.022
0.334 0.122 -0.023
0.321 0.124 -0.022
0.330 0.131 -0.023
1.268 0.579 -0.087
1.266 0.591 -0.087
1.285 0.627 -0.089
1.292 0.643 -0.090
1.280 0.651 -0.089
1.268 0.659 -0.088
1.275 0.676 -0.089
1.292 0.771 -0.091
1.292 0.786 -0.092
1.289 0.799 -0.092
1.288 0.813 -0.092
1.294 0.832 -0.093
1.293 0.862 -0.093
1.291 0.876 -0.093
0.514 0.597 -0.042
0.512 0.605 -0.042
0.503 0.605 -0.042
0.486 0.593 -0.040
0.475 0.589 -0.040
0.397 0.508 -0.033
0.390 0.508 -0.033
0.234 -0.323 -0.017
0.198 -0.269 -0.014
0.165 -0.212 -0.012
0.170 -0.215 -0.012
0.170 -0.213 -0.012
0.170 -0.210 -0.012
0.177 -0.216 -0.012
0.190 -0.228 -0.013
0.205 -0.242 -0.014
0.215 -0.250 -0.015
0.224 -0.257 -0.015
0.232 -0.262 -0.016
0.267 -0.297 -0.018
0.274 -0.300 -0.019
0.278 -0.300 -0.019
0.277 -0.294 -0.019
0.272 -0.285 -0.018
0.287 -0.296 -0.019
0.286 -0.290 -0.019
0.283 -0.283 -0.019
0.283 -0.279 -0.019
0.284 -0.275 -0.019
0.290 -0.277 -0.019
0.288 -0.270 -0.019
0.288 -0.266 -0.019
0.286 -0.261 -0.019
0.287 -0.258 -0.019
0.287 -0.253 -0.019
0.290 -0.252 -0.019
0.297 -0.254 -0.019
0.294 -0.248 -0.019
0.283 -0.234 -0.018
0.281 -0.229 -0.018
0.272 -0.218 -0.017
0.210 -0.163 -0.013
0.206 -0.157 -0.013
0.202 -0.152 -0.013
0.211 -0.156 -0.013
0.210 -0.153 -0.013
0.207 -0.148 -0.013
0.198 -0.139 -0.012
0.202 -0.140 -0.012
0.207 -0.140 -0.013
0.210 -0.140 -0.013
0.213 -0.140 -0.013
0.221 -0.142 -0.014
0.220 -0.139 -0.013
0.212 -0.132 -0.013
0.219 -0.134 -0.013
0.218 -0.131 -0.013
0.214 -0.126 -0.013
0.212 -0.122 -0.013
0.210 -0.119 -0.013
0.211 -0.117 -0.013
0.211 -0.115 -0.013
0.210 -0.112 -0.013
0.210 -0.110 -0.013
0.213 -0.109 -0.013
0.200 -0.101 -0.012
0.205 -0.101 -0.012
0.207 -0.100 -0.012
0.217 -0.103 -0.013
0.222 -0.102 -0.013
0.220 -0.100 -0.013
0.218 -0.096 -0.013
0.225 -0.097 -0.013
0.225 -0.095 -0.013
0.224 -0.092 -0.013
0.219 -0.088 -0.013
0.209 -0.082 -0.012
0.208 -0.079 -0.012
0.210 -0.078 -0.012
0.220 -0.080 -0.013
0.227 -0.080 -0.013
0.236 -0.081 -0.014
0.246 -0.082 -0.014
0.251 -0.082 -0.015
0.255 -0.080 -0.015
0.262 -0.080 -0.015
0.271 -0.080 -0.016
0.278 -0.080 -0.016
0.402 -0.108 -0.023
0.407 -0.106 -0.024
0.413 -0.103 -0.024
0.426 -0.102 -0.025
0.432 -0.100 -0.025
0.428 -0.095 -0.025
0.393 -0.084 -0.023
0.385 -0.078 -0.022
0.372 -0.072 -0.021
0.361 -0.067 -0.021
0.290 -0.051 -0.017
0.285 -0.048 -0.016
0.282 -0.045 -0.016
0.283 -0.042 -0.016
0.291 -0.041 -0.017
0.292 -0.038 -0.017
0.278 -0.034 -0.016
0.286 -0.032 -0.016
0.294 -0.030 -0.017
0.304 -0.029 -0.017
0.303 -0.026 -0.017
0.309 -0.024 -0.018
0.313 -0.021 -0.018
0.307 -0.018 -0.018
0.298 -0.015 -0.017
0.306 -0.012 -0.018
0.306 -0.010 -0.018
0.302 -0.007 -0.017
0.302 -0.004 -0.017
0.304 -0.001 -0.017
0.307 0.001 -0.018
0.310 0.004 -0.018
0.313 0.007 -0.018
0.314 0.010 -0.018
0.315 0.013 -0.018
0.316 0.016 -0.018
0.320 0.019 -0.018
0.322 0.022 -0.018
0.320 0.024 -0.018
0.320 0.027 -0.018
0.320 0.030 -0.018
0.320 0.033 -0.018
0.321 0.036 -0.018
0.321 0.039 -0.018
0.321 0.042 -0.018
0.322 0.045 -0.019
0.324 0.048 -0.019
0.325 0.051 -0.019
0.321 0.054 -0.019
0.321 0.057 -0.018
0.321 0.060 -0.019
0.321 0.062 -0.019
0.320 0.065 -0.018
0.319 0.068 -0.018
0.318 0.071 -0.018
0.317 0.074 -0.018
0.317 0.076 -0.018
0.316 0.079 -0.018
0.315 0.082 -0.018
0.314 0.084 -0.018
0.312 0.090 -0.018
0.311 0.093 -0.018
0.318 0.098 -0.019
0.324 0.103 -0.019
0.318 0.104 -0.019
0.316 0.106 -0.019
0.312 0.108 -0.018
0.324 0.115 -0.019
0.326 0.119 -0.019
0.330 0.127 -0.019
1.278 0.570 -0.076
1.269 0.579 -0.076
1.256 0.586 -0.075
1.299 0.647 -0.078
0.511 0.593 -0.036
0.509 0.601 -0.036
0.506 0.607 -0.036
0.497 0.607 -0.035
0.392 0.502 -0.028
0.383 0.498 -0.028
0.193 -0.265 -0.012
0.190 -0.258 -0.011
0.178 -0.239 -0.011
0.172 -0.228 -0.010
0.164 -0.214 -0.010
0.161 -0.207 -0.009
0.162 -0.206 -0.010
0.170 -0.213 -0.010
0.180 -0.221 -0.011
0.182 -0.221 -0.011
0.200 -0.240 -0.012
0.210 -0.248 -0.012
0.219 -0.254 -0.013
0.225 -0.257 -0.013
0.261 -0.290 -0.015
0.273 -0.298 -0.015
0.270 -0.282 -0.015
0.273 -0.273 -0.015
0.276 -0.271 -0.015
0.279 -0.270 -0.015
0.276 -0.259 -0.015
0.277 -0.256 -0.015
0.278 -0.253 -0.015
0.275 -0.243 -0.015
0.284 -0.247 -0.015
0.283 -0.242 -0.015
0.283 -0.238 -0.015
0.281 -0.233 -0.015
0.276 -0.225 -0.015
0.268 -0.215 -0.014
0.220 -0.174 -0.012
0.209 -0.162 -0.011
0.201 -0.154 -0.011
0.205 -0.154 -0.011
0.207 -0.153 -0.011
0.213 -0.154 -0.011
0.213 -0.152 -0.011
0.205 -0.144 -0.011
0.203 -0.140 -0.011
0.205 -0.139 -0.011
0.213 -0.142 -0.011
0.221 -0.145 -0.011
0.213 -0.137 -0.011
0.216 -0.137 -0.011
0.217 -0.135 -0.011
0.216 -0.132 -0.011
0.217 -0.130 -0.011
0.213 -0.125 -0.011
0.212 -0.122 -0.011
0.212 -0.120 -0.011
0.211 -0.117 -0.011
0.208 -0.114 -0.011
0.207 -0.110 -0.010
0.208 -0.109 -0.010
0.210 -0.108 -0.011
0.215 -0.108 -0.011
0.218 -0.108 -0.011
0.217 -0.105 -0.011
0.217 -0.103 -0.011
0.221 -0.102 -0.011
0.224 -0.101 -0.011
0.224 -0.099 -0.011
0.224 -0.097 -0.011
0.222 -0.094 -0.011
0.221 -0.091 -0.011
0.217 -0.087 -0.011
0.206 -0.081 -0.010
0.203 -0.078 -0.010
0.208 -0.077 -0.010
0.225 -0.082 -0.011
0.238 -0.084 -0.012
0.247 -0.085 -0.012
0.252 -0.084 -0.012
0.254 -0.083 -0.012
0.257 -0.081 -0.013
0.260 -0.080 -0.013
0.266 -0.079 -0.013
0.273 -0.078 -0.013
0.386 -0.107 -0.019
0.399 -0.107 -0.019
0.407 -0.105 -0.020
0.413 -0.103 -0.020
0.418 -0.101 -0.020
0.428 -0.099 -0.021
0.420 -0.093 -0.020
0.411 -0.087 -0.020
0.397 -0.081 -0.019
0.288 -0.051 -0.014
0.286 -0.048 -0.014
0.279 -0.044 -0.014
0.285 -0.042 -0.014
0.293 -0.041 -0.014
0.293 -0.038 -0.014
0.280 -0.034 -0.014
0.283 -0.032 -0.014
0.289 -0.030 -0.014
0.316 -0.030 -0.015
0.317 -0.027 -0.015
0.316 -0.024 -0.015
0.316 -0.021 -0.015
0.309 -0.018 -0.015
0.299 -0.015 -0.014
0.300 -0.012 -0.015
0.305 -0.010 -0.015
0.299 -0.007 -0.014
0.301 -0.004 -0.015
0.304 -0.001 -0.015
0.306 0.001 -0.015
0.309 0.004 -0.015
0.311 0.007 -0.015
0.313 0.010 -0.015
0.314 0.013 -0.015
0.316 0.016 -0.015
0.318 0.018 -0.015
0.318 0.021 -0.015
0.322 0.025 -0.016
0.322 0.027 -0.016
0.320 0.030 -0.015
0.321 0.033 -0.016
0.321 0.036 -0.016
0.322 0.039 -0.016
0.323 0.042 -0.016
0.327 0.046 -0.016
0.324 0.048 -0.016
0.322 0.051 -0.016
0.321 0.054 -0.016
0.321 0.057 -0.016
0.321 0.060 -0.016
0.321 0.062 -0.016
0.319 0.065 -0.016
0.319 0.068 -0.016
0.318 0.071 -0.015
0.317 0.073 -0.015
0.316 0.076 -0.015
0.315 0.079 -0.015
0.314 0.082 -0.015
0.314 0.085 -0.015
0.324 0.090 -0.016
0.310 0.089 -0.015
0.306 0.091 -0.015
0.319 0.098 -0.016
0.326 0.103 -0.016
0.319 0.104 -0.016
0.313 0.105 -0.015
0.323 0.112 -0.016
0.324 0.115 -0.016
0.323 0.118 -0.016
0.319 0.120 -0.016
0.324 0.125 -0.016
0.327 0.129 -0.016
0.320 0.198 -0.017
0.323 0.203 -0.017
0.509 0.591 -0.030
0.509 0.601 -0.030
0.507 0.608 -0.030
0.503 0.613 -0.030
0.441 0.555 -0.026
0.433 0.554 -0.026
0.431 0.560 -0.026
0.202 -0.278 -0.010
0.175 -0.237 -0.008
0.171 -0.230 -0.008
0.169 -0.223 -0.008
0.165 -0.215 -0.008
0.163 -0.210 -0.008
0.171 -0.216 -0.008
0.178 -0.222 -0.008
0.181 -0.223 -0.008
0.198 -0.241 -0.009
0.209 -0.250 -0.010
0.206 -0.243 -0.010
0.208 -0.241 -0.010
0.215 -0.246 -0.010
0.209 -0.236 -0.010
0.211 -0.234 -0.010
0.224 -0.224 -0.010
0.271 -0.232 -0.012
0.274 -0.231 -0.012
0.272 -0.225 -0.012
0.269 -0.219 -0.012
0.211 -0.164 -0.009
0.202 -0.154 -0.009
0.203 -0.152 -0.009
0.206 -0.152 -0.009
0.210 -0.152 -0.009
0.211 -0.151 -0.009
0.206 -0.144 -0.009
0.202 -0.140 -0.009
0.203 -0.138 -0.009
0.212 -0.141 -0.009
0.212 -0.139 -0.009
0.216 -0.139 -0.009
0.217 -0.137 -0.009
0.216 -0.134 -0.009
0.218 -0.133 -0.009
0.219 -0.131 -0.009
0.215 -0.126 -0.009
0.214 -0.124 -0.009
0.212 -0.120 -0.009
0.208 -0.115 -0.009
0.202 -0.110 -0.008
0.202 -0.108 -0.008
0.207 -0.108 -0.008
0.210 -0.108 -0.009
0.211 -0.106 -0.009
0.204 -0.101 -0.008
0.206 -0.099 -0.008
0.208 -0.098 -0.008
0.221 -0.102 -0.009
0.226 -0.102 -0.009
0.227 -0.100 -0.009
0.224 -0.097 -0.009
0.226 -0.095 -0.009
0.220 -0.091 -0.009
0.219 -0.088 -0.009
0.205 -0.081 -0.008
0.204 -0.078 -0.008
0.207 -0.077 -0.008
0.233 -0.085 -0.009
0.238 -0.084 -0.010
0.240 -0.083 -0.010
0.244 -0.082 -0.010
0.239 -0.078 -0.010
0.250 -0.079 -0.010
0.250 -0.077 -0.010
0.262 -0.078 -0.010
0.270 -0.077 -0.011
0.383 -0.106 -0.015
0.395 -0.106 -0.016
0.402 -0.104 -0.016
0.409 -0.102 -0.016
0.415 -0.100 -0.016
0.421 -0.097 -0.017
0.425 -0.094 -0.017
0.412 -0.088 -0.016
0.400 -0.081 -0.016
0.385 -0.075 -0.015
0.288 -0.051 -0.011
0.282 -0.047 -0.011
0.283 -0.045 -0.011
0.285 -0.042 -0.011
0.293 -0.041 -0.012
0.293 -0.038 -0.012
0.290 -0.035 -0.011
0.280 -0.032 -0.011
0.299 -0.031 -0.012
0.309 -0.029 -0.012
0.314 -0.027 -0.012
0.314 -0.024 -0.012
0.312 -0.021 -0.012
0.306 -0.018 -0.012
0.295 -0.015 -0.012
0.293 -0.012 -0.012
0.301 -0.010 -0.012
0.307 -0.007 -0.012
0.299 -0.004 -0.012
0.303 -0.001 -0.012
0.306 0.001 -0.012
0.308 0.004 -0.012
0.311 0.007 -0.012
0.312 0.010 -0.012
0.314 0.013 -0.012
0.316 0.016 -0.012
0.317 0.018 -0.012
0.317 0.021 -0.012
0.317 0.024 -0.013
0.320 0.027 -0.013
0.321 0.030 -0.013
0.324 0.033 -0.013
0.325 0.037 -0.013
0.324 0.039 -0.013
0.322 0.042 -0.013
0.321 0.045 -0.013
0.319 0.047 -0.013
0.319 0.050 -0.013
0.320 0.053 -0.013
0.321 0.057 -0.013
0.320 0.059 -0.013
0.319 0.062 -0.013
0.319 0.065 -0.013
0.317 0.068 -0.013
0.317 0.070 -0.013
0.316 0.073 -0.013
0.314 0.076 -0.013
0.313 0.078 -0.012
0.313 0.081 -0.012
0.319 0.086 -0.013
0.313 0.087 -0.012
0.304 0.088 -0.012
0.300 0.089 -0.012
0.303 0.093 -0.012
0.311 0.098 -0.012
0.313 0.102 -0.013
0.304 0.102 -0.012
0.296 0.102 -0.012
0.307 0.109 -0.012
0.327 0.119 -0.013
0.322 0.121 -0.013
0.312 0.120 -0.013
0.317 0.125 -0.013
0.302 0.138 -0.012
0.320 0.153 -0.013
0.283 0.156 -0.012
0.330 0.189 -0.014
0.327 0.191 -0.014
0.323 0.193 -0.013
0.322 0.196 -0.013
0.321 0.199 -0.013
0.319 0.201 -0.013
0.316 0.203 -0.013
0.314 0.206 -0.013
0.312 0.208 -0.013
0.309 0.210 -0.013
0.306 0.211 -0.013
0.310 0.218 -0.013
0.316 0.226 -0.013
1.327 1.307 -0.060
0.501 0.563 -0.023
0.507 0.580 -0.024
0.508 0.590 -0.024
0.511 0.603 -0.024
0.508 0.609 -0.024
0.502 0.613 -0.024
0.457 0.566 -0.022
0.444 0.559 -0.021
0.439 0.562 -0.021
0.461 0.600 -0.022
0.149 -0.205 -0.005
0.166 -0.226 -0.006
0.169 -0.227 -0.006
0.169 -0.224 -0.006
0.169 -0.220 -0.006
0.174 -0.224 -0.006
0.184 -0.233 -0.007
0.187 -0.233 -0.007
0.193 -0.238 -0.007
0.203 -0.247 -0.007
0.196 -0.235 -0.007
0.193 -0.228 -0.007
0.194 -0.226 -0.007
0.196 -0.224 -0.007
0.198 -0.223 -0.007
0.200 -0.222 -0.007
0.202 -0.221 -0.007
0.204 -0.220 -0.007
0.206 -0.218 -0.007
0.209 -0.218 -0.007
0.212 -0.218 -0.007
0.214 -0.217 -0.007
0.216 -0.215 -0.007
0.218 -0.214 -0.007
0.220 -0.213 -0.007
0.223 -0.212 -0.008
0.225 -0.211 -0.008
0.228 -0.210 -0.008
0.231 -0.210 -0.008
0.233 -0.209 -0.008
0.236 -0.208 -0.008
0.238 -0.206 -0.008
0.242 -0.207 -0.008
0.245 -0.206 -0.008
0.245 -0.203 -0.008
0.246 -0.200 -0.008
0.246 -0.197 -0.008
0.229 -0.180 -0.008
0.222 -0.172 -0.007
0.212 -0.162 -0.007
0.204 -0.153 -0.007
0.205 -0.151 -0.007
0.208 -0.151 -0.007
0.208 -0.149 -0.007
0.207 -0.146 -0.007
0.203 -0.140 -0.007
0.203 -0.138 -0.007
0.204 -0.136 -0.007
0.210 -0.138 -0.007
0.212 -0.137 -0.007
0.218 -0.138 -0.007
0.219 -0.136 -0.007
0.214 -0.131 -0.007
0.219 -0.131 -0.007
0.222 -0.131 -0.007
0.216 -0.125 -0.007
0.210 -0.119 -0.007
0.206 -0.115 -0.007
0.205 -0.112 -0.006
0.205 -0.110 -0.006
0.208 -0.109 -0.007
0.210 -0.108 -0.007
0.210 -0.105 -0.007
0.211 -0.104 -0.007
0.206 -0.100 -0.006
0.206 -0.097 -0.006
0.219 -0.101 -0.007
0.221 -0.100 -0.007
0.222 -0.098 -0.007
0.226 -0.098 -0.007
0.228 -0.096 -0.007
0.230 -0.095 -0.007
0.210 -0.084 -0.007
0.212 -0.083 -0.007
0.209 -0.080 -0.006
0.231 -0.084 -0.007
0.233 -0.083 -0.007
0.234 -0.081 -0.007
0.235 -0.079 -0.007
0.246 -0.080 -0.008
0.246 -0.078 -0.008
0.252 -0.077 -0.008
0.262 -0.078 -0.008
0.277 -0.080 -0.008
0.383 -0.106 -0.012
0.394 -0.106 -0.012
0.400 -0.104 -0.012
0.406 -0.101 -0.012
0.415 -0.100 -0.013
0.423 -0.098 -0.013
0.421 -0.094 -0.013
0.411 -0.088 -0.013
0.396 -0.081 -0.012
0.382 -0.074 -0.012
0.370 -0.068 -0.011
0.287 -0.051 -0.009
0.286 -0.048 -0.009
0.284 -0.045 -0.009
0.286 -0.043 -0.009
0.290 -0.041 -0.009
0.293 -0.038 -0.009
0.293 -0.036 -0.009
0.282 -0.032 -0.009
0.285 -0.030 -0.009
0.297 -0.028 -0.009
0.304 -0.026 -0.009
0.309 -0.024 -0.009
0.313 -0.021 -0.009
0.304 -0.018 -0.009
0.294 -0.015 -0.009
0.291 -0.012 -0.009
0.298 -0.009 -0.009
0.304 -0.007 -0.009
0.303 -0.004 -0.009
0.301 -0.001 -0.009
0.304 0.001 -0.009
0.306 0.004 -0.009
0.307 0.007 -0.009
0.307 0.010 -0.009
0.312 0.013 -0.009
0.313 0.015 -0.010
0.314 0.018 -0.010
0.316 0.021 -0.010
0.317 0.024 -0.010
0.320 0.027 -0.010
0.320 0.030 -0.010
0.319 0.033 -0.010
0.319 0.036 -0.010
0.319 0.039 -0.010
0.319 0.042 -0.010
0.320 0.045 -0.010
0.318 0.047 -0.010
0.318 0.050 -0.010
0.318 0.053 -0.010
0.319 0.056 -0.010
0.317 0.059 -0.010
0.317 0.062 -0.010
0.317 0.065 -0.010
0.316 0.067 -0.010
0.315 0.070 -0.010
0.315 0.073 -0.010
0.313 0.075 -0.010
0.312 0.078 -0.010
0.313 0.081 -0.010
0.317 0.085 -0.010
0.305 0.085 -0.009
0.292 0.084 -0.009
0.296 0.088 -0.009
0.293 0.090 -0.009
0.296 0.094 -0.009
0.307 0.100 -0.009
0.311 0.104 -0.010
0.288 0.100 -0.009
0.303 0.108 -0.009
0.326 0.119 -0.010
0.338 0.127 -0.011
0.322 0.124 -0.010
0.315 0.125 -0.010
0.339 0.137 -0.011
0.335 0.139 -0.010
0.332 0.141 -0.010
0.304 0.136 -0.010
0.326 0.159 -0.010
0.333 0.173 -0.011
0.291 0.160 -0.009
0.316 0.181 -0.010
0.328 0.192 -0.010
0.327 0.195 -0.010
0.324 0.197 -0.010
0.322 0.199 -0.010
0.320 0.202 -0.010
0.318 0.204 -0.010
0.316 0.207 -0.010
0.314 0.209 -0.010
0.310 0.210 -0.010
0.312 0.215 -0.010
0.310 0.218 -0.010
0.307 0.219 -0.010
1.312 1.040 -0.044
1.314 1.059 -0.044
1.320 1.120 -0.044
1.315 1.134 -0.044
1.314 1.153 -0.044
1.318 1.176 -0.045
1.317 1.194 -0.045
1.318 1.215 -0.045
1.302 1.220 -0.045
1.315 1.274 -0.045
1.304 1.306 -0.045
1.360 1.385 -0.047
1.358 1.406 -0.047
0.499 0.561 -0.018
0.502 0.574 -0.018
0.510 0.592 -0.018
0.512 0.604 -0.018
0.504 0.605 -0.018
0.494 0.602 -0.018
0.155 -0.213 -0.004
0.164 -0.223 -0.004
0.168 -0.225 -0.004
0.170 -0.224 -0.004
0.172 -0.224 -0.004
0.175 -0.225 -0.004
0.187 -0.237 -0.004
0.195 -0.244 -0.005
0.200 -0.247 -0.005
0.202 -0.245 -0.005
0.191 -0.229 -0.005
0.193 -0.228 -0.005
0.195 -0.226 -0.005
0.196 -0.224 -0.005
0.198 -0.223 -0.005
0.201 -0.223 -0.005
0.202 -0.221 -0.005
0.203 -0.219 -0.005
0.206 -0.219 -0.005
0.209 -0.219 -0.005
0.212 -0.218 -0.005
0.214 -0.217 -0.005
0.216 -0.216 -0.005
0.217 -0.214 -0.005
0.221 -0.214 -0.005
0.224 -0.213 -0.005
0.226 -0.212 -0.005
0.228 -0.211 -0.005
0.231 -0.210 -0.005
0.233 -0.209 -0.005
0.236 -0.208 -0.005
0.238 -0.207 -0.005
0.241 -0.206 -0.006
0.244 -0.205 -0.006
0.247 -0.204 -0.006
0.249 -0.203 -0.006
0.246 -0.197 -0.006
0.218 -0.169 -0.005
0.213 -0.163 -0.005
0.210 -0.158 -0.005
0.203 -0.150 -0.005
0.207 -0.151 -0.005
0.211 -0.151 -0.005
0.211 -0.148 -0.005
0.210 -0.145 -0.005
0.199 -0.135 -0.004
0.208 -0.139 -0.005
0.207 -0.135 -0.005
0.213 -0.137 -0.005
0.218 -0.138 -0.005
0.215 -0.134 -0.005
0.205 -0.125 -0.005
0.212 -0.127 -0.005
0.217 -0.128 -0.005
0.216 -0.124 -0.005
0.212 -0.120 -0.005
0.210 -0.117 -0.005
0.206 -0.112 -0.005
0.204 -0.109 -0.004
0.205 -0.108 -0.005
0.210 -0.108 -0.005
0.209 -0.105 -0.005
0.209 -0.103 -0.005
0.208 -0.100 -0.005
0.207 -0.098 -0.005
0.212 -0.098 -0.005
0.217 -0.098 -0.005
0.221 -0.098 -0.005
0.226 -0.098 -0.005
0.227 -0.096 -0.005
0.223 -0.092 -0.005
0.216 -0.087 -0.005
0.210 -0.082 -0.005
0.208 -0.079 -0.005
0.204 -0.076 -0.004
0.228 -0.083 -0.005
0.233 -0.082 -0.005
0.233 -0.080 -0.005
0.239 -0.080 -0.005
0.245 -0.080 -0.005
0.253 -0.080 -0.005
0.261 -0.080 -0.006
0.281 -0.083 -0.006
0.282 -0.081 -0.006
0.385 -0.107 -0.008
0.393 -0.105 -0.008
0.400 -0.104 -0.009
0.408 -0.102 -0.009
0.418 -0.100 -0.009
0.426 -0.098 -0.009
0.422 -0.094 -0.009
0.411 -0.087 -0.009
0.392 -0.080 -0.008
0.379 -0.074 -0.008
0.288 -0.051 -0.006
0.287 -0.048 -0.006
0.286 -0.045 -0.006
0.287 -0.043 -0.006
0.287 -0.040 -0.006
0.292 -0.038 -0.006
0.291 -0.035 -0.006
0.283 -0.032 -0.006
0.284 -0.029 -0.006
0.288 -0.027 -0.006
0.299 -0.026 -0.006
0.311 -0.024 -0.007
0.313 -0.021 -0.007
0.303 -0.018 -0.006
0.297 -0.015 -0.006
0.293 -0.012 -0.006
0.294 -0.009 -0.006
0.304 -0.007 -0.006
0.306 -0.004 -0.007
0.301 -0.001 -0.006
0.304 0.001 -0.006
0.304 0.004 -0.007
0.305 0.007 -0.007
0.306 0.010 -0.007
0.308 0.012 -0.007
0.311 0.015 -0.007
0.312 0.018 -0.007
0.314 0.021 -0.007
0.316 0.024 -0.007
0.318 0.027 -0.007
0.319 0.030 -0.007
0.318 0.033 -0.007
0.317 0.036 -0.007
0.318 0.039 -0.007
0.318 0.042 -0.007
0.319 0.045 -0.007
0.320 0.048 -0.007
0.317 0.050 -0.007
0.317 0.053 -0.007
0.317 0.056 -0.007
0.316 0.059 -0.007
0.316 0.061 -0.007
0.316 0.064 -0.007
0.315 0.067 -0.007
0.314 0.070 -0.007
0.314 0.073 -0.007
0.313 0.075 -0.007
0.312 0.078 -0.007
0.322 0.084 -0.007
0.309 0.083 -0.007
0.319 0.089 -0.007
0.307 0.088 -0.007
0.301 0.089 -0.007
0.301 0.092 -0.007
0.304 0.096 -0.007
0.325 0.106 -0.007
0.320 0.107 -0.007
0.330 0.120 -0.007
0.328 0.123 -0.007
0.319 0.123 -0.007
0.320 0.127 -0.007
0.333 0.135 -0.007
0.341 0.142 -0.007
0.313 0.140 -0.007
0.333 0.162 -0.007
0.312 0.169 -0.007
0.313 0.173 -0.007
0.310 0.174 -0.007
0.321 0.184 -0.007
0.331 0.193 -0.007
0.329 0.196 -0.007
0.325 0.197 -0.007
0.322 0.199 -0.007
0.320 0.202 -0.007
0.318 0.204 -0.007
0.317 0.207 -0.007
0.314 0.209 -0.007
0.310 0.210 -0.007
0.311 0.215 -0.007
0.310 0.218 -0.007
1.331 0.985 -0.030
1.323 0.997 -0.030
1.320 1.012 -0.030
1.322 1.031 -0.030
1.316 1.044 -0.030
1.303 1.051 -0.030
1.311 1.075 -0.030
1.308 1.091 -0.030
1.307 1.108 -0.030
1.302 1.123 -0.030
1.311 1.149 -0.031
1.315 1.173 -0.031
1.316 1.193 -0.031
1.308 1.206 -0.031
1.301 1.240 -0.031
1.317 1.276 -0.031
1.311 1.291 -0.031
1.325 1.326 -0.031
1.342 1.366 -0.032
1.339 1.386 -0.032
0.518 0.554 -0.012
0.503 0.547 -0.012
0.508 0.589 -0.012
0.508 0.600 -0.012
0.506 0.607 -0.012
0.162 -0.223 -0.002
0.160 -0.218 -0.002
0.165 -0.222 -0.002
0.168 -0.223 -0.002
0.173 -0.226 -0.002
0.180 -0.231 -0.002
0.185 -0.235 -0.002
0.195 -0.243 -0.002
0.203 -0.250 -0.003
0.188 -0.228 -0.002
0.190 -0.228 -0.002
0.193 -0.227 -0.002
0.195 -0.226 -0.002
0.196 -0.225 -0.002
0.200 -0.225 -0.003
0.201 -0.223 -0.003
0.203 -0.222 -0.003
0.204 -0.220 -0.003
0.206 -0.219 -0.003
0.210 -0.219 -0.003
0.212 -0.218 -0.003
0.213 -0.216 -0.003
0.214 -0.214 -0.003
0.218 -0.214 -0.003
0.221 -0.214 -0.003
0.224 -0.214 -0.003
0.227 -0.213 -0.003
0.229 -0.212 -0.003
0.231 -0.210 -0.003
0.233 -0.209 -0.003
0.236 -0.208 -0.003
0.238 -0.207 -0.003
0.241 -0.206 -0.003
0.244 -0.205 -0.003
0.247 -0.204 -0.003
0.249 -0.202 -0.003
0.247 -0.198 -0.003
0.234 -0.185 -0.003
0.215 -0.166 -0.003
0.213 -0.162 -0.003
0.215 -0.161 -0.003
0.213 -0.157 -0.003
0.210 -0.153 -0.003
0.211 -0.151 -0.003
0.216 -0.152 -0.003
0.212 -0.146 -0.003
0.213 -0.145 -0.003
0.202 -0.135 -0.003
0.211 -0.138 -0.003
0.215 -0.138 -0.003
0.214 -0.135 -0.003
0.212 -0.132 -0.003
0.208 -0.127 -0.003
0.209 -0.125 -0.003
0.215 -0.127 -0.003
0.215 -0.124 -0.003
0.213 -0.121 -0.003
0.212 -0.118 -0.003
0.210 -0.115 -0.003
0.202 -0.108 -0.003
0.203 -0.107 -0.003
0.207 -0.106 -0.003
0.208 -0.105 -0.003
0.200 -0.099 -0.003
0.205 -0.099 -0.003
0.206 -0.097 -0.003
0.210 -0.097 -0.003
0.215 -0.097 -0.003
0.220 -0.097 -0.003
0.222 -0.096 -0.003
0.224 -0.094 -0.003
0.222 -0.091 -0.003
0.218 -0.088 -0.003
0.209 -0.082 -0.003
0.209 -0.080 -0.003
0.207 -0.077 -0.003
0.221 -0.080 -0.003
0.228 -0.080 -0.003
0.232 -0.080 -0.003
0.234 -0.078 -0.003
0.242 -0.078 -0.003
0.249 -0.079 -0.003
0.257 -0.079 -0.003
0.267 -0.079 -0.003
0.388 -0.108 -0.005
0.394 -0.106 -0.005
0.401 -0.104 -0.005
0.408 -0.102 -0.005
0.425 -0.102 -0.005
0.429 -0.099 -0.005
0.429 -0.095 -0.005
0.408 -0.087 -0.005
0.394 -0.080 -0.005
0.290 -0.051 -0.004
0.284 -0.047 -0.004
0.287 -0.045 -0.004
0.288 -0.043 -0.004
0.284 -0.040 -0.004
0.286 -0.037 -0.004
0.291 -0.035 -0.004
0.285 -0.032 -0.004
0.284 -0.029 -0.004
0.286 -0.027 -0.004
0.291 -0.025 -0.004
0.307 -0.024 -0.004
0.301 -0.020 -0.004
0.296 -0.017 -0.004
0.296 -0.015 -0.004
0.300 -0.012 -0.004
0.306 -0.010 -0.004
0.298 -0.007 -0.004
0.305 -0.004 -0.004
0.309 -0.001 -0.004
0.301 0.001 -0.004
0.303 0.004 -0.004
0.304 0.007 -0.004
0.306 0.010 -0.004
0.308 0.012 -0.004
0.310 0.015 -0.004
0.311 0.018 -0.004
0.313 0.021 -0.004
0.314 0.024 -0.004
0.316 0.027 -0.004
0.316 0.030 -0.004
0.315 0.033 -0.004
0.316 0.035 -0.004
0.316 0.038 -0.004
0.317 0.041 -0.004
0.316 0.044 -0.004
0.316 0.047 -0.004
0.316 0.050 -0.004
0.316 0.053 -0.004
0.316 0.056 -0.004
0.316 0.059 -0.004
0.315 0.061 -0.004
0.315 0.064 -0.004
0.314 0.067 -0.004
0.314 0.070 -0.004
0.312 0.072 -0.004
0.312 0.075 -0.004
0.313 0.078 -0.004
0.318 0.083 -0.004
0.310 0.084 -0.004
0.311 0.087 -0.004
0.318 0.092 -0.004
0.311 0.093 -0.004
0.312 0.096 -0.004
0.319 0.101 -0.004
0.331 0.108 -0.004
0.348 0.117 -0.004
0.342 0.118 -0.004
0.336 0.120 -0.004
0.341 0.125 -0.004
0.320 0.120 -0.004
0.312 0.120 -0.004
0.307 0.121 -0.004
0.364 0.155 -0.005
0.326 0.145 -0.004
0.346 0.172 -0.004
0.323 0.175 -0.004
0.314 0.173 -0.004
0.324 0.182 -0.004
0.328 0.188 -0.004
0.330 0.193 -0.004
0.329 0.196 -0.004
0.325 0.197 -0.004
0.322 0.200 -0.004
0.321 0.202 -0.004
0.319 0.205 -0.004
0.316 0.207 -0.004
0.314 0.209 -0.004
0.307 0.208 -0.004
0.311 0.215 -0.004
0.310 0.218 -0.004
0.297 0.212 -0.004
1.319 1.010 -0.017
1.323 1.031 -0.017
1.319 1.046 -0.017
1.303 1.051 -0.017
1.298 1.064 -0.017
1.299 1.083 -0.017
1.296 1.099 -0.017
1.298 1.119 -0.017
1.301 1.141 -0.017
1.314 1.171 -0.017
1.317 1.194 -0.017
1.319 1.216 -0.017
1.310 1.227 -0.017
1.314 1.252 -0.017
1.318 1.277 -0.017
1.325 1.305 -0.017
1.330 1.332 -0.017
1.337 1.361 -0.017
1.334 1.381 -0.017
1.322 1.391 -0.017
0.513 0.605 -0.007
0.508 0.610 -0.006
0.154 -0.211 -0.000
0.162 -0.220 -0.000
0.166 -0.222 -0.000
0.169 -0.223 -0.000
0.176 -0.229 -0.000
0.183 -0.235 -0.000
0.188 -0.239 -0.000
0.186 -0.233 -0.000
0.186 -0.230 -0.000
0.188 -0.228 -0.000
0.190 -0.227 -0.000
0.193 -0.228 -0.000
0.194 -0.226 -0.000
0.197 -0.226 -0.000
0.199 -0.225 -0.000
0.201 -0.224 -0.000
0.202 -0.221 -0.000
0.204 -0.220 -0.000
0.207 -0.220 -0.000
0.210 -0.220 -0.000
0.212 -0.218 -0.000
0.214 -0.217 -0.000
0.215 -0.215 -0.000
0.219 -0.215 -0.000
0.221 -0.214 -0.000
0.224 -0.214 -0.000
0.227 -0.213 -0.000
0.230 -0.212 -0.001
0.231 -0.210 -0.001
0.233 -0.208 -0.001
0.235 -0.208 -0.001
0.239 -0.207 -0.001
0.242 -0.206 -0.001
0.245 -0.206 -0.001
0.247 -0.204 -0.001
0.248 -0.202 -0.001
0.246 -0.197 -0.001
0.239 -0.188 -0.001
0.215 -0.167 -0.001
0.218 -0.167 -0.001
0.222 -0.166 -0.001
0.218 -0.161 -0.001
0.211 -0.153 -0.001
0.211 -0.150 -0.001
0.213 -0.150 -0.001
0.219 -0.151 -0.001
0.212 -0.144 -0.001
0.202 -0.135 -0.001
0.213 -0.139 -0.001
0.214 -0.138 -0.001
0.212 -0.134 -0.001
0.209 -0.130 -0.001
0.208 -0.127 -0.001
0.212 -0.127 -0.001
0.216 -0.127 -0.001
0.217 -0.125 -0.001
0.215 -0.122 -0.001
0.214 -0.119 -0.001
0.215 -0.117 -0.001
0.215 -0.115 -0.001
0.208 -0.109 -0.001
0.207 -0.106 -0.001
0.211 -0.106 -0.001
0.214 -0.105 -0.001
0.205 -0.099 -0.001
0.206 -0.097 -0.001
0.214 -0.099 -0.001
0.217 -0.098 -0.001
0.217 -0.096 -0.001
0.219 -0.095 -0.001
0.222 -0.094 -0.001
0.224 -0.092 -0.001
0.213 -0.086 -0.001
0.214 -0.084 -0.001
0.210 -0.080 -0.001
0.212 -0.079 -0.001
0.216 -0.078 -0.001
0.226 -0.080 -0.001
0.230 -0.079 -0.001
0.233 -0.078 -0.001
0.237 -0.077 -0.001
0.241 -0.076 -0.001
0.246 -0.075 -0.001
0.256 -0.076 -0.001
0.266 -0.076 -0.001
0.383 -0.106 -0.001
0.395 -0.106 -0.001
0.402 -0.104 -0.001
0.412 -0.103 -0.001
0.430 -0.103 -0.001
0.435 -0.100 -0.001
0.425 -0.094 -0.001
0.403 -0.086 -0.001
0.397 -0.081 -0.001
0.391 -0.076 -0.001
0.294 -0.052 -0.001
0.286 -0.048 -0.001
0.284 -0.045 -0.001
0.284 -0.042 -0.001
0.284 -0.040 -0.001
0.285 -0.037 -0.001
0.290 -0.035 -0.001
0.290 -0.033 -0.001
0.285 -0.030 -0.001
0.286 -0.027 -0.001
0.285 -0.024 -0.001
0.292 -0.022 -0.001
0.295 -0.020 -0.001
0.290 -0.017 -0.001
0.297 -0.015 -0.001
0.304 -0.012 -0.001
0.301 -0.010 -0.001
0.297 -0.007 -0.001
0.298 -0.004 -0.001
0.311 -0.001 -0.001
0.312 0.001 -0.001
0.301 0.004 -0.001
0.302 0.007 -0.001
0.305 0.009 -0.001
0.307 0.012 -0.001
0.310 0.015 -0.001
0.310 0.018 -0.001
0.311 0.021 -0.001
0.312 0.024 -0.001
0.313 0.027 -0.001
0.314 0.030 -0.001
0.314 0.032 -0.001
0.314 0.035 -0.001
0.314 0.038 -0.001
0.315 0.041 -0.001
0.315 0.044 -0.001
0.315 0.047 -0.001
0.315 0.050 -0.001
0.315 0.053 -0.001
0.315 0.055 -0.001
0.315 0.058 -0.001
0.314 0.061 -0.001
0.314 0.064 -0.001
0.314 0.067 -0.001
0.313 0.070 -0.001
0.312 0.072 -0.001
0.312 0.075 -0.001
0.318 0.080 -0.001
0.315 0.082 -0.001
0.310 0.084 -0.001
0.312 0.087 -0.001
0.315 0.091 -0.001
0.315 0.094 -0.001
0.314 0.097 -0.001
0.322 0.102 -0.001
0.335 0.109 -0.001
0.342 0.115 -0.001
0.339 0.121 -0.001
0.325 0.119 -0.001
0.326 0.122 -0.001
0.314 0.121 -0.001
0.301 0.119 -0.001
0.348 0.145 -0.001
0.354 0.151 -0.001
0.326 0.145 -0.001
0.330 0.154 -0.001
0.319 0.152 -0.001
0.336 0.164 -0.001
0.330 0.164 -0.001
0.331 0.182 -0.001
0.334 0.192 -0.001
0.329 0.192 -0.001
0.327 0.195 -0.001
0.324 0.197 -0.001
0.322 0.199 -0.001
0.320 0.202 -0.001
0.318 0.204 -0.001
0.316 0.207 -0.001
0.313 0.209 -0.001
0.311 0.211 -0.001
0.312 0.215 -0.001
0.310 0.218 -0.001
0.299 0.214 -0.001
1.335 0.989 -0.004
1.323 0.997 -0.004
1.317 1.010 -0.004
1.309 1.020 -0.003
1.299 1.030 -0.003
1.303 1.051 -0.003
1.299 1.065 -0.003
1.296 1.081 -0.003
1.305 1.107 -0.003
1.304 1.125 -0.003
1.302 1.141 -0.003
1.301 1.160 -0.003
1.321 1.197 -0.003
1.307 1.266 -0.003
1.340 1.320 -0.003
1.341 1.342 -0.003
1.344 1.368 -0.003
1.329 1.399 -0.002
0.487 0.529 -0.001
0.488 0.540 -0.001
0.443 0.498 -0.001
0.505 0.596 -0.001
0.497 0.596 -0.001
0.365 0.453 -0.000
0.362 0.455 -0.000
0.355 0.454 -0.000
0.352 0.458 -0.000
0.171 -0.235 0.002
0.168 -0.228 0.002
0.170 -0.229 0.002
0.175 -0.232 0.002
0.176 -0.230 0.002
0.186 -0.239 0.002
0.187 -0.237 0.002
0.186 -0.232 0.002
0.187 -0.230 0.002
0.188 -0.229 0.002
0.190 -0.227 0.002
0.192 -0.226 0.002
0.195 -0.226 0.002
0.197 -0.226 0.002
0.200 -0.225 0.002
0.201 -0.223 0.002
0.202 -0.221 0.002
0.205 -0.220 0.002
0.208 -0.220 0.002
0.210 -0.220 0.002
0.212 -0.219 0.002
0.214 -0.217 0.002
0.216 -0.216 0.002
0.218 -0.215 0.002
0.221 -0.214 0.002
0.224 -0.214 0.002
0.226 -0.213 0.002
0.229 -0.211 0.002
0.231 -0.210 0.002
0.234 -0.210 0.002
0.236 -0.208 0.002
0.239 -0.208 0.002
0.243 -0.208 0.002
0.247 -0.207 0.002
0.248 -0.205 0.002
0.250 -0.204 0.002
0.250 -0.200 0.002
0.238 -0.188 0.002
0.218 -0.169 0.002
0.217 -0.165 0.002
0.224 -0.168 0.002
0.217 -0.160 0.002
0.209 -0.152 0.001
0.208 -0.148 0.001
0.214 -0.150 0.002
0.216 -0.149 0.002
0.214 -0.145 0.001
0.211 -0.141 0.001
0.199 -0.130 0.001
0.210 -0.135 0.001
0.208 -0.132 0.001
0.208 -0.129 0.001
0.205 -0.125 0.001
0.210 -0.126 0.001
0.215 -0.126 0.001
0.217 -0.125 0.001
0.214 -0.121 0.001
0.214 -0.119 0.001
