VERSION .7
FIELDS x y z
SIZE 4 4 4
TYPE F F F
COUNT 1 1 1
WIDTH     2431
HEIGHT 1
VIEWPOINT 0 0 0 1 0 0 0
POINTS     2431
DATA ascii
0.327 0.004 -0.087
0.302 0.007 -0.081
0.303 0.010 -0.081
0.306 0.013 -0.082
0.307 0.015 -0.082
0.308 0.018 -0.082
0.309 0.021 -0.083
0.310 0.024 -0.083
0.310 0.027 -0.083
0.312 0.030 -0.084
0.312 0.033 -0.084
0.312 0.036 -0.084
0.313 0.039 -0.084
0.313 0.041 -0.084
0.312 0.044 -0.084
0.313 0.047 -0.084
0.313 0.050 -0.084
0.313 0.053 -0.084
0.312 0.056 -0.084
0.312 0.059 -0.084
0.311 0.061 -0.084
0.316 0.065 -0.085
0.328 0.071 -0.089
0.324 0.073 -0.088
0.323 0.076 -0.087
0.328 0.080 -0.089
0.335 0.085 -0.091
0.322 0.085 -0.087
0.310 0.085 -0.084
0.313 0.088 -0.085
0.317 0.093 -0.086
0.326 0.099 -0.089
0.327 0.102 -0.089
0.334 0.107 -0.091
0.328 0.109 -0.090
0.323 0.110 -0.089
0.318 0.112 -0.087
0.326 0.121 -0.090
0.313 0.119 -0.086
0.306 0.120 -0.084
0.338 0.153 -0.094
0.352 0.171 -0.099
0.373 0.197 -0.106
0.377 0.233 -0.109
0.314 -0.431 -0.106
0.314 -0.426 -0.106
0.311 -0.417 -0.104
0.311 -0.412 -0.104
0.312 -0.408 -0.104
0.314 -0.404 -0.104
0.312 -0.396 -0.103
0.313 -0.392 -0.103
0.315 -0.389 -0.103
0.316 -0.385 -0.103
0.314 -0.377 -0.102
0.313 -0.370 -0.101
0.318 -0.371 -0.102
0.308 -0.354 -0.098
0.309 -0.350 -0.098
0.311 -0.347 -0.098
0.312 -0.343 -0.098
0.312 -0.337 -0.098
0.310 -0.331 -0.097
0.310 -0.325 -0.096
0.311 -0.321 -0.096
0.311 -0.317 -0.096
0.310 -0.310 -0.095
0.308 -0.304 -0.094
0.307 -0.298 -0.093
0.305 -0.291 -0.092
0.305 -0.287 -0.092
0.305 -0.283 -0.091
0.304 -0.277 -0.091
0.304 -0.273 -0.090
0.303 -0.268 -0.090
0.303 -0.264 -0.089
0.302 -0.258 -0.089
0.299 -0.252 -0.087
0.300 -0.248 -0.087
0.299 -0.244 -0.087
0.290 -0.233 -0.084
0.290 -0.229 -0.084
0.229 -0.178 -0.066
0.217 -0.166 -0.062
0.216 -0.162 -0.062
0.247 -0.179 -0.070
0.234 -0.167 -0.066
0.232 -0.163 -0.065
0.214 -0.148 -0.060
0.215 -0.146 -0.060
0.208 -0.138 -0.058
0.210 -0.137 -0.059
0.214 -0.137 -0.059
0.220 -0.138 -0.061
0.221 -0.137 -0.061
0.221 -0.135 -0.061
0.221 -0.132 -0.061
0.222 -0.130 -0.061
0.210 -0.121 -0.057
0.209 -0.118 -0.057
0.209 -0.116 -0.057
0.211 -0.114 -0.057
0.237 -0.126 -0.064
0.245 -0.127 -0.066
0.246 -0.125 -0.066
0.243 -0.121 -0.066
0.245 -0.120 -0.066
0.310 -0.145 -0.083
0.314 -0.144 -0.084
0.316 -0.141 -0.084
0.317 -0.139 -0.085
0.312 -0.133 -0.083
0.303 -0.126 -0.081
0.293 -0.119 -0.078
0.293 -0.116 -0.078
0.275 -0.104 -0.073
0.349 -0.125 -0.092
0.362 -0.126 -0.095
0.366 -0.124 -0.096
0.371 -0.122 -0.097
0.377 -0.120 -0.099
0.385 -0.119 -0.101
0.393 -0.118 -0.103
0.402 -0.117 -0.105
0.408 -0.115 -0.107
0.420 -0.114 -0.110
0.431 -0.113 -0.113
0.440 -0.111 -0.115
0.454 -0.110 -0.118
0.457 -0.107 -0.119
0.424 -0.095 -0.110
0.402 -0.083 -0.104
0.389 -0.076 -0.101
0.384 -0.072 -0.100
0.290 -0.052 -0.075
0.293 -0.050 -0.076
0.293 -0.047 -0.076
0.289 -0.044 -0.075
0.293 -0.041 -0.076
0.290 -0.038 -0.075
0.309 -0.038 -0.080
0.307 -0.035 -0.079
0.302 -0.032 -0.078
0.295 -0.028 -0.076
0.299 -0.026 -0.077
0.314 -0.024 -0.081
0.320 -0.022 -0.082
0.317 -0.016 -0.082
0.333 -0.014 -0.086
0.310 -0.010 -0.080
0.314 -0.007 -0.081
0.323 -0.004 -0.083
0.326 -0.002 -0.084
0.326 0.001 -0.084
0.303 0.004 -0.078
0.303 0.007 -0.078
0.305 0.010 -0.079
0.307 0.013 -0.079
0.309 0.015 -0.080
0.310 0.018 -0.080
0.311 0.021 -0.080
0.312 0.024 -0.081
0.312 0.027 -0.081
0.313 0.030 -0.081
0.313 0.033 -0.081
0.314 0.036 -0.081
0.315 0.039 -0.081
0.314 0.042 -0.081
0.314 0.044 -0.081
0.314 0.047 -0.081
0.314 0.050 -0.081
0.314 0.053 -0.082
0.314 0.056 -0.081
0.313 0.059 -0.081
0.313 0.062 -0.082
0.313 0.065 -0.082
0.313 0.068 -0.082
0.329 0.074 -0.086
0.322 0.076 -0.084
0.322 0.079 -0.084
0.329 0.084 -0.086
0.321 0.085 -0.084
0.301 0.082 -0.079
0.308 0.087 -0.081
0.324 0.095 -0.085
0.313 0.095 -0.082
0.322 0.100 -0.085
0.332 0.107 -0.088
0.317 0.108 -0.084
0.313 0.113 -0.083
0.342 0.127 -0.091
0.339 0.153 -0.091
0.339 0.157 -0.092
0.371 0.216 -0.103
0.318 -0.437 -0.104
0.314 -0.426 -0.102
0.310 -0.415 -0.100
0.312 -0.412 -0.100
0.314 -0.409 -0.101
0.311 -0.400 -0.099
0.313 -0.398 -0.100
0.315 -0.394 -0.100
0.314 -0.388 -0.099
0.314 -0.382 -0.098
0.313 -0.376 -0.098
0.312 -0.368 -0.097
0.309 -0.359 -0.095
0.308 -0.353 -0.095
0.310 -0.350 -0.095
0.311 -0.347 -0.095
0.312 -0.342 -0.095
0.312 -0.337 -0.094
0.310 -0.330 -0.093
0.309 -0.324 -0.092
0.310 -0.320 -0.092
0.310 -0.315 -0.092
0.311 -0.311 -0.092
0.311 -0.307 -0.091
0.306 -0.296 -0.089
0.304 -0.290 -0.088
0.304 -0.286 -0.088
0.304 -0.281 -0.088
0.305 -0.278 -0.088
0.304 -0.272 -0.087
0.303 -0.267 -0.086
0.301 -0.261 -0.085
0.298 -0.255 -0.084
0.297 -0.250 -0.084
0.298 -0.247 -0.084
0.294 -0.240 -0.082
0.220 -0.171 -0.061
0.215 -0.164 -0.059
0.216 -0.162 -0.059
0.224 -0.165 -0.061
0.245 -0.178 -0.067
0.242 -0.172 -0.066
0.232 -0.162 -0.063
0.217 -0.149 -0.059
0.227 -0.153 -0.061
0.216 -0.144 -0.058
0.216 -0.138 -0.058
0.221 -0.139 -0.059
0.222 -0.137 -0.059
0.220 -0.134 -0.059
0.220 -0.131 -0.058
0.221 -0.129 -0.058
0.210 -0.121 -0.055
0.208 -0.117 -0.055
0.209 -0.115 -0.055
0.210 -0.114 -0.055
0.234 -0.124 -0.061
0.242 -0.126 -0.063
0.248 -0.126 -0.065
0.242 -0.121 -0.063
0.243 -0.119 -0.063
0.310 -0.145 -0.080
0.313 -0.143 -0.081
0.316 -0.141 -0.081
0.316 -0.138 -0.081
0.301 -0.128 -0.077
0.293 -0.122 -0.075
0.296 -0.121 -0.076
0.278 -0.107 -0.071
0.275 -0.104 -0.070
0.349 -0.125 -0.089
0.359 -0.125 -0.091
0.366 -0.124 -0.093
0.371 -0.122 -0.094
0.376 -0.120 -0.095
0.384 -0.119 -0.097
0.389 -0.117 -0.098
0.400 -0.116 -0.101
0.409 -0.115 -0.103
0.414 -0.112 -0.104
0.422 -0.111 -0.106
0.436 -0.110 -0.110
0.453 -0.110 -0.114
0.457 -0.107 -0.115
0.431 -0.097 -0.108
0.421 -0.090 -0.105
0.408 -0.084 -0.102
0.393 -0.077 -0.098
0.380 -0.071 -0.095
0.290 -0.052 -0.072
0.289 -0.049 -0.072
0.293 -0.047 -0.073
0.296 -0.045 -0.074
0.300 -0.042 -0.075
0.304 -0.040 -0.076
0.307 -0.038 -0.076
0.298 -0.034 -0.074
0.296 -0.031 -0.074
0.294 -0.028 -0.073
0.299 -0.026 -0.074
0.306 -0.024 -0.076
0.310 -0.021 -0.077
0.309 -0.018 -0.077
0.311 -0.016 -0.077
0.308 -0.013 -0.077
0.305 -0.010 -0.076
0.315 -0.007 -0.078
0.331 -0.005 -0.082
0.332 -0.002 -0.083
0.301 0.001 -0.075
0.304 0.004 -0.075
0.305 0.007 -0.076
0.307 0.010 -0.076
0.308 0.013 -0.077
0.310 0.015 -0.077
0.312 0.018 -0.078
0.313 0.021 -0.078
0.313 0.024 -0.078
0.313 0.027 -0.078
0.313 0.030 -0.078
0.315 0.033 -0.078
0.316 0.036 -0.079
0.316 0.039 -0.079
0.315 0.042 -0.079
0.315 0.045 -0.079
0.315 0.047 -0.079
0.316 0.051 -0.079
0.315 0.053 -0.079
0.315 0.056 -0.079
0.314 0.059 -0.079
0.314 0.062 -0.079
0.314 0.065 -0.079
0.314 0.068 -0.079
0.314 0.071 -0.079
0.319 0.075 -0.080
0.321 0.078 -0.081
0.322 0.082 -0.081
0.327 0.086 -0.083
0.320 0.087 -0.081
0.306 0.086 -0.077
0.318 0.093 -0.081
0.319 0.096 -0.081
0.318 0.099 -0.081
0.324 0.104 -0.082
0.330 0.109 -0.084
0.349 0.129 -0.089
0.333 0.127 -0.085
1.221 0.489 -0.314
0.329 0.149 -0.085
0.366 0.193 -0.096
0.360 0.193 -0.095
0.366 0.217 -0.098
0.375 0.231 -0.101
0.390 0.254 -0.106
0.382 0.263 -0.104
0.313 -0.435 -0.098
0.315 -0.432 -0.099
0.312 -0.423 -0.097
0.312 -0.418 -0.097
0.313 -0.413 -0.097
0.311 -0.405 -0.096
0.310 -0.398 -0.095
0.313 -0.397 -0.096
0.315 -0.394 -0.096
0.313 -0.386 -0.095
0.312 -0.379 -0.094
0.310 -0.371 -0.093
0.309 -0.365 -0.092
0.309 -0.359 -0.092
0.310 -0.356 -0.092
0.311 -0.351 -0.092
0.311 -0.346 -0.091
0.311 -0.340 -0.091
0.310 -0.334 -0.090
0.307 -0.326 -0.089
0.307 -0.321 -0.088
0.308 -0.317 -0.088
0.309 -0.313 -0.088
0.310 -0.310 -0.088
0.308 -0.303 -0.087
0.302 -0.292 -0.085
0.303 -0.288 -0.085
0.302 -0.284 -0.084
0.304 -0.281 -0.084
0.304 -0.276 -0.084
0.303 -0.271 -0.083
0.303 -0.267 -0.083
0.299 -0.259 -0.082
0.297 -0.254 -0.081
0.296 -0.248 -0.080
0.294 -0.243 -0.080
0.296 -0.241 -0.080
0.271 -0.217 -0.073
0.263 -0.207 -0.070
0.225 -0.174 -0.060
0.217 -0.165 -0.058
0.214 -0.160 -0.057
0.217 -0.160 -0.057
0.239 -0.173 -0.063
0.242 -0.172 -0.063
0.232 -0.162 -0.061
0.219 -0.150 -0.057
0.226 -0.153 -0.059
0.217 -0.144 -0.056
0.208 -0.136 -0.054
0.218 -0.140 -0.056
0.220 -0.138 -0.056
0.222 -0.137 -0.057
0.221 -0.134 -0.057
0.219 -0.131 -0.056
0.220 -0.129 -0.056
0.213 -0.122 -0.054
0.207 -0.117 -0.053
0.209 -0.115 -0.053
0.210 -0.113 -0.053
0.227 -0.120 -0.057
0.242 -0.126 -0.061
0.249 -0.126 -0.062
0.242 -0.120 -0.060
0.243 -0.119 -0.061
0.310 -0.145 -0.077
0.313 -0.143 -0.078
0.315 -0.141 -0.078
0.317 -0.138 -0.078
0.306 -0.131 -0.076
0.300 -0.125 -0.074
0.295 -0.120 -0.073
0.276 -0.109 -0.068
0.260 -0.101 -0.064
0.269 -0.101 -0.066
0.360 -0.125 -0.088
0.366 -0.124 -0.089
0.372 -0.122 -0.091
0.376 -0.120 -0.092
0.381 -0.118 -0.093
0.386 -0.116 -0.094
0.391 -0.113 -0.095
0.408 -0.114 -0.099
0.413 -0.112 -0.100
0.418 -0.109 -0.101
0.430 -0.108 -0.104
0.445 -0.108 -0.108
0.453 -0.106 -0.109
0.410 -0.088 -0.099
0.399 -0.082 -0.096
0.393 -0.077 -0.095
0.298 -0.053 -0.072
0.292 -0.049 -0.070
0.290 -0.046 -0.070
0.292 -0.044 -0.070
0.293 -0.041 -0.070
0.301 -0.040 -0.072
0.283 -0.035 -0.068
0.290 -0.033 -0.070
0.296 -0.031 -0.071
0.300 -0.029 -0.072
0.312 -0.027 -0.075
0.319 -0.025 -0.076
0.319 -0.022 -0.076
0.315 -0.019 -0.075
0.313 -0.016 -0.075
0.301 -0.012 -0.072
0.308 -0.010 -0.074
0.319 -0.007 -0.076
0.322 -0.004 -0.077
0.301 -0.001 -0.072
0.303 0.001 -0.072
0.305 0.004 -0.073
0.306 0.007 -0.073
0.308 0.010 -0.074
0.309 0.013 -0.074
0.311 0.015 -0.074
0.313 0.018 -0.075
0.314 0.021 -0.075
0.314 0.024 -0.075
0.314 0.027 -0.075
0.315 0.030 -0.075
0.315 0.033 -0.076
0.318 0.036 -0.076
0.317 0.039 -0.076
0.316 0.042 -0.076
0.316 0.045 -0.076
0.317 0.048 -0.076
0.317 0.051 -0.076
0.317 0.054 -0.076
0.317 0.056 -0.076
0.316 0.059 -0.076
0.315 0.062 -0.076
0.315 0.065 -0.076
0.314 0.068 -0.076
0.314 0.071 -0.076
0.314 0.074 -0.076
0.323 0.079 -0.078
0.322 0.082 -0.078
0.322 0.085 -0.078
0.328 0.089 -0.080
0.325 0.092 -0.079
0.325 0.098 -0.079
0.318 0.099 -0.078
0.320 0.103 -0.078
0.326 0.108 -0.080
0.333 0.113 -0.082
0.346 0.128 -0.085
0.318 0.124 -0.079
0.341 0.154 -0.085
0.334 0.154 -0.084
0.373 0.196 -0.095
0.366 0.205 -0.094
0.373 0.213 -0.095
0.366 0.213 -0.094
0.353 0.214 -0.091
0.373 0.239 -0.097
0.370 0.250 -0.097
0.362 0.250 -0.095
0.365 0.261 -0.097
0.364 0.274 -0.098
0.317 -0.440 -0.096
0.310 -0.425 -0.093
0.311 -0.421 -0.093
0.311 -0.416 -0.093
0.307 -0.405 -0.091
0.308 -0.401 -0.091
0.312 -0.400 -0.092
0.313 -0.397 -0.092
0.315 -0.393 -0.092
0.312 -0.384 -0.091
0.310 -0.377 -0.090
0.308 -0.369 -0.089
0.308 -0.363 -0.088
0.310 -0.360 -0.088
0.310 -0.354 -0.088
0.309 -0.348 -0.087
0.308 -0.342 -0.087
0.308 -0.337 -0.086
0.306 -0.330 -0.085
0.306 -0.324 -0.085
0.306 -0.319 -0.084
0.305 -0.314 -0.084
0.306 -0.310 -0.084
0.306 -0.305 -0.083
0.304 -0.299 -0.083
0.302 -0.292 -0.082
0.302 -0.287 -0.081
0.303 -0.284 -0.081
0.303 -0.279 -0.081
0.303 -0.275 -0.080
0.302 -0.270 -0.080
0.303 -0.267 -0.080
0.298 -0.258 -0.078
0.298 -0.254 -0.078
0.297 -0.249 -0.077
0.295 -0.243 -0.077
0.291 -0.236 -0.075
0.278 -0.222 -0.072
0.273 -0.215 -0.070
0.233 -0.180 -0.060
0.222 -0.169 -0.057
0.216 -0.159 -0.055
0.229 -0.166 -0.058
0.240 -0.171 -0.060
0.225 -0.157 -0.057
0.220 -0.151 -0.055
0.223 -0.151 -0.056
0.215 -0.140 -0.053
0.216 -0.138 -0.053
0.219 -0.138 -0.054
0.218 -0.134 -0.054
0.211 -0.128 -0.052
0.217 -0.129 -0.053
0.220 -0.128 -0.054
0.221 -0.126 -0.054
0.208 -0.117 -0.051
0.208 -0.115 -0.051
0.209 -0.113 -0.051
0.218 -0.115 -0.053
0.242 -0.125 -0.058
0.243 -0.123 -0.059
0.243 -0.121 -0.058
0.244 -0.119 -0.059
0.255 -0.122 -0.061
0.309 -0.144 -0.074
0.313 -0.143 -0.075
0.315 -0.141 -0.075
0.318 -0.139 -0.076
0.320 -0.136 -0.076
0.272 -0.108 -0.064
0.265 -0.103 -0.063
0.261 -0.098 -0.062
0.250 -0.092 -0.059
0.358 -0.124 -0.084
0.365 -0.123 -0.086
0.371 -0.122 -0.087
0.375 -0.120 -0.088
0.379 -0.117 -0.089
0.385 -0.115 -0.090
0.390 -0.113 -0.091
0.405 -0.114 -0.094
0.409 -0.111 -0.095
0.416 -0.109 -0.097
0.433 -0.109 -0.101
0.446 -0.108 -0.103
0.448 -0.104 -0.104
0.404 -0.087 -0.094
0.398 -0.082 -0.092
0.390 -0.076 -0.090
0.389 -0.073 -0.090
0.300 -0.053 -0.069
0.294 -0.049 -0.068
0.290 -0.046 -0.067
0.289 -0.043 -0.067
0.286 -0.040 -0.066
0.282 -0.037 -0.065
0.295 -0.036 -0.068
0.293 -0.033 -0.068
0.298 -0.031 -0.069
0.310 -0.030 -0.071
0.325 -0.028 -0.075
0.333 -0.026 -0.077
0.325 -0.022 -0.075
0.316 -0.019 -0.073
0.311 -0.016 -0.072
0.312 -0.013 -0.072
0.318 -0.010 -0.073
0.319 -0.007 -0.073
0.301 -0.004 -0.069
0.302 -0.001 -0.069
0.305 0.001 -0.070
0.307 0.004 -0.071
0.308 0.007 -0.071
0.309 0.010 -0.071
0.310 0.013 -0.071
0.312 0.016 -0.072
0.314 0.018 -0.072
0.315 0.021 -0.073
0.317 0.024 -0.073
0.317 0.027 -0.073
0.316 0.030 -0.073
0.317 0.033 -0.073
0.318 0.036 -0.073
0.318 0.039 -0.073
0.318 0.042 -0.073
0.318 0.045 -0.074
0.318 0.048 -0.074
0.317 0.051 -0.073
0.317 0.054 -0.073
0.317 0.057 -0.074
0.317 0.060 -0.074
0.317 0.062 -0.074
0.316 0.065 -0.073
0.315 0.068 -0.073
0.314 0.071 -0.073
0.313 0.073 -0.073
0.314 0.077 -0.073
0.323 0.082 -0.075
0.322 0.084 -0.075
0.328 0.089 -0.077
0.332 0.094 -0.078
0.318 0.093 -0.075
0.322 0.097 -0.076
0.321 0.100 -0.075
0.315 0.101 -0.074
0.317 0.105 -0.075
0.324 0.110 -0.076
0.342 0.126 -0.081
0.332 0.126 -0.079
0.332 0.150 -0.080
0.337 0.155 -0.081
0.374 0.197 -0.091
0.367 0.197 -0.090
0.359 0.197 -0.088
0.369 0.206 -0.091
0.376 0.214 -0.093
0.353 0.209 -0.087
0.355 0.219 -0.088
0.359 0.225 -0.090
0.369 0.236 -0.092
0.372 0.247 -0.094
0.378 0.269 -0.096
0.300 -0.416 -0.087
0.305 -0.418 -0.088
0.307 -0.415 -0.088
0.306 -0.409 -0.088
0.305 -0.402 -0.087
0.307 -0.399 -0.087
0.311 -0.399 -0.088
0.312 -0.395 -0.088
0.310 -0.387 -0.087
0.310 -0.381 -0.087
0.309 -0.374 -0.086
0.308 -0.368 -0.085
0.307 -0.361 -0.085
0.307 -0.356 -0.084
0.307 -0.351 -0.084
0.306 -0.344 -0.083
0.305 -0.338 -0.082
0.306 -0.334 -0.082
0.305 -0.328 -0.082
0.305 -0.323 -0.081
0.304 -0.317 -0.081
0.305 -0.314 -0.081
0.304 -0.308 -0.080
0.304 -0.303 -0.080
0.304 -0.298 -0.079
0.303 -0.293 -0.078
0.302 -0.288 -0.078
0.302 -0.283 -0.078
0.302 -0.278 -0.077
0.299 -0.271 -0.076
0.302 -0.269 -0.077
0.302 -0.266 -0.076
0.297 -0.257 -0.075
0.296 -0.252 -0.074
0.296 -0.248 -0.074
0.294 -0.242 -0.073
0.294 -0.238 -0.073
0.289 -0.231 -0.071
0.280 -0.220 -0.069
0.211 -0.158 -0.051
0.222 -0.163 -0.054
0.229 -0.166 -0.056
0.239 -0.170 -0.058
0.227 -0.158 -0.055
0.223 -0.153 -0.054
0.227 -0.153 -0.054
0.218 -0.142 -0.052
0.218 -0.139 -0.052
0.220 -0.138 -0.052
0.210 -0.130 -0.050
0.209 -0.127 -0.049
0.212 -0.126 -0.050
0.220 -0.128 -0.052
0.221 -0.127 -0.052
0.208 -0.117 -0.049
0.207 -0.114 -0.048
0.209 -0.113 -0.049
0.212 -0.112 -0.049
0.241 -0.125 -0.056
0.242 -0.123 -0.056
0.245 -0.122 -0.057
0.244 -0.119 -0.056
0.245 -0.117 -0.056
0.309 -0.144 -0.071
0.312 -0.143 -0.072
0.313 -0.140 -0.072
0.322 -0.141 -0.074
0.327 -0.139 -0.075
0.312 -0.130 -0.071
0.287 -0.116 -0.065
0.285 -0.113 -0.065
0.269 -0.104 -0.061
0.264 -0.099 -0.060
0.249 -0.091 -0.056
0.359 -0.124 -0.081
0.363 -0.122 -0.082
0.370 -0.121 -0.083
0.374 -0.119 -0.084
0.378 -0.117 -0.085
0.385 -0.115 -0.086
0.390 -0.113 -0.087
0.396 -0.111 -0.089
0.408 -0.110 -0.091
0.420 -0.110 -0.094
0.436 -0.110 -0.097
0.443 -0.107 -0.099
0.449 -0.105 -0.100
0.437 -0.098 -0.097
0.411 -0.088 -0.092
0.400 -0.082 -0.089
0.394 -0.077 -0.088
0.386 -0.072 -0.086
0.296 -0.053 -0.066
0.294 -0.050 -0.065
0.292 -0.046 -0.065
0.293 -0.044 -0.065
0.292 -0.041 -0.065
0.290 -0.038 -0.064
0.293 -0.036 -0.065
0.296 -0.034 -0.065
0.299 -0.031 -0.066
0.314 -0.030 -0.069
0.329 -0.025 -0.073
0.323 -0.022 -0.071
0.318 -0.019 -0.070
0.311 -0.016 -0.069
0.315 -0.013 -0.070
0.325 -0.010 -0.072
0.323 -0.007 -0.071
0.302 -0.004 -0.067
0.304 -0.001 -0.067
0.307 0.001 -0.068
0.308 0.004 -0.068
0.309 0.007 -0.068
0.310 0.010 -0.069
0.311 0.013 -0.069
0.313 0.016 -0.069
0.316 0.019 -0.070
0.316 0.021 -0.070
0.317 0.024 -0.070
0.319 0.027 -0.071
0.318 0.030 -0.070
0.318 0.033 -0.070
0.319 0.036 -0.071
0.320 0.039 -0.071
0.319 0.042 -0.071
0.320 0.045 -0.071
0.319 0.048 -0.071
0.317 0.051 -0.070
0.316 0.053 -0.070
0.318 0.057 -0.071
0.318 0.059 -0.071
0.317 0.062 -0.071
0.317 0.065 -0.071
0.316 0.068 -0.070
0.314 0.071 -0.070
0.313 0.073 -0.070
0.314 0.076 -0.070
0.316 0.080 -0.071
0.325 0.085 -0.073
0.316 0.086 -0.071
0.322 0.091 -0.072
0.317 0.092 -0.071
0.312 0.094 -0.070
0.321 0.100 -0.072
0.306 0.098 -0.069
0.314 0.104 -0.071
0.329 0.112 -0.074
0.326 0.114 -0.074
0.323 0.116 -0.073
0.328 0.121 -0.075
0.324 0.123 -0.074
0.324 0.126 -0.074
0.331 0.149 -0.076
0.350 0.161 -0.081
0.351 0.166 -0.081
0.365 0.192 -0.085
0.360 0.193 -0.084
0.366 0.200 -0.086
0.371 0.211 -0.088
0.359 0.208 -0.085
0.349 0.206 -0.083
0.345 0.208 -0.082
0.346 0.213 -0.082
0.367 0.234 -0.088
0.366 0.243 -0.088
0.367 0.248 -0.089
0.308 -0.427 -0.085
0.302 -0.413 -0.083
0.301 -0.407 -0.083
0.303 -0.405 -0.083
0.306 -0.402 -0.084
0.307 -0.399 -0.084
0.308 -0.395 -0.084
0.309 -0.390 -0.083
0.308 -0.384 -0.083
0.309 -0.379 -0.083
0.309 -0.374 -0.082
0.307 -0.366 -0.081
0.304 -0.357 -0.080
0.306 -0.354 -0.080
0.307 -0.350 -0.080
0.305 -0.343 -0.079
0.304 -0.337 -0.079
0.305 -0.333 -0.079
0.307 -0.330 -0.079
0.303 -0.320 -0.077
0.302 -0.315 -0.077
0.304 -0.312 -0.077
0.303 -0.306 -0.076
0.303 -0.302 -0.076
0.303 -0.297 -0.075
0.302 -0.292 -0.075
0.302 -0.287 -0.075
0.301 -0.282 -0.074
0.298 -0.275 -0.073
0.298 -0.270 -0.073
0.297 -0.265 -0.072
0.297 -0.260 -0.072
0.296 -0.256 -0.071
0.296 -0.252 -0.071
0.297 -0.248 -0.071
0.294 -0.242 -0.070
0.294 -0.239 -0.070
0.298 -0.237 -0.070
0.295 -0.231 -0.070
0.293 -0.222 -0.069
0.227 -0.169 -0.053
0.226 -0.166 -0.053
0.233 -0.168 -0.054
0.225 -0.160 -0.052
0.238 -0.166 -0.055
0.241 -0.165 -0.055
0.244 -0.164 -0.056
0.236 -0.156 -0.054
0.222 -0.145 -0.051
0.222 -0.142 -0.051
0.224 -0.140 -0.051
0.210 -0.129 -0.048
0.208 -0.126 -0.047
0.208 -0.124 -0.047
0.214 -0.125 -0.048
0.221 -0.127 -0.050
0.207 -0.116 -0.046
0.208 -0.114 -0.046
0.208 -0.112 -0.046
0.210 -0.111 -0.047
0.238 -0.123 -0.053
0.242 -0.123 -0.054
0.246 -0.122 -0.054
0.242 -0.118 -0.053
0.243 -0.116 -0.053
0.312 -0.142 -0.069
0.314 -0.140 -0.069
0.316 -0.138 -0.069
0.316 -0.134 -0.069
0.302 -0.125 -0.066
0.278 -0.113 -0.061
0.267 -0.103 -0.058
0.266 -0.100 -0.058
0.356 -0.123 -0.077
0.364 -0.123 -0.079
0.369 -0.121 -0.079
0.374 -0.119 -0.081
0.380 -0.117 -0.082
0.385 -0.115 -0.083
0.391 -0.113 -0.084
0.395 -0.111 -0.085
0.413 -0.112 -0.088
0.419 -0.109 -0.090
0.427 -0.107 -0.091
0.442 -0.107 -0.094
0.450 -0.105 -0.096
0.437 -0.098 -0.093
0.418 -0.090 -0.089
0.405 -0.083 -0.086
0.394 -0.077 -0.084
0.379 -0.071 -0.081
0.295 -0.052 -0.063
0.292 -0.049 -0.062
0.292 -0.047 -0.062
0.300 -0.045 -0.064
0.303 -0.043 -0.064
0.300 -0.039 -0.064
0.298 -0.037 -0.063
0.292 -0.033 -0.062
0.297 -0.031 -0.063
0.318 -0.030 -0.067
0.322 -0.028 -0.068
0.321 -0.025 -0.068
0.316 -0.022 -0.067
0.313 -0.018 -0.066
0.308 -0.015 -0.065
0.317 -0.013 -0.067
0.319 -0.010 -0.068
0.302 -0.007 -0.064
0.305 -0.004 -0.065
0.306 -0.001 -0.065
0.307 0.001 -0.065
0.309 0.004 -0.065
0.311 0.007 -0.066
0.311 0.010 -0.066
0.314 0.013 -0.066
0.315 0.016 -0.067
0.317 0.019 -0.067
0.317 0.022 -0.067
0.317 0.024 -0.067
0.320 0.028 -0.068
0.321 0.031 -0.068
0.320 0.033 -0.068
0.319 0.036 -0.068
0.321 0.039 -0.068
0.322 0.042 -0.068
0.321 0.045 -0.068
0.319 0.048 -0.068
0.318 0.051 -0.068
0.319 0.054 -0.068
0.319 0.057 -0.068
0.319 0.060 -0.068
0.318 0.063 -0.068
0.318 0.065 -0.068
0.317 0.068 -0.068
0.315 0.071 -0.067
0.314 0.073 -0.067
0.314 0.076 -0.067
0.313 0.079 -0.067
0.323 0.085 -0.069
0.322 0.088 -0.069
0.316 0.089 -0.068
0.318 0.093 -0.069
0.323 0.097 -0.070
0.325 0.101 -0.070
0.310 0.099 -0.067
0.313 0.103 -0.068
0.332 0.113 -0.072
0.325 0.114 -0.071
0.308 0.114 -0.067
0.322 0.122 -0.070
0.327 0.127 -0.072
0.367 0.165 -0.081
0.351 0.162 -0.078
0.350 0.183 -0.078
0.356 0.191 -0.080
0.357 0.195 -0.080
0.357 0.199 -0.081
0.354 0.201 -0.080
0.341 0.210 -0.078
0.376 0.240 -0.086
0.388 0.252 -0.089
0.385 0.255 -0.089
0.378 0.260 -0.088
0.302 -0.418 -0.080
0.295 -0.403 -0.078
0.299 -0.403 -0.079
0.303 -0.404 -0.079
0.305 -0.401 -0.080
0.304 -0.394 -0.079
0.305 -0.390 -0.079
0.305 -0.385 -0.079
0.307 -0.383 -0.079
0.309 -0.379 -0.079
0.309 -0.374 -0.079
0.303 -0.362 -0.077
0.304 -0.358 -0.077
0.306 -0.355 -0.077
0.307 -0.350 -0.077
0.306 -0.344 -0.076
0.305 -0.338 -0.075
0.306 -0.333 -0.075
0.307 -0.329 -0.075
0.304 -0.322 -0.074
0.301 -0.314 -0.073
0.300 -0.308 -0.073
0.301 -0.304 -0.072
0.302 -0.300 -0.072
0.302 -0.295 -0.072
0.301 -0.290 -0.071
0.301 -0.285 -0.071
0.300 -0.280 -0.070
0.300 -0.276 -0.070
0.300 -0.271 -0.070
0.300 -0.267 -0.070
0.302 -0.265 -0.070
0.304 -0.262 -0.070
0.302 -0.257 -0.069
0.305 -0.255 -0.070
0.305 -0.251 -0.069
0.303 -0.245 -0.069
0.301 -0.240 -0.068
0.305 -0.239 -0.069
0.308 -0.237 -0.069
0.298 -0.226 -0.067
0.237 -0.177 -0.053
0.228 -0.167 -0.051
0.226 -0.163 -0.050
0.226 -0.160 -0.050
0.233 -0.162 -0.051
0.244 -0.167 -0.054
0.244 -0.165 -0.054
0.241 -0.159 -0.053
0.236 -0.154 -0.052
0.224 -0.143 -0.049
0.225 -0.141 -0.049
0.212 -0.130 -0.046
0.207 -0.125 -0.045
0.204 -0.121 -0.044
0.211 -0.123 -0.045
0.219 -0.125 -0.047
0.207 -0.116 -0.044
0.207 -0.114 -0.044
0.207 -0.112 -0.044
0.209 -0.110 -0.044
0.226 -0.117 -0.048
0.242 -0.123 -0.051
0.245 -0.122 -0.052
0.241 -0.117 -0.051
0.242 -0.115 -0.051
0.250 -0.116 -0.052
0.312 -0.142 -0.066
0.314 -0.140 -0.066
0.319 -0.139 -0.067
0.311 -0.132 -0.065
0.263 -0.107 -0.055
0.262 -0.101 -0.055
0.270 -0.101 -0.056
0.358 -0.124 -0.074
0.361 -0.122 -0.075
0.368 -0.120 -0.076
0.374 -0.119 -0.077
0.383 -0.118 -0.079
0.387 -0.115 -0.079
0.390 -0.113 -0.080
0.396 -0.111 -0.081
0.404 -0.109 -0.083
0.415 -0.108 -0.085
0.424 -0.107 -0.087
0.433 -0.105 -0.088
0.445 -0.103 -0.091
0.433 -0.097 -0.088
0.421 -0.090 -0.086
0.409 -0.084 -0.083
0.398 -0.078 -0.081
0.293 -0.052 -0.060
0.289 -0.049 -0.059
0.290 -0.046 -0.059
0.297 -0.044 -0.060
0.304 -0.043 -0.062
0.306 -0.040 -0.062
0.300 -0.037 -0.061
0.301 -0.034 -0.061
0.305 -0.032 -0.062
0.309 -0.027 -0.063
0.306 -0.024 -0.062
0.306 -0.021 -0.062
0.304 -0.018 -0.062
0.310 -0.015 -0.063
0.314 -0.013 -0.064
0.306 -0.010 -0.062
0.301 -0.007 -0.061
0.304 -0.004 -0.061
0.306 -0.001 -0.062
0.307 0.001 -0.062
0.309 0.004 -0.063
0.311 0.007 -0.063
0.314 0.010 -0.064
0.315 0.013 -0.064
0.316 0.016 -0.064
0.317 0.019 -0.064
0.317 0.022 -0.064
0.318 0.024 -0.064
0.319 0.027 -0.065
0.321 0.031 -0.065
0.320 0.033 -0.065
0.319 0.036 -0.065
0.319 0.039 -0.065
0.323 0.042 -0.066
0.322 0.045 -0.065
0.322 0.048 -0.065
0.321 0.051 -0.065
0.321 0.054 -0.065
0.321 0.057 -0.065
0.320 0.060 -0.065
0.319 0.063 -0.065
0.319 0.066 -0.065
0.318 0.068 -0.065
0.317 0.071 -0.065
0.316 0.074 -0.065
0.315 0.077 -0.065
0.314 0.079 -0.065
0.315 0.083 -0.065
0.325 0.088 -0.067
0.318 0.089 -0.065
0.322 0.094 -0.066
0.329 0.099 -0.068
0.331 0.103 -0.068
0.323 0.103 -0.067
0.328 0.111 -0.068
0.336 0.117 -0.070
0.319 0.114 -0.066
0.319 0.118 -0.067
0.312 0.121 -0.065
0.345 0.159 -0.073
0.333 0.157 -0.071
0.345 0.181 -0.074
0.348 0.186 -0.075
0.347 0.189 -0.075
0.347 0.197 -0.075
0.340 0.197 -0.074
0.362 0.218 -0.079
0.350 0.215 -0.076
0.374 0.252 -0.083
0.266 -0.368 -0.067
0.300 -0.400 -0.075
0.298 -0.392 -0.074
0.299 -0.382 -0.074
0.304 -0.383 -0.075
0.306 -0.380 -0.075
0.309 -0.378 -0.075
0.305 -0.369 -0.074
0.304 -0.362 -0.073
0.305 -0.358 -0.073
0.306 -0.354 -0.073
0.307 -0.350 -0.073
0.306 -0.344 -0.073
0.304 -0.336 -0.072
0.305 -0.332 -0.071
0.304 -0.326 -0.071
0.302 -0.319 -0.070
0.300 -0.312 -0.069
0.300 -0.307 -0.069
0.301 -0.304 -0.069
0.303 -0.301 -0.069
0.302 -0.296 -0.069
0.302 -0.291 -0.068
0.302 -0.287 -0.068
0.307 -0.286 -0.069
0.307 -0.282 -0.068
0.305 -0.276 -0.068
0.305 -0.271 -0.068
0.306 -0.268 -0.068
0.306 -0.264 -0.067
0.307 -0.261 -0.067
0.307 -0.256 -0.067
0.306 -0.252 -0.067
0.305 -0.247 -0.066
0.305 -0.243 -0.066
0.311 -0.244 -0.067
0.315 -0.243 -0.068
0.234 -0.171 -0.050
0.225 -0.162 -0.048
0.223 -0.158 -0.047
0.231 -0.161 -0.049
0.243 -0.166 -0.051
0.246 -0.165 -0.052
0.243 -0.161 -0.051
0.232 -0.151 -0.048
0.224 -0.143 -0.046
0.225 -0.141 -0.047
0.212 -0.130 -0.044
0.206 -0.124 -0.042
0.206 -0.122 -0.042
0.207 -0.120 -0.042
0.215 -0.123 -0.044
0.218 -0.122 -0.044
0.206 -0.113 -0.042
0.206 -0.111 -0.042
0.207 -0.109 -0.042
0.218 -0.113 -0.044
0.242 -0.122 -0.049
0.245 -0.122 -0.050
0.243 -0.118 -0.049
0.241 -0.115 -0.049
0.248 -0.115 -0.050
0.310 -0.141 -0.062
0.314 -0.140 -0.063
0.316 -0.138 -0.063
0.325 -0.138 -0.065
0.263 -0.106 -0.052
0.257 -0.101 -0.051
0.266 -0.102 -0.053
0.271 -0.102 -0.054
0.358 -0.124 -0.071
0.361 -0.121 -0.071
0.366 -0.120 -0.072
0.378 -0.120 -0.074
0.380 -0.117 -0.075
0.387 -0.116 -0.076
0.390 -0.113 -0.076
0.394 -0.110 -0.077
0.407 -0.110 -0.080
0.411 -0.107 -0.080
0.421 -0.106 -0.082
0.429 -0.104 -0.084
0.432 -0.101 -0.084
0.437 -0.098 -0.085
0.418 -0.090 -0.081
0.402 -0.082 -0.078
0.398 -0.078 -0.077
0.397 -0.074 -0.077
0.292 -0.052 -0.057
0.290 -0.049 -0.056
0.282 -0.045 -0.055
0.286 -0.043 -0.056
0.294 -0.041 -0.057
0.300 -0.039 -0.058
0.300 -0.037 -0.058
0.301 -0.034 -0.058
0.316 -0.033 -0.061
0.320 -0.030 -0.062
0.301 -0.026 -0.058
0.288 -0.022 -0.056
0.289 -0.020 -0.056
0.297 -0.017 -0.057
0.312 -0.016 -0.060
0.312 -0.013 -0.060
0.301 -0.010 -0.058
0.301 -0.007 -0.058
0.304 -0.004 -0.059
0.307 -0.001 -0.059
0.309 0.001 -0.060
0.310 0.004 -0.060
0.313 0.007 -0.060
0.314 0.010 -0.061
0.315 0.013 -0.061
0.317 0.016 -0.061
0.317 0.019 -0.061
0.318 0.022 -0.061
0.325 0.025 -0.063
0.325 0.028 -0.063
0.320 0.030 -0.062
0.320 0.033 -0.062
0.319 0.036 -0.062
0.321 0.039 -0.062
0.331 0.043 -0.064
0.322 0.045 -0.062
0.322 0.048 -0.062
0.322 0.051 -0.063
0.322 0.054 -0.063
0.322 0.057 -0.063
0.321 0.060 -0.063
0.320 0.063 -0.062
0.320 0.066 -0.062
0.320 0.069 -0.062
0.319 0.071 -0.062
0.317 0.074 -0.062
0.316 0.077 -0.062
0.315 0.080 -0.062
0.315 0.082 -0.062
0.320 0.087 -0.063
0.320 0.090 -0.063
0.323 0.094 -0.064
0.327 0.098 -0.064
0.326 0.101 -0.064
0.321 0.102 -0.063
0.337 0.118 -0.067
0.340 0.122 -0.068
0.335 0.123 -0.067
0.322 0.125 -0.064
0.343 0.158 -0.069
0.339 0.181 -0.069
0.336 0.183 -0.069
0.340 0.193 -0.070
0.343 0.198 -0.071
0.355 0.210 -0.074
0.367 0.221 -0.076
0.365 0.224 -0.076
0.352 0.220 -0.074
0.379 0.279 -0.082
0.365 0.273 -0.079
0.221 -0.306 -0.053
0.263 -0.355 -0.063
0.268 -0.357 -0.064
0.271 -0.355 -0.064
0.268 -0.347 -0.063
0.269 -0.344 -0.063
0.275 -0.346 -0.064
0.280 -0.348 -0.065
0.292 -0.352 -0.067
0.302 -0.359 -0.069
0.304 -0.356 -0.070
0.304 -0.351 -0.069
0.305 -0.347 -0.069
0.303 -0.340 -0.068
0.302 -0.333 -0.068
0.302 -0.329 -0.068
0.303 -0.324 -0.067
0.302 -0.318 -0.067
0.301 -0.313 -0.066
0.302 -0.309 -0.066
0.304 -0.306 -0.066
0.306 -0.303 -0.066
0.306 -0.299 -0.066
0.305 -0.293 -0.066
0.310 -0.294 -0.067
0.310 -0.289 -0.066
0.310 -0.284 -0.066
0.308 -0.278 -0.065
0.310 -0.276 -0.065
0.308 -0.270 -0.065
0.309 -0.266 -0.065
0.310 -0.263 -0.065
0.312 -0.260 -0.065
0.310 -0.254 -0.064
0.310 -0.251 -0.064
0.312 -0.248 -0.064
0.316 -0.247 -0.065
0.316 -0.243 -0.064
0.225 -0.162 -0.045
0.227 -0.160 -0.046
0.221 -0.154 -0.044
0.230 -0.157 -0.046
0.245 -0.165 -0.049
0.222 -0.144 -0.044
0.223 -0.142 -0.044
0.213 -0.133 -0.042
0.205 -0.126 -0.040
0.205 -0.124 -0.040
0.205 -0.122 -0.040
0.205 -0.119 -0.040
0.208 -0.119 -0.041
0.219 -0.122 -0.043
0.206 -0.113 -0.040
0.206 -0.111 -0.040
0.207 -0.109 -0.040
0.216 -0.112 -0.042
0.240 -0.121 -0.046
0.242 -0.120 -0.047
0.250 -0.121 -0.048
0.241 -0.115 -0.046
0.241 -0.112 -0.046
0.304 -0.138 -0.058
0.311 -0.138 -0.059
0.314 -0.136 -0.060
0.323 -0.137 -0.061
0.253 -0.102 -0.048
0.250 -0.099 -0.047
0.255 -0.098 -0.048
0.270 -0.101 -0.051
0.357 -0.124 -0.067
0.358 -0.120 -0.067
0.365 -0.119 -0.069
0.371 -0.118 -0.070
0.381 -0.117 -0.071
0.386 -0.115 -0.072
0.389 -0.112 -0.073
0.395 -0.110 -0.074
0.405 -0.109 -0.075
0.411 -0.107 -0.076
0.416 -0.104 -0.077
0.428 -0.104 -0.080
0.437 -0.102 -0.081
0.436 -0.097 -0.081
0.404 -0.086 -0.075
0.396 -0.081 -0.073
0.393 -0.077 -0.073
0.387 -0.072 -0.072
0.292 -0.052 -0.054
0.290 -0.049 -0.054
0.283 -0.045 -0.052
0.285 -0.043 -0.053
0.293 -0.041 -0.054
0.297 -0.039 -0.055
0.298 -0.036 -0.055
0.302 -0.034 -0.056
0.320 -0.033 -0.059
0.328 -0.031 -0.060
0.321 -0.028 -0.059
0.282 -0.022 -0.052
0.285 -0.019 -0.052
0.295 -0.017 -0.054
0.317 -0.016 -0.058
0.311 -0.013 -0.057
0.300 -0.010 -0.055
0.301 -0.007 -0.055
0.306 -0.004 -0.056
0.307 -0.001 -0.057
0.310 0.001 -0.057
0.312 0.004 -0.057
0.313 0.007 -0.058
0.315 0.010 -0.058
0.316 0.013 -0.058
0.317 0.016 -0.058
0.319 0.019 -0.059
0.321 0.022 -0.059
0.318 0.024 -0.059
0.319 0.027 -0.059
0.319 0.030 -0.059
0.319 0.033 -0.059
0.320 0.036 -0.059
0.319 0.039 -0.059
0.319 0.042 -0.059
0.321 0.045 -0.059
0.333 0.050 -0.062
0.321 0.051 -0.060
0.322 0.054 -0.060
0.322 0.057 -0.060
0.321 0.060 -0.060
0.321 0.063 -0.060
0.321 0.066 -0.060
0.320 0.069 -0.060
0.318 0.071 -0.059
0.318 0.074 -0.059
0.317 0.077 -0.059
0.316 0.080 -0.059
0.314 0.082 -0.059
0.315 0.085 -0.059
0.320 0.090 -0.060
0.315 0.091 -0.059
0.324 0.097 -0.061
0.325 0.100 -0.061
0.317 0.101 -0.060
0.304 0.100 -0.057
0.303 0.103 -0.057
0.342 0.119 -0.065
0.349 0.125 -0.066
0.342 0.157 -0.066
0.348 0.164 -0.067
0.343 0.183 -0.067
0.334 0.182 -0.065
0.329 0.183 -0.064
0.332 0.188 -0.065
0.338 0.195 -0.067
0.358 0.211 -0.071
0.359 0.216 -0.071
0.357 0.218 -0.071
0.367 0.229 -0.073
0.363 0.258 -0.074
0.242 -0.335 -0.055
0.250 -0.342 -0.057
0.263 -0.355 -0.060
0.267 -0.355 -0.060
0.264 -0.347 -0.059
0.259 -0.335 -0.058
0.259 -0.331 -0.058
0.264 -0.333 -0.059
0.271 -0.336 -0.060
0.279 -0.342 -0.062
0.286 -0.345 -0.063
0.280 -0.332 -0.061
0.276 -0.323 -0.060
0.285 -0.328 -0.061
0.297 -0.332 -0.063
0.299 -0.330 -0.064
0.300 -0.326 -0.064
0.301 -0.322 -0.063
0.306 -0.322 -0.064
0.306 -0.317 -0.064
0.307 -0.313 -0.064
0.307 -0.309 -0.064
0.308 -0.305 -0.063
0.310 -0.303 -0.064
0.311 -0.299 -0.064
0.312 -0.295 -0.064
0.313 -0.292 -0.063
0.311 -0.285 -0.063
0.312 -0.281 -0.063
0.311 -0.277 -0.062
0.313 -0.274 -0.062
0.314 -0.270 -0.062
0.314 -0.266 -0.062
0.315 -0.262 -0.062
0.315 -0.258 -0.062
0.314 -0.254 -0.062
0.315 -0.250 -0.061
0.313 -0.245 -0.061
0.313 -0.240 -0.061
0.219 -0.155 -0.042
0.215 -0.150 -0.041
0.218 -0.149 -0.041
0.224 -0.151 -0.042
0.209 -0.138 -0.039
0.201 -0.130 -0.038
0.203 -0.129 -0.038
0.203 -0.127 -0.038
0.204 -0.125 -0.038
0.204 -0.123 -0.038
0.203 -0.120 -0.038
0.201 -0.117 -0.037
0.204 -0.116 -0.038
0.219 -0.123 -0.041
0.207 -0.113 -0.038
0.205 -0.110 -0.038
0.205 -0.108 -0.038
0.206 -0.106 -0.038
0.237 -0.120 -0.043
0.243 -0.121 -0.044
0.250 -0.121 -0.046
0.241 -0.114 -0.044
0.239 -0.111 -0.043
0.219 -0.093 -0.039
0.216 -0.090 -0.039
0.224 -0.091 -0.040
0.223 -0.088 -0.040
0.219 -0.084 -0.039
0.225 -0.085 -0.040
0.269 -0.098 -0.048
0.274 -0.097 -0.049
0.354 -0.122 -0.063
0.359 -0.121 -0.064
0.366 -0.120 -0.065
0.371 -0.118 -0.066
0.376 -0.116 -0.067
0.383 -0.114 -0.068
0.388 -0.112 -0.069
0.396 -0.111 -0.070
0.404 -0.109 -0.071
0.409 -0.106 -0.072
0.415 -0.104 -0.073
0.424 -0.102 -0.075
0.430 -0.100 -0.076
0.429 -0.096 -0.076
0.403 -0.086 -0.071
0.388 -0.079 -0.068
0.384 -0.075 -0.068
0.373 -0.069 -0.066
0.288 -0.051 -0.051
0.287 -0.048 -0.050
0.286 -0.045 -0.050
0.292 -0.044 -0.051
0.295 -0.042 -0.052
0.297 -0.039 -0.052
0.295 -0.036 -0.052
0.305 -0.035 -0.053
0.318 -0.033 -0.056
0.325 -0.031 -0.057
0.316 -0.027 -0.055
0.299 -0.023 -0.052
0.292 -0.020 -0.051
0.297 -0.018 -0.052
0.313 -0.016 -0.055
0.312 -0.013 -0.055
0.301 -0.010 -0.053
0.303 -0.007 -0.053
0.306 -0.004 -0.053
0.308 -0.001 -0.054
0.311 0.001 -0.054
0.312 0.004 -0.055
0.313 0.007 -0.055
0.315 0.010 -0.055
0.318 0.013 -0.056
0.319 0.016 -0.056
0.320 0.019 -0.056
0.319 0.022 -0.056
0.319 0.024 -0.056
0.319 0.027 -0.056
0.318 0.030 -0.056
0.319 0.033 -0.056
0.319 0.036 -0.056
0.319 0.039 -0.056
0.320 0.042 -0.056
0.322 0.045 -0.057
0.322 0.048 -0.057
0.332 0.053 -0.058
0.322 0.054 -0.057
0.322 0.057 -0.057
0.322 0.060 -0.057
0.322 0.063 -0.057
0.321 0.066 -0.057
0.320 0.069 -0.057
0.319 0.071 -0.056
0.319 0.074 -0.056
0.318 0.077 -0.056
0.316 0.080 -0.056
0.315 0.082 -0.056
0.314 0.085 -0.056
0.317 0.089 -0.056
0.313 0.091 -0.056
0.312 0.094 -0.056
0.323 0.100 -0.058
0.326 0.104 -0.058
0.324 0.107 -0.058
0.349 0.125 -0.063
0.352 0.161 -0.064
0.346 0.162 -0.063
0.388 0.203 -0.072
0.347 0.189 -0.065
0.330 0.184 -0.062
0.346 0.200 -0.065
0.350 0.206 -0.066
0.343 0.206 -0.065
0.338 0.207 -0.064
0.371 0.244 -0.071
0.362 0.257 -0.070
0.360 0.269 -0.070
0.260 -0.359 -0.056
0.260 -0.355 -0.056
0.263 -0.355 -0.057
0.265 -0.352 -0.057
0.260 -0.340 -0.055
0.257 -0.332 -0.054
0.255 -0.325 -0.054
0.259 -0.326 -0.054
0.269 -0.334 -0.056
0.278 -0.340 -0.058
0.281 -0.338 -0.058
0.275 -0.326 -0.057
0.273 -0.319 -0.056
0.274 -0.316 -0.056
0.294 -0.314 -0.059
0.299 -0.315 -0.059
0.304 -0.315 -0.060
0.305 -0.312 -0.060
0.304 -0.306 -0.060
0.308 -0.305 -0.060
0.307 -0.300 -0.060
0.312 -0.299 -0.060
0.316 -0.299 -0.061
0.316 -0.294 -0.061
0.314 -0.288 -0.060
0.313 -0.282 -0.060
0.314 -0.278 -0.060
0.316 -0.276 -0.060
0.317 -0.273 -0.060
0.317 -0.268 -0.059
0.315 -0.263 -0.059
0.314 -0.258 -0.059
0.315 -0.254 -0.059
0.304 -0.241 -0.056
0.312 -0.244 -0.058
0.305 -0.234 -0.056
0.293 -0.222 -0.054
0.226 -0.163 -0.041
0.226 -0.160 -0.041
0.220 -0.153 -0.040
0.223 -0.150 -0.040
0.215 -0.142 -0.039
0.203 -0.131 -0.036
0.203 -0.129 -0.036
0.204 -0.128 -0.036
0.204 -0.125 -0.036
0.216 -0.130 -0.038
0.214 -0.127 -0.038
0.216 -0.125 -0.038
0.219 -0.125 -0.038
0.220 -0.123 -0.039
0.233 -0.128 -0.041
0.228 -0.122 -0.040
0.238 -0.125 -0.041
0.232 -0.120 -0.040
0.233 -0.118 -0.040
0.236 -0.117 -0.041
0.240 -0.116 -0.042
0.237 -0.112 -0.041
0.227 -0.105 -0.039
0.224 -0.102 -0.039
0.223 -0.099 -0.038
0.219 -0.095 -0.038
0.212 -0.090 -0.036
0.212 -0.088 -0.036
0.215 -0.087 -0.037
0.216 -0.085 -0.037
0.211 -0.081 -0.036
0.212 -0.080 -0.036
0.359 -0.121 -0.061
0.366 -0.119 -0.062
0.371 -0.117 -0.063
0.376 -0.116 -0.063
0.381 -0.114 -0.064
0.387 -0.112 -0.065
0.397 -0.111 -0.067
0.403 -0.109 -0.068
0.409 -0.107 -0.069
0.413 -0.104 -0.069
0.417 -0.101 -0.070
0.427 -0.099 -0.071
0.416 -0.093 -0.069
0.399 -0.085 -0.067
0.390 -0.080 -0.065
0.382 -0.075 -0.064
0.287 -0.051 -0.048
0.285 -0.048 -0.047
0.287 -0.046 -0.048
0.297 -0.044 -0.049
0.299 -0.042 -0.050
0.292 -0.038 -0.048
0.293 -0.036 -0.049
0.319 -0.036 -0.053
0.322 -0.033 -0.053
0.317 -0.030 -0.053
0.309 -0.027 -0.051
0.304 -0.023 -0.050
0.296 -0.020 -0.049
0.300 -0.018 -0.050
0.307 -0.015 -0.051
0.306 -0.012 -0.051
0.305 -0.010 -0.050
0.305 -0.007 -0.050
0.306 -0.004 -0.051
0.309 -0.001 -0.051
0.311 0.001 -0.052
0.313 0.004 -0.052
0.314 0.007 -0.052
0.315 0.010 -0.052
0.316 0.013 -0.052
0.320 0.016 -0.053
0.318 0.019 -0.053
0.319 0.022 -0.053
0.317 0.024 -0.053
0.316 0.027 -0.052
0.316 0.030 -0.052
0.317 0.033 -0.053
0.318 0.036 -0.053
0.318 0.039 -0.053
0.319 0.042 -0.053
0.322 0.045 -0.054
0.324 0.048 -0.054
0.323 0.051 -0.054
0.335 0.056 -0.056
0.322 0.057 -0.054
0.323 0.060 -0.054
0.322 0.063 -0.054
0.321 0.066 -0.054
0.321 0.069 -0.054
0.320 0.071 -0.054
0.319 0.074 -0.054
0.318 0.077 -0.053
0.316 0.080 -0.053
0.315 0.082 -0.053
0.314 0.085 -0.053
0.314 0.088 -0.053
0.313 0.091 -0.053
0.316 0.094 -0.053
0.325 0.100 -0.055
0.332 0.106 -0.056
0.327 0.107 -0.056
0.338 0.118 -0.058
0.350 0.125 -0.060
0.323 0.125 -0.055
0.341 0.156 -0.059
0.344 0.162 -0.060
0.269 -0.372 -0.055
0.260 -0.355 -0.053
0.259 -0.349 -0.053
0.257 -0.342 -0.052
0.257 -0.337 -0.052
0.256 -0.331 -0.051
0.254 -0.323 -0.051
0.258 -0.325 -0.051
0.270 -0.334 -0.053
0.279 -0.341 -0.055
0.276 -0.333 -0.054
0.271 -0.321 -0.053
0.270 -0.315 -0.052
0.272 -0.314 -0.053
0.288 -0.303 -0.054
0.297 -0.307 -0.055
0.294 -0.300 -0.055
0.293 -0.295 -0.054
0.296 -0.293 -0.055
0.299 -0.291 -0.055
0.303 -0.291 -0.055
0.316 -0.298 -0.057
0.317 -0.295 -0.058
0.315 -0.288 -0.057
0.317 -0.286 -0.057
0.317 -0.281 -0.057
0.316 -0.276 -0.056
0.319 -0.274 -0.057
0.320 -0.270 -0.057
0.314 -0.261 -0.055
0.312 -0.256 -0.055
0.304 -0.245 -0.053
0.287 -0.228 -0.050
0.294 -0.226 -0.051
0.271 -0.201 -0.047
0.223 -0.163 -0.038
0.225 -0.161 -0.039
0.226 -0.160 -0.039
0.226 -0.157 -0.038
0.222 -0.152 -0.038
0.216 -0.145 -0.037
0.221 -0.145 -0.037
0.221 -0.143 -0.037
0.218 -0.139 -0.037
0.216 -0.135 -0.036
0.224 -0.137 -0.037
0.226 -0.136 -0.038
0.224 -0.132 -0.037
0.222 -0.129 -0.037
0.220 -0.125 -0.037
0.227 -0.127 -0.038
0.227 -0.124 -0.038
0.227 -0.122 -0.037
0.224 -0.118 -0.037
0.225 -0.116 -0.037
0.225 -0.114 -0.037
0.231 -0.114 -0.038
0.233 -0.113 -0.038
0.226 -0.107 -0.037
0.222 -0.103 -0.036
0.222 -0.101 -0.036
0.222 -0.099 -0.036
0.219 -0.095 -0.035
0.215 -0.091 -0.035
0.214 -0.088 -0.034
0.218 -0.088 -0.035
0.216 -0.085 -0.035
0.209 -0.080 -0.034
0.209 -0.078 -0.034
0.267 -0.097 -0.043
0.274 -0.097 -0.044
0.365 -0.116 -0.058
0.376 -0.115 -0.060
0.381 -0.113 -0.061
0.388 -0.112 -0.062
0.395 -0.110 -0.063
0.405 -0.109 -0.064
0.411 -0.107 -0.065
0.414 -0.104 -0.065
0.419 -0.101 -0.066
0.425 -0.099 -0.067
0.425 -0.095 -0.067
0.399 -0.085 -0.063
0.395 -0.081 -0.062
0.390 -0.076 -0.062
0.288 -0.051 -0.045
0.286 -0.048 -0.045
0.285 -0.045 -0.045
0.297 -0.044 -0.047
0.295 -0.041 -0.046
0.291 -0.038 -0.046
0.298 -0.036 -0.047
0.316 -0.036 -0.050
0.329 -0.034 -0.052
0.322 -0.031 -0.051
0.314 -0.027 -0.049
0.302 -0.023 -0.047
0.303 -0.021 -0.048
0.300 -0.018 -0.047
0.314 -0.016 -0.049
0.302 -0.012 -0.047
0.303 -0.010 -0.047
0.305 -0.007 -0.048
0.307 -0.004 -0.048
0.310 -0.001 -0.049
0.312 0.001 -0.049
0.314 0.004 -0.049
0.315 0.007 -0.049
0.315 0.010 -0.049
0.322 0.013 -0.050
0.318 0.016 -0.050
0.318 0.019 -0.050
0.317 0.021 -0.050
0.316 0.024 -0.050
0.316 0.027 -0.050
0.315 0.030 -0.049
0.315 0.033 -0.050
0.316 0.036 -0.050
0.316 0.039 -0.050
0.317 0.042 -0.050
0.321 0.045 -0.051
0.323 0.048 -0.051
0.324 0.051 -0.051
0.322 0.054 -0.051
0.324 0.057 -0.051
0.324 0.060 -0.051
0.323 0.063 -0.051
0.322 0.066 -0.051
0.321 0.069 -0.051
0.320 0.072 -0.051
0.319 0.074 -0.051
0.318 0.077 -0.050
0.317 0.080 -0.050
0.316 0.082 -0.050
0.315 0.085 -0.050
0.314 0.088 -0.050
0.320 0.093 -0.051
0.317 0.095 -0.051
0.326 0.101 -0.052
0.332 0.106 -0.053
0.321 0.105 -0.051
0.311 0.105 -0.050
0.331 0.115 -0.053
0.343 0.123 -0.055
0.339 0.131 -0.055
0.341 0.156 -0.056
0.336 0.158 -0.055
0.243 -0.335 -0.047
0.258 -0.352 -0.049
0.256 -0.345 -0.049
0.258 -0.343 -0.049
0.256 -0.335 -0.048
0.257 -0.332 -0.048
0.258 -0.328 -0.048
0.261 -0.328 -0.049
0.275 -0.341 -0.051
0.278 -0.339 -0.051
0.267 -0.321 -0.049
0.263 -0.312 -0.048
0.278 -0.292 -0.049
0.289 -0.300 -0.051
0.293 -0.299 -0.051
0.292 -0.294 -0.051
0.294 -0.291 -0.051
0.294 -0.286 -0.051
0.297 -0.284 -0.051
0.306 -0.289 -0.052
0.313 -0.291 -0.053
0.311 -0.284 -0.053
0.314 -0.283 -0.053
0.318 -0.282 -0.054
0.310 -0.271 -0.052
0.313 -0.269 -0.052
0.319 -0.269 -0.053
0.320 -0.266 -0.053
0.315 -0.258 -0.052
0.308 -0.248 -0.051
0.231 -0.174 -0.038
0.221 -0.164 -0.036
0.221 -0.161 -0.036
0.223 -0.160 -0.036
0.225 -0.159 -0.036
0.229 -0.159 -0.037
0.221 -0.151 -0.035
0.220 -0.148 -0.035
0.223 -0.147 -0.036
0.229 -0.148 -0.036
0.224 -0.142 -0.035
0.223 -0.139 -0.035
0.225 -0.138 -0.035
0.227 -0.136 -0.036
0.223 -0.132 -0.035
0.220 -0.127 -0.034
0.218 -0.124 -0.034
0.215 -0.120 -0.034
0.222 -0.121 -0.034
0.218 -0.117 -0.034
0.216 -0.114 -0.034
0.217 -0.112 -0.034
0.220 -0.111 -0.034
0.224 -0.111 -0.035
0.228 -0.110 -0.035
0.226 -0.107 -0.035
0.223 -0.104 -0.034
0.226 -0.103 -0.035
0.228 -0.101 -0.035
0.223 -0.096 -0.034
0.217 -0.092 -0.033
0.218 -0.090 -0.033
0.222 -0.090 -0.034
0.218 -0.086 -0.033
0.213 -0.082 -0.032
0.206 -0.077 -0.031
0.250 -0.091 -0.038
0.264 -0.094 -0.040
0.271 -0.094 -0.041
0.304 -0.099 -0.046
0.369 -0.113 -0.055
0.381 -0.113 -0.057
0.386 -0.111 -0.058
0.393 -0.110 -0.059
0.406 -0.109 -0.061
0.412 -0.107 -0.062
0.417 -0.105 -0.062
0.423 -0.102 -0.063
0.437 -0.101 -0.065
0.445 -0.099 -0.066
0.403 -0.082 -0.060
0.394 -0.077 -0.059
0.379 -0.070 -0.056
0.293 -0.052 -0.043
0.288 -0.048 -0.043
0.291 -0.046 -0.043
0.296 -0.044 -0.044
0.294 -0.041 -0.044
0.290 -0.038 -0.043
0.289 -0.035 -0.043
0.330 -0.034 -0.049
0.334 -0.032 -0.049
0.318 -0.027 -0.047
0.305 -0.023 -0.045
0.294 -0.020 -0.043
0.306 -0.018 -0.045
0.324 -0.016 -0.048
0.300 -0.012 -0.044
0.302 -0.010 -0.045
0.305 -0.007 -0.045
0.308 -0.004 -0.045
0.311 -0.001 -0.046
0.312 0.001 -0.046
0.314 0.004 -0.046
0.315 0.007 -0.047
0.316 0.010 -0.047
0.321 0.013 -0.047
0.318 0.016 -0.047
0.317 0.019 -0.047
0.316 0.021 -0.047
0.315 0.024 -0.047
0.315 0.027 -0.047
0.315 0.030 -0.047
0.313 0.032 -0.046
0.314 0.035 -0.046
0.314 0.038 -0.047
0.315 0.041 -0.047
0.318 0.045 -0.047
0.321 0.048 -0.048
0.323 0.051 -0.048
0.323 0.054 -0.048
0.325 0.057 -0.048
0.324 0.060 -0.048
0.323 0.063 -0.048
0.322 0.066 -0.048
0.321 0.069 -0.048
0.320 0.071 -0.048
0.319 0.074 -0.048
0.318 0.077 -0.047
0.317 0.080 -0.047
0.316 0.082 -0.047
0.315 0.085 -0.047
0.314 0.088 -0.047
0.329 0.095 -0.049
0.330 0.099 -0.050
0.327 0.101 -0.049
0.326 0.104 -0.049
0.335 0.110 -0.051
0.319 0.108 -0.048
0.320 0.111 -0.048
0.333 0.119 -0.051
0.333 0.122 -0.051
0.336 0.154 -0.052
0.331 0.155 -0.051
0.329 0.158 -0.051
0.335 0.167 -0.052
0.261 -0.360 -0.047
0.252 -0.343 -0.045
0.258 -0.347 -0.046
0.262 -0.347 -0.047
0.262 -0.343 -0.047
0.261 -0.336 -0.046
0.260 -0.331 -0.046
0.268 -0.337 -0.047
0.275 -0.341 -0.048
0.276 -0.337 -0.048
0.197 -0.220 -0.033
0.192 -0.212 -0.032
0.195 -0.212 -0.033
0.277 -0.291 -0.046
0.289 -0.299 -0.048
0.296 -0.301 -0.049
0.298 -0.299 -0.049
0.298 -0.294 -0.048
0.295 -0.287 -0.048
0.296 -0.284 -0.048
0.299 -0.282 -0.048
0.304 -0.282 -0.049
0.306 -0.279 -0.049
0.308 -0.277 -0.049
0.307 -0.272 -0.049
0.304 -0.265 -0.048
0.309 -0.265 -0.048
0.313 -0.264 -0.049
0.313 -0.260 -0.049
0.313 -0.256 -0.049
0.301 -0.243 -0.047
0.229 -0.178 -0.035
0.225 -0.173 -0.035
0.221 -0.166 -0.034
0.217 -0.161 -0.033
0.217 -0.159 -0.033
0.220 -0.158 -0.033
0.222 -0.157 -0.034
0.224 -0.155 -0.034
0.223 -0.152 -0.034
0.214 -0.143 -0.032
0.223 -0.147 -0.033
0.227 -0.147 -0.034
0.227 -0.144 -0.034
0.218 -0.136 -0.032
0.215 -0.132 -0.032
0.220 -0.132 -0.032
0.218 -0.129 -0.032
0.208 -0.120 -0.030
0.208 -0.118 -0.030
0.202 -0.112 -0.029
0.208 -0.114 -0.030
0.216 -0.116 -0.031
0.215 -0.111 -0.031
0.208 -0.105 -0.030
0.225 -0.111 -0.033
0.227 -0.110 -0.033
0.226 -0.107 -0.033
0.225 -0.104 -0.032
0.227 -0.103 -0.033
0.230 -0.102 -0.033
0.235 -0.102 -0.034
0.218 -0.092 -0.031
0.226 -0.094 -0.032
0.221 -0.089 -0.031
0.218 -0.086 -0.031
0.213 -0.082 -0.030
0.213 -0.080 -0.030
0.245 -0.089 -0.035
0.258 -0.092 -0.037
0.261 -0.090 -0.037
0.272 -0.091 -0.038
0.289 -0.094 -0.041
0.396 -0.110 -0.056
0.403 -0.108 -0.057
0.412 -0.107 -0.058
0.419 -0.105 -0.059
0.430 -0.104 -0.060
0.444 -0.103 -0.062
0.452 -0.101 -0.063
0.436 -0.093 -0.061
0.408 -0.083 -0.057
0.394 -0.077 -0.055
0.379 -0.070 -0.053
0.293 -0.052 -0.041
0.287 -0.048 -0.040
0.292 -0.046 -0.041
0.295 -0.044 -0.041
0.292 -0.041 -0.041
0.287 -0.038 -0.040
0.290 -0.035 -0.040
0.306 -0.035 -0.042
0.332 -0.034 -0.046
0.337 -0.032 -0.047
0.329 -0.028 -0.046
0.308 -0.024 -0.043
0.299 -0.020 -0.041
0.309 -0.018 -0.043
0.322 -0.016 -0.045
0.300 -0.012 -0.042
0.303 -0.010 -0.042
0.305 -0.007 -0.042
0.307 -0.004 -0.043
0.310 -0.001 -0.043
0.313 0.001 -0.043
0.314 0.004 -0.044
0.316 0.007 -0.044
0.317 0.010 -0.044
0.317 0.013 -0.044
0.318 0.016 -0.044
0.317 0.019 -0.044
0.315 0.021 -0.044
0.315 0.024 -0.044
0.315 0.027 -0.044
0.314 0.030 -0.044
0.312 0.032 -0.043
0.313 0.035 -0.043
0.314 0.038 -0.044
0.314 0.041 -0.044
0.317 0.044 -0.044
0.320 0.048 -0.045
0.323 0.051 -0.045
0.324 0.054 -0.045
0.324 0.057 -0.045
0.324 0.060 -0.045
0.324 0.063 -0.045
0.323 0.066 -0.045
0.321 0.069 -0.045
0.320 0.072 -0.045
0.319 0.074 -0.045
0.319 0.077 -0.045
0.317 0.080 -0.044
0.316 0.082 -0.044
0.315 0.085 -0.044
0.314 0.088 -0.044
0.329 0.095 -0.046
0.327 0.098 -0.046
0.328 0.101 -0.046
0.335 0.106 -0.047
0.323 0.106 -0.046
0.322 0.109 -0.046
0.318 0.110 -0.045
0.320 0.114 -0.046
0.334 0.122 -0.048
0.341 0.135 -0.049
0.335 0.157 -0.049
0.333 0.166 -0.049
0.327 0.167 -0.048
0.353 0.203 -0.052
0.246 -0.339 -0.041
0.248 -0.338 -0.042
0.249 -0.334 -0.042
0.257 -0.341 -0.043
0.262 -0.342 -0.043
0.263 -0.339 -0.043
0.264 -0.336 -0.043
0.266 -0.334 -0.043
0.271 -0.335 -0.044
0.187 -0.209 -0.029
0.188 -0.207 -0.029
0.191 -0.207 -0.030
0.199 -0.213 -0.031
0.289 -0.299 -0.045
0.298 -0.303 -0.046
0.300 -0.301 -0.046
0.299 -0.295 -0.045
0.299 -0.291 -0.045
0.301 -0.288 -0.045
0.302 -0.284 -0.045
0.303 -0.281 -0.045
0.306 -0.280 -0.046
0.305 -0.275 -0.045
0.300 -0.265 -0.044
0.300 -0.261 -0.044
0.306 -0.262 -0.045
0.308 -0.260 -0.045
0.309 -0.257 -0.045
0.306 -0.251 -0.044
0.303 -0.244 -0.044
0.220 -0.171 -0.032
0.218 -0.167 -0.031
0.205 -0.154 -0.029
0.211 -0.156 -0.030
0.221 -0.161 -0.031
0.222 -0.159 -0.031
0.220 -0.155 -0.031
0.224 -0.155 -0.032
0.217 -0.148 -0.030
0.210 -0.141 -0.029
0.199 -0.131 -0.028
0.215 -0.139 -0.030
0.212 -0.134 -0.029
0.210 -0.131 -0.029
0.208 -0.128 -0.029
0.219 -0.132 -0.030
0.217 -0.128 -0.030
0.212 -0.123 -0.029
0.212 -0.120 -0.029
0.210 -0.117 -0.029
0.221 -0.121 -0.030
0.221 -0.118 -0.030
0.218 -0.115 -0.030
0.212 -0.109 -0.029
0.217 -0.110 -0.029
0.221 -0.109 -0.030
0.225 -0.109 -0.030
0.225 -0.107 -0.030
0.224 -0.104 -0.030
0.223 -0.101 -0.030
0.233 -0.103 -0.031
0.225 -0.098 -0.030
0.233 -0.099 -0.031
0.218 -0.090 -0.029
0.216 -0.087 -0.029
0.214 -0.084 -0.028
0.211 -0.081 -0.028
0.220 -0.082 -0.029
0.251 -0.092 -0.033
0.245 -0.087 -0.032
0.257 -0.089 -0.034
0.260 -0.087 -0.034
0.250 -0.081 -0.033
0.396 -0.110 -0.052
0.402 -0.108 -0.053
0.412 -0.107 -0.054
0.415 -0.104 -0.054
0.432 -0.104 -0.056
0.441 -0.102 -0.058
0.436 -0.097 -0.057
0.424 -0.090 -0.055
0.404 -0.082 -0.053
0.393 -0.077 -0.051
0.387 -0.072 -0.050
0.288 -0.051 -0.037
0.286 -0.048 -0.037
0.288 -0.046 -0.037
0.294 -0.044 -0.038
0.287 -0.040 -0.037
0.286 -0.038 -0.037
0.288 -0.035 -0.037
0.332 -0.035 -0.043
0.337 -0.032 -0.044
0.332 -0.028 -0.043
0.310 -0.024 -0.040
0.300 -0.020 -0.039
0.311 -0.018 -0.040
0.315 -0.016 -0.041
0.301 -0.012 -0.039
0.304 -0.010 -0.039
0.306 -0.007 -0.040
0.308 -0.004 -0.040
0.311 -0.001 -0.040
0.313 0.001 -0.040
0.315 0.004 -0.041
0.317 0.007 -0.041
0.320 0.010 -0.041
0.318 0.013 -0.041
0.317 0.016 -0.041
0.317 0.018 -0.041
0.314 0.021 -0.041
0.314 0.024 -0.041
0.314 0.027 -0.041
0.313 0.030 -0.041
0.312 0.032 -0.040
0.313 0.035 -0.041
0.314 0.038 -0.041
0.315 0.041 -0.041
0.316 0.044 -0.041
0.319 0.048 -0.041
0.324 0.051 -0.042
0.324 0.054 -0.042
0.324 0.057 -0.042
0.324 0.060 -0.042
0.324 0.063 -0.042
0.323 0.066 -0.042
0.322 0.069 -0.042
0.321 0.072 -0.042
0.320 0.074 -0.042
0.319 0.077 -0.042
0.318 0.080 -0.042
0.316 0.082 -0.042
0.315 0.085 -0.041
0.314 0.088 -0.041
0.325 0.094 -0.043
0.328 0.098 -0.043
0.330 0.102 -0.044
0.331 0.105 -0.044
0.338 0.111 -0.045
0.316 0.107 -0.042
0.313 0.109 -0.042
0.319 0.114 -0.042
0.335 0.126 -0.045
0.345 0.133 -0.046
0.341 0.160 -0.046
0.353 0.184 -0.048
0.266 -0.367 -0.042
0.250 -0.340 -0.039
0.246 -0.331 -0.038
0.250 -0.332 -0.039
0.261 -0.341 -0.040
0.267 -0.345 -0.041
0.266 -0.339 -0.041
0.267 -0.334 -0.040
0.217 -0.261 -0.033
0.179 -0.205 -0.026
0.176 -0.199 -0.026
0.179 -0.200 -0.026
0.187 -0.205 -0.027
0.198 -0.214 -0.029
0.206 -0.220 -0.030
0.216 -0.227 -0.031
0.297 -0.302 -0.042
0.299 -0.299 -0.042
0.299 -0.295 -0.042
0.301 -0.293 -0.042
0.305 -0.292 -0.043
0.306 -0.288 -0.043
0.307 -0.285 -0.043
0.307 -0.280 -0.042
0.306 -0.275 -0.042
0.300 -0.265 -0.041
0.298 -0.259 -0.041
0.303 -0.260 -0.041
0.308 -0.260 -0.042
0.311 -0.259 -0.042
0.308 -0.252 -0.042
0.222 -0.173 -0.030
0.217 -0.166 -0.029
0.208 -0.156 -0.028
0.203 -0.150 -0.027
0.220 -0.160 -0.029
0.216 -0.155 -0.028
0.217 -0.153 -0.028
0.219 -0.152 -0.029
0.219 -0.149 -0.028
0.215 -0.144 -0.028
0.211 -0.139 -0.027
0.212 -0.137 -0.027
0.212 -0.135 -0.027
0.209 -0.130 -0.027
0.209 -0.128 -0.027
0.209 -0.125 -0.027
0.219 -0.129 -0.028
0.217 -0.126 -0.028
0.216 -0.120 -0.027
0.213 -0.117 -0.027
0.208 -0.111 -0.026
0.213 -0.112 -0.027
0.204 -0.105 -0.026
0.211 -0.106 -0.027
0.217 -0.107 -0.027
0.222 -0.107 -0.028
0.222 -0.105 -0.028
0.218 -0.101 -0.027
0.222 -0.100 -0.028
0.229 -0.101 -0.028
