VERSION .7
FIELDS x y z
SIZE 4 4 4
TYPE F F F
COUNT 1 1 1
WIDTH     2586
HEIGHT 1
VIEWPOINT 0 0 0 1 0 0 0
POINTS     2586
DATA ascii
0.237 0.143 0.087
0.236 0.146 0.087
0.233 0.147 0.086
0.232 0.149 0.086
0.232 0.152 0.086
0.235 0.156 0.087
0.242 0.164 0.090
0.240 0.166 0.090
0.237 0.167 0.089
0.245 0.175 0.092
0.254 0.185 0.096
0.242 0.179 0.092
0.234 0.176 0.089
0.229 0.176 0.088
0.204 0.160 0.079
0.192 0.153 0.074
0.197 0.159 0.076
0.200 0.165 0.078
0.203 0.170 0.079
0.203 0.174 0.080
0.202 0.175 0.080
0.202 0.179 0.080
0.203 0.182 0.081
0.203 0.186 0.082
0.199 0.185 0.080
0.197 0.186 0.080
0.198 0.190 0.081
0.202 0.198 0.083
0.201 0.200 0.083
0.199 0.201 0.082
0.194 0.200 0.081
0.192 0.201 0.081
0.192 0.205 0.081
0.194 0.210 0.082
0.191 0.211 0.082
0.190 0.213 0.082
0.190 0.216 0.082
0.189 0.218 0.082
0.187 0.220 0.082
0.187 0.224 0.083
0.188 0.228 0.083
0.187 0.231 0.084
0.187 0.234 0.084
0.184 0.235 0.083
0.184 0.238 0.084
0.183 0.240 0.084
0.185 0.246 0.085
0.185 0.249 0.085
0.103 -0.139 0.048
0.104 -0.138 0.048
0.104 -0.136 0.048
0.105 -0.136 0.048
0.106 -0.135 0.048
0.111 -0.140 0.050
0.119 -0.148 0.053
0.116 -0.142 0.052
0.109 -0.132 0.049
0.105 -0.125 0.046
0.103 -0.121 0.045
0.103 -0.119 0.045
0.096 -0.109 0.042
0.098 -0.110 0.042
0.097 -0.107 0.042
0.097 -0.106 0.042
0.101 -0.108 0.043
0.104 -0.110 0.044
0.106 -0.110 0.045
0.105 -0.107 0.044
0.099 -0.100 0.041
0.103 -0.102 0.043
0.107 -0.104 0.044
0.115 -0.110 0.047
0.233 -0.214 0.095
0.233 -0.210 0.094
0.230 -0.204 0.093
0.231 -0.201 0.093
0.232 -0.199 0.093
0.233 -0.197 0.093
0.232 -0.193 0.092
0.231 -0.189 0.091
0.228 -0.183 0.090
0.225 -0.178 0.088
0.221 -0.172 0.086
0.216 -0.165 0.084
0.211 -0.158 0.082
0.207 -0.153 0.080
0.208 -0.151 0.080
0.196 -0.140 0.075
0.194 -0.136 0.074
0.190 -0.131 0.072
0.190 -0.129 0.072
0.201 -0.134 0.076
0.202 -0.132 0.076
0.204 -0.131 0.077
0.204 -0.129 0.077
0.203 -0.125 0.076
0.203 -0.123 0.076
0.204 -0.121 0.076
0.205 -0.120 0.076
0.207 -0.118 0.077
0.205 -0.115 0.075
0.208 -0.115 0.077
0.207 -0.112 0.076
0.208 -0.110 0.076
0.209 -0.108 0.076
0.212 -0.108 0.077
0.207 -0.103 0.075
0.206 -0.100 0.075
0.201 -0.095 0.073
0.206 -0.096 0.075
0.204 -0.093 0.074
0.203 -0.090 0.073
0.205 -0.089 0.074
0.212 -0.090 0.076
0.209 -0.087 0.075
0.201 -0.081 0.072
0.205 -0.080 0.073
0.209 -0.080 0.075
0.212 -0.079 0.075
0.212 -0.077 0.075
0.212 -0.075 0.075
0.213 -0.073 0.076
0.219 -0.073 0.077
0.228 -0.074 0.081
0.233 -0.073 0.082
0.238 -0.072 0.084
0.240 -0.071 0.084
0.240 -0.068 0.084
0.241 -0.066 0.085
0.246 -0.065 0.086
0.250 -0.064 0.088
0.251 -0.062 0.088
0.253 -0.060 0.088
0.253 -0.058 0.088
0.251 -0.055 0.088
0.250 -0.052 0.087
0.249 -0.050 0.087
0.248 -0.047 0.087
0.246 -0.044 0.086
0.245 -0.042 0.085
0.248 -0.040 0.086
0.249 -0.038 0.087
0.248 -0.035 0.086
0.248 -0.033 0.086
0.249 -0.031 0.086
0.250 -0.029 0.087
0.247 -0.026 0.086
0.247 -0.024 0.086
0.247 -0.022 0.086
0.247 -0.019 0.086
0.248 -0.017 0.086
0.245 -0.015 0.085
0.220 -0.011 0.076
0.219 -0.009 0.076
0.268 -0.004 0.093
0.274 -0.001 0.095
0.260 0.001 0.090
0.252 0.004 0.087
0.247 0.006 0.086
0.244 0.008 0.084
0.239 0.010 0.083
0.240 0.012 0.083
0.247 0.015 0.086
0.252 0.017 0.088
0.251 0.020 0.087
0.245 0.022 0.085
0.248 0.024 0.086
0.256 0.027 0.089
0.262 0.030 0.091
0.267 0.033 0.093
0.268 0.036 0.093
0.271 0.039 0.094
0.265 0.041 0.093
0.256 0.042 0.089
0.252 0.043 0.088
0.241 0.044 0.084
0.239 0.046 0.084
0.232 0.046 0.081
0.221 0.046 0.077
0.223 0.049 0.078
0.230 0.053 0.081
0.235 0.056 0.082
0.271 0.070 0.096
0.275 0.074 0.097
0.273 0.076 0.096
0.267 0.077 0.095
0.264 0.078 0.093
0.255 0.078 0.090
0.247 0.078 0.088
0.242 0.079 0.086
0.235 0.079 0.084
0.234 0.081 0.084
0.235 0.084 0.084
0.232 0.085 0.083
0.232 0.087 0.083
0.228 0.088 0.082
0.228 0.091 0.082
0.227 0.092 0.082
0.226 0.095 0.082
0.226 0.097 0.082
0.224 0.098 0.081
0.225 0.101 0.082
0.225 0.103 0.082
0.222 0.105 0.081
0.222 0.107 0.081
0.223 0.110 0.082
0.224 0.113 0.082
0.224 0.115 0.083
0.225 0.118 0.083
0.223 0.120 0.083
0.224 0.123 0.083
0.226 0.126 0.084
0.224 0.128 0.084
0.226 0.131 0.085
0.229 0.136 0.086
0.230 0.139 0.086
0.231 0.143 0.087
0.228 0.144 0.086
0.228 0.146 0.087
0.228 0.149 0.087
0.231 0.154 0.088
0.238 0.161 0.091
0.240 0.166 0.092
0.238 0.167 0.092
0.252 0.181 0.098
0.244 0.178 0.095
0.235 0.175 0.092
0.228 0.172 0.089
0.213 0.164 0.084
0.194 0.152 0.077
0.187 0.149 0.074
0.190 0.154 0.076
0.197 0.163 0.079
0.201 0.169 0.081
0.200 0.171 0.081
0.202 0.176 0.082
0.201 0.178 0.082
0.198 0.178 0.081
0.195 0.179 0.081
0.194 0.181 0.081
0.194 0.184 0.081
0.195 0.188 0.082
0.193 0.190 0.082
0.189 0.189 0.080
0.190 0.193 0.081
0.190 0.196 0.081
0.189 0.198 0.082
0.187 0.199 0.081
0.188 0.204 0.082
0.189 0.209 0.083
0.187 0.210 0.083
0.185 0.211 0.082
0.184 0.213 0.082
0.183 0.216 0.083
0.182 0.218 0.083
0.182 0.221 0.083
0.182 0.225 0.083
0.181 0.228 0.084
0.181 0.231 0.084
0.180 0.233 0.084
0.180 0.236 0.085
0.180 0.240 0.085
0.102 -0.136 0.048
0.104 -0.137 0.049
0.106 -0.138 0.050
0.113 -0.144 0.053
0.115 -0.145 0.053
0.113 -0.141 0.052
0.108 -0.133 0.050
0.104 -0.126 0.048
0.104 -0.124 0.047
0.097 -0.114 0.044
0.096 -0.111 0.043
0.098 -0.112 0.044
0.098 -0.110 0.044
0.110 -0.122 0.049
0.109 -0.119 0.048
0.101 -0.108 0.044
0.101 -0.107 0.044
0.105 -0.109 0.046
0.099 -0.101 0.043
0.101 -0.102 0.044
0.103 -0.103 0.044
0.106 -0.104 0.045
0.111 -0.107 0.047
0.116 -0.110 0.049
0.218 -0.200 0.091
0.222 -0.200 0.092
0.222 -0.198 0.092
0.224 -0.196 0.093
0.227 -0.195 0.093
0.228 -0.193 0.093
0.227 -0.189 0.092
0.227 -0.186 0.092
0.225 -0.181 0.091
0.222 -0.176 0.089
0.219 -0.171 0.088
0.214 -0.164 0.086
0.208 -0.157 0.083
0.208 -0.154 0.083
0.194 -0.141 0.077
0.193 -0.138 0.076
0.192 -0.135 0.076
0.196 -0.135 0.077
0.199 -0.135 0.078
0.201 -0.134 0.078
0.203 -0.133 0.079
0.203 -0.131 0.079
0.204 -0.128 0.079
0.202 -0.125 0.078
0.202 -0.123 0.078
0.202 -0.121 0.077
0.200 -0.117 0.076
0.204 -0.117 0.077
0.204 -0.115 0.077
0.199 -0.110 0.075
0.204 -0.110 0.077
0.203 -0.107 0.076
0.203 -0.105 0.076
0.207 -0.105 0.077
0.204 -0.101 0.076
0.204 -0.099 0.076
0.205 -0.098 0.077
0.203 -0.094 0.075
0.204 -0.093 0.076
0.204 -0.091 0.076
0.205 -0.089 0.076
0.208 -0.088 0.077
0.209 -0.087 0.077
0.208 -0.084 0.077
0.207 -0.081 0.076
0.208 -0.080 0.076
0.206 -0.077 0.076
0.210 -0.076 0.077
0.211 -0.075 0.077
0.214 -0.073 0.078
0.222 -0.074 0.081
0.231 -0.075 0.084
0.236 -0.074 0.086
0.237 -0.072 0.086
0.237 -0.070 0.086
0.236 -0.067 0.085
0.237 -0.065 0.086
0.243 -0.065 0.088
0.245 -0.063 0.089
0.247 -0.061 0.089
0.248 -0.059 0.089
0.244 -0.056 0.088
0.246 -0.054 0.088
0.245 -0.051 0.088
0.243 -0.049 0.087
0.240 -0.046 0.086
0.240 -0.043 0.086
0.242 -0.041 0.087
0.244 -0.039 0.087
0.244 -0.037 0.087
0.244 -0.035 0.087
0.245 -0.033 0.088
0.246 -0.031 0.088
0.244 -0.028 0.087
0.244 -0.026 0.087
0.242 -0.023 0.087
0.243 -0.021 0.087
0.243 -0.019 0.087
0.243 -0.017 0.087
0.244 -0.015 0.087
0.233 -0.010 0.083
0.245 -0.006 0.087
0.251 -0.003 0.090
0.260 -0.001 0.093
0.243 0.001 0.087
0.248 0.003 0.088
0.243 0.006 0.087
0.232 0.008 0.083
0.229 0.010 0.082
0.233 0.012 0.083
0.238 0.014 0.085
0.242 0.017 0.086
0.247 0.019 0.088
0.248 0.022 0.089
0.249 0.024 0.089
0.253 0.027 0.090
0.260 0.030 0.093
0.263 0.033 0.094
0.263 0.035 0.094
0.263 0.038 0.094
0.261 0.040 0.093
0.249 0.041 0.090
0.240 0.041 0.086
0.229 0.042 0.082
0.218 0.042 0.078
0.214 0.043 0.077
0.212 0.045 0.076
0.221 0.049 0.080
0.227 0.052 0.082
0.244 0.058 0.088
0.253 0.063 0.092
0.269 0.070 0.098
0.273 0.073 0.099
0.270 0.075 0.098
0.266 0.076 0.097
0.255 0.076 0.093
0.248 0.076 0.090
0.238 0.075 0.087
0.236 0.077 0.086
0.233 0.078 0.085
0.229 0.080 0.084
0.229 0.082 0.084
0.227 0.083 0.083
0.225 0.085 0.083
0.225 0.087 0.083
0.223 0.089 0.083
0.223 0.091 0.082
0.223 0.093 0.083
0.222 0.095 0.083
0.221 0.097 0.082
0.221 0.100 0.083
0.221 0.102 0.083
0.218 0.103 0.082
0.219 0.105 0.082
0.218 0.107 0.082
0.220 0.111 0.083
0.222 0.114 0.084
0.222 0.117 0.084
0.220 0.118 0.084
0.217 0.119 0.083
0.218 0.122 0.083
0.219 0.125 0.084
0.222 0.130 0.086
0.219 0.130 0.084
0.226 0.137 0.087
0.224 0.139 0.087
0.224 0.141 0.087
0.225 0.145 0.088
0.225 0.147 0.088
0.226 0.151 0.089
0.232 0.157 0.091
0.233 0.162 0.093
0.242 0.171 0.096
0.243 0.175 0.097
0.239 0.175 0.096
0.228 0.170 0.092
0.219 0.166 0.089
0.206 0.159 0.084
0.191 0.150 0.078
0.186 0.148 0.076
0.187 0.152 0.077
0.191 0.158 0.079
0.196 0.165 0.081
0.197 0.169 0.082
0.194 0.170 0.081
0.196 0.174 0.082
0.193 0.175 0.082
0.191 0.175 0.081
0.191 0.179 0.082
0.190 0.181 0.082
0.189 0.183 0.082
0.187 0.184 0.081
0.187 0.187 0.082
0.187 0.190 0.082
0.186 0.193 0.082
0.185 0.195 0.082
0.185 0.198 0.083
0.184 0.201 0.083
0.185 0.205 0.084
0.184 0.207 0.084
0.183 0.209 0.084
0.181 0.210 0.083
0.180 0.213 0.084
0.179 0.215 0.084
0.179 0.218 0.084
0.178 0.221 0.084
0.179 0.225 0.085
0.178 0.227 0.085
0.177 0.230 0.085
0.177 0.232 0.085
0.176 0.235 0.085
0.109 -0.145 0.053
0.113 -0.149 0.055
0.111 -0.144 0.053
0.109 -0.140 0.052
0.109 -0.138 0.052
0.108 -0.135 0.051
0.108 -0.133 0.051
0.095 -0.115 0.045
0.094 -0.113 0.044
0.094 -0.111 0.044
0.100 -0.116 0.047
0.104 -0.119 0.048
0.105 -0.119 0.048
0.101 -0.112 0.046
0.100 -0.110 0.046
0.101 -0.109 0.046
0.101 -0.107 0.046
0.097 -0.101 0.043
0.100 -0.103 0.045
0.101 -0.102 0.045
0.102 -0.102 0.045
0.104 -0.102 0.046
0.108 -0.104 0.047
0.112 -0.106 0.049
0.213 -0.196 0.092
0.216 -0.195 0.092
0.217 -0.194 0.093
0.219 -0.192 0.093
0.222 -0.192 0.094
0.222 -0.188 0.093
0.224 -0.187 0.094
0.223 -0.183 0.093
0.225 -0.181 0.093
0.215 -0.171 0.089
0.211 -0.165 0.087
0.203 -0.156 0.084
0.199 -0.150 0.082
0.193 -0.143 0.079
0.193 -0.141 0.078
0.194 -0.139 0.079
0.196 -0.138 0.079
0.201 -0.139 0.081
0.199 -0.135 0.080
0.203 -0.136 0.081
0.203 -0.133 0.081
0.200 -0.128 0.079
0.201 -0.127 0.080
0.202 -0.125 0.080
0.201 -0.122 0.079
0.202 -0.121 0.079
0.204 -0.119 0.080
0.203 -0.117 0.079
0.204 -0.115 0.079
0.203 -0.112 0.079
0.199 -0.108 0.077
0.203 -0.108 0.079
0.204 -0.106 0.079
0.206 -0.105 0.079
0.206 -0.103 0.079
0.204 -0.100 0.078
0.204 -0.097 0.078
0.203 -0.095 0.078
0.204 -0.093 0.078
0.204 -0.091 0.078
0.204 -0.089 0.077
0.209 -0.089 0.079
0.208 -0.086 0.079
0.205 -0.083 0.077
0.202 -0.080 0.076
0.207 -0.079 0.078
0.207 -0.077 0.078
0.206 -0.075 0.078
0.210 -0.074 0.079
0.217 -0.075 0.081
0.225 -0.075 0.084
0.231 -0.075 0.086
0.234 -0.074 0.087
0.232 -0.071 0.086
0.230 -0.068 0.086
0.232 -0.066 0.086
0.233 -0.064 0.087
0.239 -0.064 0.089
0.241 -0.062 0.089
0.243 -0.060 0.090
0.241 -0.057 0.089
0.239 -0.055 0.088
0.239 -0.052 0.088
0.241 -0.050 0.089
0.237 -0.047 0.087
0.237 -0.045 0.087
0.236 -0.043 0.087
0.238 -0.041 0.088
0.240 -0.039 0.088
0.240 -0.037 0.088
0.240 -0.034 0.088
0.238 -0.032 0.087
0.239 -0.030 0.088
0.241 -0.028 0.088
0.239 -0.025 0.087
0.239 -0.023 0.088
0.240 -0.021 0.088
0.241 -0.019 0.088
0.242 -0.017 0.089
0.252 -0.015 0.092
0.267 -0.014 0.098
0.265 -0.011 0.097
0.269 -0.009 0.098
0.239 -0.005 0.088
0.246 -0.003 0.090
0.243 -0.001 0.089
0.249 0.001 0.091
0.239 0.003 0.088
0.235 0.005 0.086
0.230 0.007 0.084
0.228 0.010 0.083
0.230 0.012 0.084
0.230 0.014 0.084
0.237 0.016 0.087
0.243 0.019 0.089
0.247 0.022 0.091
0.247 0.024 0.091
0.247 0.026 0.091
0.253 0.029 0.093
0.257 0.032 0.094
0.257 0.035 0.094
0.255 0.037 0.094
0.251 0.039 0.093
0.246 0.040 0.091
0.225 0.039 0.083
0.215 0.039 0.079
0.205 0.039 0.076
0.198 0.040 0.073
0.206 0.043 0.076
0.218 0.048 0.081
0.227 0.052 0.084
0.238 0.057 0.088
0.251 0.062 0.093
0.254 0.066 0.095
0.261 0.070 0.097
0.263 0.073 0.098
0.256 0.074 0.095
0.251 0.075 0.094
0.238 0.073 0.089
0.236 0.075 0.088
0.230 0.075 0.087
0.227 0.077 0.086
0.223 0.078 0.084
0.222 0.079 0.084
0.223 0.082 0.084
0.222 0.084 0.084
0.221 0.086 0.084
0.219 0.087 0.083
0.220 0.090 0.084
0.219 0.092 0.084
0.218 0.094 0.083
0.218 0.096 0.083
0.218 0.098 0.084
0.214 0.099 0.082
0.215 0.102 0.083
0.213 0.103 0.082
0.214 0.106 0.083
0.216 0.109 0.084
0.220 0.114 0.086
0.220 0.116 0.086
0.216 0.116 0.084
0.214 0.118 0.084
0.214 0.120 0.084
0.212 0.121 0.083
0.210 0.122 0.083
0.209 0.125 0.083
0.213 0.130 0.085
0.214 0.133 0.085
0.208 0.131 0.083
0.212 0.137 0.085
0.214 0.140 0.086
0.213 0.142 0.086
0.218 0.149 0.089
0.213 0.148 0.087
0.240 0.170 0.098
0.241 0.174 0.099
0.229 0.168 0.094
0.218 0.163 0.090
0.214 0.163 0.089
0.205 0.158 0.085
0.193 0.152 0.081
0.187 0.150 0.079
0.188 0.153 0.079
0.188 0.156 0.080
0.191 0.162 0.082
0.195 0.168 0.084
0.193 0.169 0.083
0.190 0.169 0.082
0.190 0.172 0.083
0.187 0.173 0.082
0.184 0.173 0.081
0.185 0.176 0.082
0.186 0.180 0.083
0.184 0.182 0.082
0.183 0.184 0.082
0.183 0.187 0.083
0.183 0.189 0.083
0.183 0.193 0.084
0.183 0.197 0.084
0.182 0.199 0.084
0.179 0.199 0.084
0.181 0.204 0.085
0.181 0.208 0.085
0.179 0.209 0.085
0.178 0.211 0.085
0.177 0.213 0.085
0.177 0.216 0.085
0.176 0.219 0.086
0.177 0.223 0.086
0.175 0.224 0.086
0.174 0.226 0.086
0.173 0.229 0.086
0.172 0.231 0.086
0.112 -0.150 0.056
0.111 -0.147 0.055
0.108 -0.140 0.053
0.102 -0.131 0.050
0.098 -0.124 0.048
0.095 -0.119 0.047
0.095 -0.117 0.046
0.093 -0.113 0.045
0.103 -0.124 0.050
0.104 -0.123 0.050
0.105 -0.122 0.050
0.104 -0.119 0.049
0.102 -0.115 0.048
0.102 -0.113 0.048
0.099 -0.109 0.046
0.101 -0.109 0.047
0.107 -0.114 0.049
0.103 -0.107 0.047
0.101 -0.104 0.046
0.101 -0.103 0.046
0.102 -0.102 0.046
0.104 -0.102 0.047
0.107 -0.104 0.048
0.111 -0.106 0.049
0.118 -0.111 0.052
0.211 -0.191 0.093
0.214 -0.191 0.094
0.217 -0.190 0.094
0.215 -0.185 0.093
0.203 -0.173 0.088
0.202 -0.169 0.087
0.198 -0.163 0.085
0.199 -0.161 0.085
0.198 -0.158 0.084
0.198 -0.155 0.084
0.196 -0.151 0.083
0.194 -0.147 0.082
0.193 -0.144 0.081
0.199 -0.145 0.083
0.200 -0.144 0.083
0.200 -0.141 0.083
0.205 -0.142 0.085
0.204 -0.139 0.084
0.203 -0.136 0.083
0.203 -0.133 0.083
0.205 -0.132 0.084
0.205 -0.130 0.084
0.203 -0.126 0.082
0.203 -0.124 0.082
0.204 -0.122 0.082
0.205 -0.120 0.082
0.205 -0.118 0.082
0.205 -0.116 0.082
0.205 -0.113 0.082
0.203 -0.110 0.081
0.202 -0.107 0.080
0.204 -0.106 0.081
0.205 -0.105 0.081
0.206 -0.103 0.081
0.204 -0.100 0.080
0.203 -0.097 0.080
0.208 -0.097 0.082
0.199 -0.091 0.078
0.204 -0.091 0.080
0.202 -0.088 0.079
0.202 -0.086 0.079
0.209 -0.087 0.081
0.203 -0.082 0.079
0.206 -0.081 0.080
0.202 -0.078 0.078
0.204 -0.076 0.079
0.207 -0.075 0.080
0.210 -0.074 0.081
0.216 -0.075 0.083
0.225 -0.075 0.086
0.229 -0.074 0.088
0.225 -0.071 0.086
0.226 -0.069 0.087
0.226 -0.067 0.087
0.226 -0.065 0.086
0.228 -0.063 0.087
0.231 -0.062 0.088
0.235 -0.060 0.089
0.238 -0.059 0.090
0.238 -0.057 0.090
0.234 -0.053 0.089
0.234 -0.051 0.089
0.233 -0.049 0.088
0.235 -0.047 0.089
0.233 -0.044 0.088
0.233 -0.042 0.088
0.234 -0.040 0.089
0.236 -0.038 0.089
0.236 -0.036 0.089
0.234 -0.034 0.088
0.234 -0.031 0.088
0.235 -0.029 0.089
0.236 -0.027 0.089
0.235 -0.025 0.089
0.235 -0.023 0.088
0.236 -0.021 0.089
0.242 -0.019 0.091
0.257 -0.018 0.096
0.265 -0.016 0.100
0.268 -0.014 0.101
0.267 -0.011 0.100
0.252 -0.008 0.095
0.243 -0.006 0.091
0.236 -0.003 0.089
0.242 -0.001 0.091
0.237 0.001 0.089
0.230 0.003 0.087
0.224 0.005 0.084
0.228 0.007 0.086
0.228 0.010 0.086
0.227 0.012 0.085
0.227 0.014 0.085
0.233 0.016 0.088
0.246 0.019 0.093
0.245 0.022 0.092
0.243 0.024 0.092
0.241 0.026 0.091
0.245 0.028 0.092
0.250 0.031 0.094
0.251 0.034 0.095
0.245 0.035 0.093
0.235 0.036 0.089
0.225 0.037 0.085
0.216 0.037 0.082
0.206 0.037 0.078
0.195 0.037 0.074
0.195 0.039 0.074
0.203 0.043 0.077
0.220 0.048 0.084
0.228 0.052 0.087
0.237 0.057 0.091
0.246 0.061 0.094
0.251 0.065 0.096
0.253 0.068 0.097
0.253 0.071 0.097
0.251 0.072 0.096
0.243 0.072 0.093
0.231 0.071 0.089
0.223 0.071 0.086
0.215 0.070 0.083
0.219 0.074 0.085
0.218 0.076 0.084
0.219 0.078 0.085
0.218 0.080 0.085
0.218 0.083 0.085
0.214 0.083 0.083
0.215 0.086 0.084
0.214 0.088 0.084
0.214 0.090 0.084
0.211 0.091 0.083
0.213 0.094 0.084
0.212 0.096 0.084
0.210 0.097 0.083
0.207 0.098 0.082
0.206 0.100 0.082
0.192 0.095 0.076
0.192 0.097 0.077
0.185 0.096 0.074
0.182 0.096 0.073
0.181 0.097 0.073
0.178 0.098 0.072
0.187 0.107 0.076
0.203 0.124 0.083
0.203 0.126 0.083
0.203 0.129 0.084
0.203 0.131 0.084
0.202 0.133 0.084
0.204 0.137 0.085
0.204 0.139 0.085
0.201 0.139 0.084
0.215 0.158 0.091
0.211 0.157 0.089
0.209 0.159 0.089
0.205 0.159 0.088
0.196 0.155 0.084
0.189 0.152 0.082
0.187 0.153 0.081
0.186 0.155 0.081
0.188 0.159 0.082
0.188 0.162 0.083
0.187 0.164 0.083
0.185 0.165 0.082
0.183 0.166 0.082
0.184 0.170 0.083
0.183 0.172 0.083
0.181 0.173 0.082
0.181 0.176 0.083
0.181 0.179 0.083
0.179 0.180 0.083
0.179 0.183 0.083
0.179 0.186 0.084
0.180 0.190 0.085
0.180 0.194 0.085
0.177 0.194 0.084
0.176 0.196 0.084
0.179 0.202 0.086
0.178 0.205 0.086
0.177 0.207 0.087
0.177 0.210 0.087
0.175 0.211 0.086
0.175 0.214 0.087
0.174 0.216 0.087
0.173 0.219 0.087
0.172 0.221 0.087
0.170 0.221 0.086
0.169 0.223 0.086
0.106 -0.140 0.054
0.101 -0.131 0.051
0.099 -0.128 0.050
0.098 -0.124 0.049
0.096 -0.121 0.048
0.101 -0.125 0.050
0.107 -0.130 0.053
0.104 -0.125 0.052
0.104 -0.123 0.051
0.105 -0.122 0.051
0.101 -0.116 0.049
0.102 -0.115 0.049
0.110 -0.123 0.053
0.113 -0.124 0.054
0.116 -0.125 0.055
0.111 -0.118 0.053
0.109 -0.115 0.052
0.101 -0.105 0.048
0.101 -0.103 0.047
0.103 -0.103 0.048
0.105 -0.104 0.049
0.107 -0.104 0.049
0.110 -0.105 0.051
0.117 -0.109 0.053
0.195 -0.175 0.088
0.196 -0.172 0.088
0.196 -0.170 0.088
0.198 -0.168 0.088
0.197 -0.165 0.087
0.197 -0.163 0.087
0.197 -0.159 0.086
0.199 -0.159 0.087
0.200 -0.156 0.087
0.203 -0.156 0.088
0.205 -0.155 0.088
0.204 -0.152 0.088
0.202 -0.148 0.087
0.200 -0.144 0.085
0.200 -0.142 0.085
0.201 -0.140 0.085
0.203 -0.138 0.086
0.203 -0.136 0.086
0.203 -0.133 0.085
0.206 -0.133 0.086
0.207 -0.132 0.087
0.205 -0.128 0.086
0.203 -0.124 0.084
0.205 -0.123 0.085
0.207 -0.122 0.086
0.210 -0.121 0.087
0.209 -0.118 0.086
0.208 -0.115 0.085
0.209 -0.113 0.085
0.209 -0.111 0.085
0.208 -0.108 0.085
0.207 -0.106 0.084
0.207 -0.103 0.084
0.208 -0.102 0.084
0.206 -0.099 0.083
0.207 -0.097 0.084
0.207 -0.095 0.083
0.204 -0.091 0.082
0.208 -0.091 0.083
0.212 -0.090 0.085
0.213 -0.089 0.085
0.212 -0.086 0.085
0.209 -0.083 0.083
0.210 -0.081 0.083
0.208 -0.078 0.082
0.205 -0.075 0.081
0.208 -0.074 0.082
0.217 -0.075 0.086
0.224 -0.075 0.088
0.221 -0.072 0.087
0.220 -0.069 0.087
0.223 -0.068 0.087
0.224 -0.066 0.088
0.223 -0.064 0.087
0.224 -0.062 0.088
0.227 -0.061 0.089
0.229 -0.059 0.089
0.229 -0.057 0.089
0.229 -0.055 0.089
0.232 -0.053 0.090
0.230 -0.050 0.090
0.230 -0.048 0.089
0.230 -0.046 0.089
0.230 -0.044 0.089
0.230 -0.042 0.089
0.229 -0.039 0.089
0.230 -0.037 0.089
0.229 -0.035 0.089
0.231 -0.033 0.089
0.230 -0.031 0.089
0.230 -0.029 0.089
0.231 -0.027 0.089
0.230 -0.024 0.089
0.233 -0.023 0.090
0.241 -0.021 0.093
0.258 -0.020 0.100
0.261 -0.018 0.101
0.262 -0.016 0.101
0.261 -0.013 0.101
0.250 -0.010 0.097
0.243 -0.008 0.094
0.236 -0.005 0.091
0.231 -0.003 0.089
0.232 -0.001 0.089
0.231 0.001 0.089
0.225 0.003 0.087
0.219 0.005 0.085
0.223 0.007 0.086
0.228 0.010 0.088
0.226 0.012 0.087
0.225 0.014 0.087
0.232 0.016 0.090
0.242 0.019 0.094
0.247 0.022 0.096
0.240 0.023 0.093
0.234 0.025 0.091
0.237 0.028 0.092
0.243 0.031 0.094
0.240 0.033 0.093
0.232 0.034 0.090
0.225 0.035 0.087
0.218 0.036 0.085
0.211 0.037 0.082
0.200 0.036 0.078
0.193 0.037 0.075
0.195 0.039 0.076
0.205 0.043 0.080
0.219 0.048 0.086
0.235 0.054 0.092
0.241 0.058 0.094
0.246 0.062 0.097
0.251 0.065 0.099
0.249 0.067 0.098
0.247 0.069 0.097
0.245 0.071 0.097
0.206 0.064 0.081
0.207 0.066 0.082
0.210 0.069 0.083
0.212 0.072 0.084
0.214 0.075 0.085
0.209 0.075 0.083
0.212 0.078 0.085
0.208 0.079 0.083
0.205 0.080 0.082
0.205 0.082 0.082
0.207 0.085 0.083
0.205 0.086 0.082
0.200 0.086 0.081
0.197 0.087 0.080
0.198 0.089 0.080
0.185 0.086 0.075
0.183 0.087 0.074
0.190 0.092 0.077
0.192 0.095 0.078
0.191 0.097 0.078
0.190 0.098 0.078
0.190 0.100 0.078
0.191 0.103 0.079
0.184 0.101 0.076
0.198 0.112 0.082
0.199 0.114 0.083
0.204 0.119 0.085
0.206 0.123 0.086
0.201 0.123 0.084
0.201 0.125 0.085
0.201 0.128 0.085
0.201 0.130 0.085
0.201 0.132 0.085
0.201 0.135 0.086
0.200 0.137 0.086
0.199 0.139 0.085
0.224 0.159 0.097
0.223 0.161 0.097
0.203 0.149 0.088
0.202 0.152 0.088
0.207 0.158 0.091
0.205 0.159 0.090
0.199 0.157 0.088
0.191 0.154 0.085
0.187 0.153 0.083
0.185 0.154 0.083
0.185 0.157 0.083
0.183 0.158 0.083
0.182 0.160 0.083
0.181 0.162 0.083
0.181 0.164 0.083
0.181 0.167 0.083
0.180 0.170 0.084
0.180 0.172 0.084
0.179 0.174 0.084
0.178 0.176 0.084
0.177 0.179 0.084
0.177 0.181 0.084
0.177 0.185 0.085
0.175 0.186 0.085
0.176 0.190 0.086
0.175 0.192 0.086
0.174 0.194 0.085
0.174 0.197 0.086
0.174 0.200 0.087
0.175 0.205 0.088
0.175 0.208 0.088
0.173 0.210 0.088
0.170 0.209 0.087
0.170 0.212 0.087
0.171 0.216 0.088
0.169 0.217 0.087
0.166 0.216 0.086
0.165 0.219 0.087
0.097 -0.128 0.051
0.095 -0.124 0.050
0.097 -0.124 0.050
0.098 -0.125 0.051
0.100 -0.125 0.051
0.102 -0.126 0.052
0.105 -0.128 0.053
0.106 -0.128 0.054
0.102 -0.121 0.052
0.103 -0.121 0.052
0.112 -0.129 0.056
0.121 -0.135 0.060
0.119 -0.131 0.058
0.118 -0.127 0.058
0.113 -0.121 0.055
0.112 -0.118 0.054
0.103 -0.107 0.050
0.102 -0.104 0.049
0.104 -0.104 0.050
0.106 -0.104 0.050
0.107 -0.104 0.051
0.111 -0.106 0.052
0.116 -0.109 0.054
0.194 -0.174 0.089
0.194 -0.171 0.089
0.196 -0.170 0.090
0.197 -0.168 0.090
0.199 -0.167 0.090
0.202 -0.167 0.091
0.203 -0.165 0.091
0.203 -0.162 0.091
0.204 -0.160 0.091
0.204 -0.158 0.091
0.205 -0.155 0.091
0.205 -0.153 0.090
0.202 -0.148 0.089
0.200 -0.144 0.088
0.199 -0.141 0.087
0.200 -0.139 0.087
0.200 -0.137 0.087
0.201 -0.135 0.087
0.199 -0.131 0.086
0.203 -0.131 0.087
0.205 -0.130 0.088
0.202 -0.126 0.086
0.201 -0.123 0.086
0.202 -0.121 0.086
0.207 -0.122 0.088
0.208 -0.120 0.088
0.208 -0.118 0.088
0.207 -0.115 0.087
0.210 -0.114 0.088
0.211 -0.112 0.088
0.210 -0.110 0.088
0.208 -0.106 0.087
0.206 -0.103 0.086
0.204 -0.100 0.085
0.205 -0.098 0.085
0.208 -0.098 0.086
0.208 -0.095 0.086
0.207 -0.093 0.085
0.210 -0.092 0.086
0.213 -0.091 0.088
0.215 -0.090 0.088
0.213 -0.087 0.087
0.212 -0.084 0.087
0.212 -0.082 0.086
0.211 -0.079 0.086
0.206 -0.075 0.084
0.207 -0.074 0.084
0.211 -0.073 0.086
0.223 -0.075 0.090
0.213 -0.069 0.086
0.217 -0.069 0.088
0.219 -0.067 0.088
0.220 -0.065 0.088
0.220 -0.063 0.089
0.220 -0.061 0.088
0.222 -0.059 0.089
0.224 -0.058 0.090
0.225 -0.056 0.090
0.225 -0.054 0.090
0.227 -0.052 0.091
0.227 -0.050 0.091
0.227 -0.048 0.091
0.226 -0.045 0.090
0.226 -0.043 0.090
0.224 -0.041 0.089
0.224 -0.039 0.089
0.223 -0.036 0.089
0.223 -0.034 0.089
0.224 -0.032 0.089
0.225 -0.030 0.089
0.226 -0.028 0.090
0.224 -0.026 0.089
0.228 -0.024 0.090
0.243 -0.024 0.096
0.254 -0.022 0.101
0.259 -0.020 0.102
0.259 -0.018 0.103
0.238 -0.010 0.094
0.231 -0.007 0.091
0.222 -0.005 0.088
0.224 -0.003 0.089
0.222 -0.001 0.088
0.225 0.001 0.089
0.226 0.003 0.090
0.220 0.005 0.087
0.213 0.007 0.084
0.215 0.009 0.085
0.229 0.012 0.091
0.221 0.013 0.088
0.216 0.015 0.086
0.232 0.023 0.092
0.217 0.023 0.086
0.236 0.027 0.094
0.231 0.029 0.092
0.222 0.032 0.088
0.215 0.033 0.086
0.202 0.033 0.080
0.201 0.035 0.080
0.198 0.036 0.079
0.192 0.037 0.077
0.192 0.039 0.077
0.209 0.044 0.084
0.223 0.049 0.089
0.231 0.053 0.093
0.246 0.059 0.099
0.250 0.062 0.100
0.244 0.063 0.098
0.240 0.065 0.097
0.238 0.067 0.096
0.224 0.065 0.090
0.202 0.061 0.082
0.198 0.061 0.080
0.206 0.066 0.084
0.205 0.067 0.083
0.201 0.068 0.082
0.193 0.068 0.079
0.201 0.072 0.082
0.200 0.074 0.082
0.200 0.076 0.082
0.200 0.078 0.082
0.201 0.081 0.083
0.201 0.083 0.083
0.203 0.085 0.084
0.198 0.085 0.082
0.196 0.087 0.081
0.197 0.089 0.082
0.195 0.091 0.081
0.190 0.090 0.079
0.191 0.093 0.080
0.194 0.096 0.081
0.194 0.098 0.081
0.193 0.100 0.081
0.193 0.102 0.081
0.194 0.105 0.082
0.198 0.109 0.084
0.197 0.111 0.084
0.195 0.113 0.083
0.209 0.123 0.090
0.205 0.123 0.088
0.197 0.120 0.085
0.190 0.119 0.082
0.188 0.119 0.081
0.189 0.122 0.082
0.198 0.131 0.087
0.198 0.133 0.087
0.197 0.135 0.087
0.196 0.137 0.087
0.223 0.159 0.099
0.221 0.160 0.098
0.194 0.143 0.087
0.194 0.146 0.087
0.201 0.154 0.091
0.202 0.157 0.091
0.200 0.159 0.091
0.195 0.157 0.089
0.183 0.151 0.084
0.180 0.151 0.083
0.181 0.154 0.083
0.180 0.156 0.084
0.179 0.158 0.084
0.178 0.160 0.084
0.178 0.163 0.084
0.178 0.165 0.084
0.178 0.168 0.085
0.177 0.170 0.085
0.177 0.173 0.085
0.176 0.175 0.085
0.175 0.177 0.085
0.176 0.181 0.086
0.173 0.181 0.085
0.174 0.185 0.086
0.173 0.188 0.087
0.173 0.190 0.087
0.172 0.193 0.087
0.171 0.194 0.087
0.170 0.196 0.087
0.170 0.199 0.087
0.169 0.202 0.088
0.168 0.204 0.087
0.168 0.206 0.088
0.167 0.209 0.088
0.168 0.213 0.089
0.165 0.213 0.088
0.164 0.214 0.087
0.098 -0.128 0.052
0.104 -0.134 0.055
0.100 -0.128 0.053
0.101 -0.127 0.053
0.103 -0.127 0.054
0.103 -0.126 0.054
0.104 -0.126 0.054
0.114 -0.136 0.059
0.120 -0.140 0.062
0.123 -0.141 0.063
0.127 -0.144 0.065
0.124 -0.139 0.063
0.122 -0.135 0.062
0.121 -0.131 0.061
0.119 -0.128 0.060
0.115 -0.121 0.057
0.107 -0.111 0.053
0.104 -0.106 0.051
0.105 -0.105 0.051
0.106 -0.105 0.052
0.108 -0.105 0.052
0.111 -0.106 0.053
0.116 -0.109 0.055
0.126 -0.117 0.060
0.193 -0.173 0.091
0.194 -0.172 0.092
0.196 -0.171 0.092
0.198 -0.169 0.092
0.199 -0.168 0.093
0.199 -0.164 0.092
0.199 -0.162 0.092
0.201 -0.161 0.092
0.201 -0.158 0.092
0.201 -0.155 0.092
0.202 -0.154 0.092
0.202 -0.151 0.091
0.199 -0.147 0.090
0.199 -0.144 0.090
0.199 -0.141 0.089
0.199 -0.139 0.089
0.199 -0.136 0.089
0.199 -0.134 0.088
0.198 -0.131 0.088
0.199 -0.129 0.088
0.200 -0.127 0.088
0.200 -0.125 0.088
0.200 -0.123 0.088
0.200 -0.120 0.087
0.201 -0.118 0.087
0.202 -0.117 0.088
0.203 -0.115 0.088
0.202 -0.112 0.087
0.201 -0.110 0.087
0.202 -0.108 0.087
0.202 -0.106 0.086
0.202 -0.103 0.086
0.203 -0.102 0.086
0.204 -0.100 0.087
0.206 -0.099 0.088
0.206 -0.096 0.087
0.207 -0.095 0.088
0.207 -0.093 0.087
0.208 -0.091 0.088
0.209 -0.089 0.088
0.211 -0.088 0.088
0.210 -0.085 0.088
0.208 -0.083 0.087
0.209 -0.081 0.087
0.210 -0.079 0.088
0.207 -0.076 0.086
0.204 -0.073 0.085
0.207 -0.072 0.086
0.208 -0.070 0.086
0.209 -0.068 0.087
0.213 -0.067 0.088
0.215 -0.066 0.089
0.216 -0.064 0.089
0.214 -0.062 0.088
0.216 -0.060 0.089
0.216 -0.058 0.089
0.218 -0.056 0.089
0.221 -0.055 0.091
0.221 -0.053 0.091
0.223 -0.051 0.091
0.223 -0.049 0.091
0.218 -0.046 0.089
0.222 -0.045 0.091
0.219 -0.042 0.090
0.220 -0.040 0.090
0.219 -0.038 0.089
0.218 -0.036 0.089
0.220 -0.034 0.089
0.221 -0.032 0.090
0.223 -0.030 0.091
0.223 -0.028 0.091
0.226 -0.026 0.092
0.239 -0.025 0.097
0.242 -0.024 0.098
0.246 -0.022 0.100
0.243 -0.019 0.099
0.205 -0.010 0.083
0.211 -0.009 0.086
0.214 -0.007 0.087
0.221 -0.005 0.089
0.212 -0.003 0.086
0.213 -0.001 0.086
0.215 0.001 0.087
0.221 0.003 0.089
0.211 0.005 0.086
0.203 0.007 0.082
0.208 0.009 0.084
0.214 0.011 0.087
0.207 0.013 0.084
0.201 0.014 0.082
0.204 0.022 0.083
0.180 0.023 0.074
0.180 0.024 0.074
0.198 0.031 0.081
0.190 0.031 0.077
0.189 0.033 0.077
0.195 0.036 0.080
0.192 0.037 0.079
0.190 0.038 0.078
0.202 0.043 0.083
0.217 0.048 0.089
0.230 0.053 0.095
0.241 0.058 0.099
0.241 0.060 0.099
0.236 0.061 0.097
0.227 0.061 0.094
0.218 0.061 0.090
0.207 0.060 0.086
0.204 0.061 0.085
0.206 0.064 0.085
0.205 0.066 0.085
0.203 0.067 0.084
0.198 0.067 0.083
0.199 0.070 0.083
0.198 0.071 0.083
0.196 0.073 0.082
0.196 0.075 0.082
0.200 0.078 0.084
0.200 0.080 0.084
0.198 0.081 0.083
0.197 0.083 0.083
0.197 0.085 0.083
0.198 0.088 0.084
0.199 0.090 0.085
0.198 0.092 0.084
0.195 0.093 0.083
0.195 0.095 0.084
0.197 0.098 0.085
0.197 0.100 0.085
0.198 0.103 0.086
0.196 0.104 0.085
0.194 0.105 0.084
0.190 0.105 0.083
0.185 0.105 0.081
0.176 0.102 0.077
0.172 0.101 0.076
0.167 0.100 0.074
0.167 0.103 0.074
0.176 0.110 0.078
0.182 0.116 0.081
0.185 0.120 0.082
0.194 0.128 0.087
0.193 0.130 0.087
0.191 0.132 0.086
0.192 0.134 0.087
0.218 0.155 0.099
0.214 0.155 0.098
0.193 0.143 0.088
0.189 0.142 0.087
0.189 0.145 0.087
0.194 0.151 0.090
0.198 0.158 0.092
0.199 0.161 0.093
0.182 0.150 0.086
0.177 0.148 0.083
0.175 0.149 0.083
0.178 0.154 0.085
0.177 0.156 0.085
0.177 0.159 0.085
0.176 0.161 0.085
0.175 0.163 0.085
0.175 0.166 0.086
0.174 0.168 0.086
0.174 0.170 0.086
0.171 0.171 0.085
0.173 0.175 0.086
0.171 0.177 0.086
0.170 0.179 0.086
0.170 0.181 0.087
0.171 0.185 0.087
0.171 0.189 0.088
0.170 0.191 0.088
0.168 0.192 0.088
0.167 0.194 0.088
0.167 0.197 0.088
0.167 0.200 0.089
0.166 0.201 0.088
0.164 0.203 0.088
0.164 0.206 0.089
0.163 0.208 0.089
0.162 0.209 0.088
0.161 0.211 0.088
0.103 -0.135 0.057
0.104 -0.134 0.057
0.103 -0.132 0.056
0.101 -0.127 0.054
0.101 -0.125 0.054
0.110 -0.135 0.059
0.122 -0.147 0.065
0.124 -0.148 0.066
0.125 -0.146 0.066
0.127 -0.147 0.067
0.125 -0.142 0.065
0.123 -0.138 0.064
0.123 -0.136 0.064
0.122 -0.133 0.063
0.119 -0.128 0.061
0.116 -0.123 0.059
0.115 -0.120 0.058
0.105 -0.107 0.053
0.105 -0.105 0.052
0.106 -0.105 0.053
0.108 -0.106 0.054
0.110 -0.106 0.055
0.112 -0.106 0.055
0.116 -0.108 0.057
0.129 -0.118 0.063
0.193 -0.171 0.093
0.195 -0.170 0.094
0.198 -0.169 0.095
0.197 -0.166 0.094
0.195 -0.162 0.093
0.196 -0.160 0.093
0.197 -0.158 0.093
0.197 -0.155 0.092
0.198 -0.154 0.093
0.197 -0.150 0.092
0.197 -0.148 0.092
0.198 -0.146 0.092
0.198 -0.143 0.091
0.198 -0.141 0.091
0.198 -0.138 0.090
0.198 -0.136 0.090
0.198 -0.134 0.090
0.199 -0.132 0.090
0.200 -0.130 0.090
0.199 -0.127 0.090
0.199 -0.124 0.089
0.200 -0.123 0.090
0.200 -0.121 0.089
0.200 -0.118 0.089
0.201 -0.117 0.089
0.202 -0.115 0.090
0.203 -0.113 0.090
0.201 -0.110 0.089
0.200 -0.107 0.088
0.200 -0.105 0.088
0.201 -0.103 0.088
0.202 -0.101 0.088
0.203 -0.100 0.089
0.204 -0.098 0.089
0.204 -0.096 0.089
0.201 -0.092 0.087
0.201 -0.090 0.087
0.201 -0.088 0.087
0.201 -0.086 0.087
0.202 -0.084 0.087
0.202 -0.082 0.087
0.203 -0.081 0.087
0.202 -0.078 0.087
0.202 -0.076 0.086
0.200 -0.073 0.085
0.203 -0.072 0.086
0.206 -0.071 0.088
0.208 -0.070 0.089
0.209 -0.068 0.089
0.209 -0.066 0.089
0.210 -0.064 0.089
0.210 -0.063 0.089
0.210 -0.061 0.089
0.211 -0.059 0.089
0.214 -0.057 0.090
0.217 -0.056 0.091
0.216 -0.054 0.091
0.217 -0.052 0.091
0.217 -0.050 0.091
0.215 -0.047 0.090
0.214 -0.045 0.090
0.215 -0.043 0.090
0.216 -0.041 0.090
0.215 -0.039 0.090
0.215 -0.037 0.090
0.215 -0.035 0.090
0.215 -0.033 0.090
0.219 -0.032 0.091
0.220 -0.030 0.092
0.225 -0.028 0.094
0.244 -0.028 0.102
0.241 -0.026 0.100
0.234 -0.023 0.097
0.234 -0.021 0.097
0.203 -0.014 0.085
0.197 -0.012 0.082
0.197 -0.010 0.082
0.194 -0.008 0.081
0.200 -0.006 0.083
0.205 -0.003 0.085
0.200 -0.001 0.083
0.200 0.001 0.083
0.191 0.006 0.080
0.197 0.008 0.082
0.198 0.010 0.082
0.185 0.013 0.077
0.185 0.015 0.077
0.183 0.016 0.076
0.181 0.018 0.075
0.190 0.020 0.079
0.174 0.022 0.073
0.170 0.023 0.071
0.164 0.024 0.069
0.156 0.024 0.065
0.167 0.027 0.070
0.181 0.031 0.076
0.185 0.034 0.078
0.186 0.036 0.078
0.191 0.039 0.080
0.198 0.042 0.083
0.217 0.048 0.091
0.225 0.052 0.095
0.227 0.055 0.096
0.226 0.057 0.096
0.220 0.057 0.093
0.216 0.059 0.092
0.209 0.059 0.089
0.205 0.060 0.087
0.203 0.061 0.086
0.201 0.062 0.086
0.203 0.065 0.086
0.199 0.066 0.085
0.199 0.068 0.085
0.197 0.069 0.085
0.197 0.071 0.085
0.195 0.072 0.084
0.193 0.074 0.083
0.195 0.076 0.084
0.195 0.079 0.084
0.195 0.081 0.084
0.194 0.082 0.084
0.193 0.084 0.084
0.194 0.086 0.085
0.194 0.088 0.085
0.190 0.089 0.083
0.194 0.093 0.085
0.195 0.095 0.086
0.196 0.098 0.086
0.201 0.102 0.089
0.208 0.108 0.092
0.197 0.105 0.087
0.183 0.100 0.081
0.174 0.096 0.077
0.168 0.095 0.075
0.167 0.097 0.075
0.166 0.098 0.075
0.166 0.100 0.075
0.170 0.104 0.077
0.175 0.110 0.080
0.183 0.117 0.083
0.188 0.122 0.086
0.188 0.124 0.086
0.189 0.128 0.087
0.188 0.130 0.087
0.189 0.132 0.087
0.203 0.145 0.095
0.203 0.148 0.095
0.193 0.143 0.090
0.186 0.140 0.087
0.184 0.142 0.087
0.187 0.146 0.089
0.189 0.151 0.090
0.190 0.154 0.091
0.189 0.156 0.091
0.178 0.149 0.086
0.173 0.148 0.084
0.174 0.152 0.085
0.172 0.153 0.085
0.175 0.158 0.086
0.174 0.160 0.086
0.171 0.159 0.085
0.170 0.161 0.085
0.170 0.164 0.086
0.169 0.166 0.086
0.168 0.168 0.086
0.168 0.171 0.086
0.168 0.174 0.087
0.168 0.177 0.087
0.168 0.179 0.087
0.167 0.182 0.088
0.167 0.185 0.088
0.168 0.189 0.089
0.165 0.188 0.088
0.165 0.192 0.089
0.165 0.195 0.089
0.165 0.198 0.090
0.163 0.199 0.089
0.161 0.199 0.089
0.160 0.200 0.088
0.159 0.203 0.088
0.159 0.205 0.089
0.159 0.209 0.089
0.103 -0.135 0.058
0.104 -0.135 0.058
0.103 -0.131 0.057
0.102 -0.128 0.056
0.116 -0.144 0.064
0.123 -0.151 0.067
0.124 -0.150 0.068
0.126 -0.150 0.069
0.129 -0.152 0.070
0.127 -0.148 0.069
0.123 -0.141 0.066
0.123 -0.139 0.066
0.123 -0.137 0.065
0.123 -0.134 0.065
0.120 -0.129 0.063
0.116 -0.123 0.061
0.116 -0.121 0.060
0.114 -0.117 0.059
0.105 -0.106 0.054
0.106 -0.105 0.054
0.108 -0.105 0.055
0.110 -0.106 0.056
0.112 -0.106 0.057
0.115 -0.107 0.058
0.128 -0.118 0.064
0.176 -0.159 0.088
0.190 -0.169 0.094
0.194 -0.170 0.096
0.195 -0.168 0.096
0.195 -0.165 0.095
0.194 -0.161 0.095
0.194 -0.159 0.094
0.195 -0.157 0.094
0.195 -0.154 0.094
0.195 -0.152 0.094
0.195 -0.149 0.093
0.194 -0.146 0.092
0.195 -0.144 0.093
0.196 -0.142 0.093
0.195 -0.139 0.092
0.195 -0.137 0.092
0.196 -0.135 0.092
0.196 -0.133 0.092
0.198 -0.131 0.092
0.197 -0.128 0.091
0.198 -0.126 0.091
0.198 -0.124 0.091
0.197 -0.121 0.090
0.198 -0.120 0.091
0.199 -0.118 0.091
0.199 -0.116 0.091
0.201 -0.114 0.091
0.202 -0.113 0.091
0.199 -0.109 0.090
0.198 -0.106 0.089
0.199 -0.105 0.090
0.200 -0.103 0.090
0.201 -0.101 0.090
0.201 -0.099 0.090
0.202 -0.098 0.090
0.203 -0.095 0.090
0.202 -0.093 0.090
0.200 -0.090 0.089
0.201 -0.088 0.089
0.200 -0.086 0.089
0.200 -0.084 0.088
0.201 -0.082 0.088
0.202 -0.080 0.089
0.202 -0.078 0.088
0.201 -0.076 0.088
0.201 -0.074 0.088
0.203 -0.073 0.089
0.205 -0.071 0.090
0.207 -0.070 0.090
0.207 -0.068 0.090
0.206 -0.065 0.089
0.206 -0.063 0.089
0.206 -0.061 0.089
0.207 -0.060 0.089
0.208 -0.058 0.090
0.211 -0.057 0.091
0.208 -0.054 0.090
0.208 -0.052 0.090
0.211 -0.051 0.091
0.212 -0.049 0.091
0.210 -0.046 0.090
0.211 -0.044 0.090
0.213 -0.043 0.092
0.213 -0.041 0.091
0.214 -0.039 0.092
0.212 -0.037 0.091
0.211 -0.034 0.090
0.210 -0.032 0.090
0.212 -0.031 0.091
0.219 -0.030 0.093
0.244 -0.031 0.104
0.245 -0.029 0.105
0.243 -0.026 0.104
0.243 -0.024 0.104
0.200 -0.018 0.085
0.192 -0.015 0.082
0.188 -0.013 0.080
0.187 -0.011 0.079
0.182 -0.009 0.078
0.184 -0.008 0.078
0.182 -0.006 0.077
0.178 -0.004 0.076
0.183 -0.002 0.078
0.192 -0.001 0.082
0.182 0.001 0.077
0.168 0.002 0.071
0.169 0.004 0.072
0.165 0.005 0.070
0.181 0.008 0.077
0.177 0.009 0.075
0.172 0.010 0.073
0.176 0.012 0.075
0.172 0.014 0.073
0.167 0.015 0.071
0.169 0.017 0.072
0.164 0.018 0.070
0.158 0.019 0.068
0.164 0.021 0.070
0.161 0.022 0.069
0.151 0.022 0.065
0.140 0.022 0.060
0.155 0.026 0.067
0.155 0.027 0.066
0.179 0.033 0.077
0.213 0.045 0.092
0.218 0.049 0.094
0.224 0.052 0.097
0.224 0.054 0.097
0.215 0.054 0.093
0.211 0.055 0.091
0.208 0.056 0.090
0.204 0.057 0.089
0.201 0.059 0.088
0.199 0.060 0.087
0.199 0.062 0.087
0.196 0.063 0.086
0.196 0.065 0.086
0.196 0.067 0.086
0.194 0.068 0.085
0.194 0.070 0.085
0.193 0.072 0.085
0.192 0.073 0.085
0.192 0.075 0.085
0.193 0.078 0.085
0.192 0.079 0.085
0.191 0.081 0.085
0.190 0.083 0.085
0.189 0.084 0.085
0.188 0.086 0.084
0.187 0.087 0.084
0.189 0.090 0.085
0.196 0.096 0.088
0.196 0.098 0.089
0.195 0.100 0.088
0.183 0.096 0.083
0.181 0.097 0.082
0.167 0.091 0.076
0.161 0.089 0.074
0.161 0.092 0.074
0.163 0.095 0.075
0.168 0.099 0.077
0.173 0.104 0.080
0.180 0.111 0.084
0.183 0.115 0.085
0.187 0.120 0.087
0.186 0.122 0.087
0.187 0.124 0.088
0.183 0.124 0.087
0.183 0.127 0.087
0.182 0.128 0.087
0.195 0.140 0.093
0.200 0.146 0.096
0.189 0.140 0.091
0.183 0.139 0.088
0.183 0.141 0.089
0.182 0.143 0.089
0.183 0.146 0.090
0.182 0.148 0.090
0.187 0.155 0.092
0.187 0.157 0.093
0.180 0.154 0.090
0.170 0.148 0.085
0.168 0.149 0.085
0.168 0.152 0.085
0.169 0.156 0.086
0.167 0.157 0.086
0.167 0.159 0.086
0.167 0.161 0.086
0.167 0.164 0.087
0.167 0.167 0.087
0.166 0.170 0.087
0.165 0.172 0.088
0.165 0.174 0.088
0.164 0.176 0.088
0.165 0.180 0.089
0.165 0.183 0.089
0.162 0.183 0.089
0.162 0.185 0.089
0.162 0.189 0.090
0.163 0.193 0.090
0.161 0.194 0.090
0.160 0.195 0.089
0.159 0.197 0.090
0.158 0.199 0.090
0.157 0.201 0.090
0.157 0.203 0.090
0.103 -0.133 0.059
0.112 -0.144 0.064
0.125 -0.158 0.071
0.124 -0.155 0.070
0.124 -0.152 0.070
0.126 -0.153 0.071
0.129 -0.155 0.072
0.130 -0.153 0.072
0.129 -0.150 0.071
0.127 -0.146 0.070
0.125 -0.141 0.068
0.126 -0.140 0.068
0.124 -0.135 0.067
0.124 -0.133 0.067
0.119 -0.126 0.063
0.117 -0.122 0.062
0.116 -0.119 0.061
0.110 -0.112 0.058
0.106 -0.106 0.056
0.107 -0.105 0.056
0.110 -0.106 0.057
0.112 -0.107 0.058
0.114 -0.107 0.059
0.124 -0.114 0.063
0.182 -0.162 0.092
0.187 -0.164 0.094
0.192 -0.166 0.097
0.192 -0.163 0.096
0.191 -0.159 0.095
0.191 -0.157 0.095
0.191 -0.154 0.094
0.192 -0.152 0.095
0.193 -0.151 0.095
0.192 -0.147 0.094
0.191 -0.144 0.093
0.192 -0.142 0.093
0.192 -0.140 0.093
0.192 -0.137 0.093
0.192 -0.135 0.093
0.193 -0.133 0.092
0.193 -0.131 0.092
0.193 -0.128 0.092
0.194 -0.127 0.092
0.195 -0.125 0.092
0.195 -0.123 0.092
0.194 -0.120 0.091
0.194 -0.117 0.091
0.195 -0.116 0.091
0.194 -0.113 0.091
0.196 -0.112 0.091
0.196 -0.110 0.091
0.196 -0.108 0.091
0.197 -0.106 0.091
0.197 -0.103 0.091
0.198 -0.102 0.091
0.199 -0.100 0.091
0.200 -0.099 0.091
0.199 -0.096 0.091
0.196 -0.093 0.089
0.198 -0.092 0.090
0.199 -0.090 0.090
0.198 -0.087 0.090
0.199 -0.085 0.090
0.198 -0.083 0.089
0.200 -0.082 0.090
0.201 -0.080 0.090
0.200 -0.078 0.090
0.201 -0.076 0.090
0.201 -0.074 0.090
0.202 -0.072 0.090
0.202 -0.070 0.090
0.204 -0.069 0.091
0.203 -0.066 0.090
0.203 -0.065 0.090
0.203 -0.063 0.090
0.203 -0.061 0.090
0.204 -0.059 0.090
0.205 -0.057 0.090
0.204 -0.055 0.090
0.205 -0.053 0.090
0.206 -0.052 0.091
0.208 -0.050 0.092
0.208 -0.048 0.092
0.207 -0.046 0.091
0.209 -0.044 0.092
0.213 -0.043 0.094
0.212 -0.041 0.093
0.205 -0.037 0.090
0.208 -0.036 0.091
0.206 -0.034 0.090
0.205 -0.032 0.090
0.207 -0.030 0.091
0.226 -0.031 0.099
0.241 -0.030 0.105
0.243 -0.028 0.106
0.237 -0.025 0.103
0.233 -0.023 0.101
0.184 -0.016 0.080
0.181 -0.014 0.079
0.181 -0.013 0.079
0.182 -0.011 0.079
0.180 -0.009 0.079
0.179 -0.007 0.078
0.178 -0.006 0.078
0.175 -0.004 0.076
0.175 -0.002 0.076
0.179 -0.001 0.078
0.180 0.001 0.078
0.170 0.002 0.074
0.167 0.004 0.073
0.176 0.006 0.077
0.177 0.008 0.077
0.168 0.009 0.073
0.166 0.010 0.072
0.168 0.012 0.073
0.166 0.013 0.072
0.167 0.015 0.073
0.166 0.016 0.073
0.163 0.018 0.072
0.159 0.019 0.069
0.157 0.020 0.069
0.154 0.021 0.068
0.144 0.021 0.063
0.130 0.020 0.057
0.152 0.025 0.067
0.143 0.025 0.063
0.144 0.027 0.063
0.215 0.044 0.095
0.211 0.045 0.093
0.215 0.048 0.095
0.219 0.051 0.097
0.218 0.053 0.097
0.211 0.053 0.093
0.201 0.053 0.089
0.197 0.053 0.087
0.197 0.055 0.087
0.189 0.055 0.084
0.190 0.057 0.085
0.194 0.060 0.086
0.193 0.062 0.086
0.193 0.064 0.086
0.189 0.064 0.085
0.190 0.067 0.085
0.191 0.069 0.086
0.189 0.070 0.085
0.188 0.072 0.085
0.189 0.074 0.086
0.190 0.077 0.086
0.187 0.078 0.085
0.188 0.080 0.086
0.188 0.082 0.086
0.186 0.083 0.085
0.185 0.084 0.085
0.185 0.087 0.085
0.188 0.090 0.086
0.197 0.096 0.091
0.196 0.098 0.091
0.181 0.093 0.084
0.173 0.090 0.080
0.169 0.090 0.079
0.166 0.091 0.077
0.161 0.090 0.076
0.161 0.092 0.076
0.171 0.100 0.081
0.176 0.104 0.083
0.178 0.108 0.084
0.181 0.112 0.086
0.181 0.114 0.087
0.183 0.117 0.088
0.183 0.120 0.088
0.182 0.121 0.087
0.181 0.123 0.088
0.180 0.124 0.087
0.178 0.126 0.087
0.179 0.129 0.088
0.182 0.136 0.090
0.179 0.136 0.089
0.179 0.138 0.089
0.180 0.141 0.090
0.177 0.142 0.089
0.176 0.144 0.089
0.176 0.146 0.089
0.185 0.156 0.094
0.182 0.156 0.093
0.178 0.156 0.092
0.169 0.151 0.087
0.166 0.151 0.086
0.166 0.153 0.086
0.166 0.156 0.087
0.165 0.158 0.087
0.165 0.160 0.087
0.164 0.163 0.088
0.165 0.166 0.088
0.164 0.168 0.089
0.163 0.170 0.088
0.162 0.171 0.088
0.162 0.175 0.089
0.161 0.176 0.089
0.160 0.178 0.089
0.160 0.180 0.089
0.159 0.183 0.089
0.160 0.187 0.090
0.160 0.190 0.091
0.159 0.192 0.091
0.157 0.193 0.090
0.156 0.194 0.090
0.156 0.198 0.091
0.156 0.199 0.091
0.155 0.201 0.091
0.128 -0.167 0.075
0.121 -0.155 0.071
0.124 -0.157 0.072
0.124 -0.155 0.071
0.126 -0.155 0.073
0.131 -0.159 0.075
0.130 -0.156 0.074
0.131 -0.155 0.075
0.131 -0.152 0.074
0.128 -0.147 0.072
0.128 -0.145 0.072
0.126 -0.140 0.070
0.124 -0.136 0.069
0.123 -0.133 0.068
0.122 -0.130 0.067
0.120 -0.126 0.065
0.119 -0.123 0.065
0.117 -0.119 0.063
0.107 -0.107 0.058
0.108 -0.106 0.058
0.109 -0.106 0.058
0.112 -0.107 0.059
0.114 -0.107 0.060
0.123 -0.113 0.064
0.175 -0.159 0.091
0.183 -0.163 0.095
0.185 -0.163 0.096
0.187 -0.162 0.097
0.187 -0.159 0.096
0.187 -0.156 0.095
0.187 -0.153 0.095
0.188 -0.152 0.095
0.189 -0.150 0.095
0.190 -0.148 0.095
0.189 -0.145 0.094
0.190 -0.143 0.095
0.189 -0.140 0.094
0.189 -0.138 0.094
0.190 -0.136 0.094
0.190 -0.133 0.093
0.190 -0.131 0.093
0.191 -0.129 0.093
0.191 -0.127 0.093
0.192 -0.125 0.093
0.193 -0.124 0.093
0.192 -0.121 0.093
0.192 -0.119 0.092
0.190 -0.115 0.091
0.190 -0.113 0.091
0.191 -0.111 0.091
0.191 -0.109 0.091
0.192 -0.108 0.091
0.193 -0.106 0.092
0.194 -0.105 0.092
0.195 -0.103 0.092
0.194 -0.100 0.091
0.196 -0.099 0.092
0.197 -0.097 0.092
0.196 -0.095 0.092
0.195 -0.092 0.091
0.195 -0.090 0.091
0.196 -0.088 0.091
0.196 -0.086 0.091
0.195 -0.084 0.090
0.196 -0.082 0.090
0.196 -0.080 0.091
0.197 -0.079 0.091
0.198 -0.077 0.091
0.199 -0.076 0.091
0.200 -0.074 0.091
0.199 -0.071 0.091
0.199 -0.069 0.091
0.198 -0.067 0.090
0.199 -0.065 0.090
0.199 -0.063 0.091
0.200 -0.062 0.091
0.200 -0.060 0.091
0.201 -0.058 0.091
0.201 -0.056 0.091
0.201 -0.054 0.091
0.202 -0.053 0.091
0.204 -0.051 0.092
0.206 -0.050 0.093
0.207 -0.048 0.093
0.213 -0.045 0.096
0.204 -0.041 0.092
0.197 -0.038 0.088
0.202 -0.037 0.091
0.201 -0.035 0.090
0.200 -0.033 0.090
0.200 -0.031 0.090
0.203 -0.029 0.091
0.224 -0.030 0.100
0.234 -0.030 0.105
0.234 -0.027 0.105
0.223 -0.024 0.100
0.191 -0.019 0.085
0.180 -0.016 0.080
0.179 -0.014 0.080
0.176 -0.012 0.079
0.182 -0.011 0.081
0.184 -0.009 0.082
0.182 -0.008 0.081
0.182 -0.006 0.081
0.185 -0.004 0.083
0.184 -0.003 0.082
0.176 -0.001 0.078
0.173 0.001 0.077
0.172 0.002 0.077
0.169 0.004 0.075
0.174 0.006 0.078
0.169 0.007 0.075
0.170 0.009 0.076
0.165 0.010 0.074
0.167 0.013 0.075
0.167 0.015 0.074
0.169 0.017 0.075
0.168 0.018 0.075
0.160 0.019 0.072
0.158 0.020 0.071
0.162 0.022 0.073
0.159 0.023 0.071
0.158 0.025 0.071
0.151 0.026 0.068
0.149 0.027 0.067
0.155 0.030 0.070
0.210 0.043 0.095
0.209 0.045 0.094
0.203 0.045 0.092
0.206 0.048 0.093
0.207 0.050 0.094
0.202 0.051 0.092
0.193 0.051 0.088
0.188 0.051 0.086
0.186 0.053 0.085
0.186 0.054 0.085
0.188 0.057 0.086
0.189 0.059 0.086
0.188 0.061 0.086
0.187 0.062 0.086
0.187 0.064 0.086
0.187 0.066 0.086
0.187 0.068 0.086
0.187 0.070 0.086
0.186 0.071 0.086
0.184 0.073 0.085
0.183 0.074 0.085
0.183 0.076 0.085
0.184 0.078 0.086
0.184 0.080 0.086
0.183 0.082 0.086
0.184 0.084 0.086
0.183 0.086 0.086
0.182 0.088 0.086
0.195 0.096 0.092
0.188 0.094 0.089
0.173 0.089 0.082
0.164 0.086 0.078
0.164 0.088 0.078
0.166 0.091 0.079
0.167 0.093 0.080
0.173 0.099 0.083
0.175 0.102 0.084
0.176 0.105 0.085
0.177 0.107 0.086
0.178 0.110 0.087
0.179 0.113 0.087
0.179 0.115 0.088
0.179 0.118 0.088
0.179 0.119 0.088
0.177 0.121 0.088
0.175 0.121 0.087
0.174 0.123 0.087
0.177 0.127 0.088
0.192 0.141 0.097
0.179 0.133 0.090
0.176 0.134 0.089
0.176 0.136 0.089
0.175 0.138 0.089
0.173 0.139 0.089
0.171 0.140 0.088
0.173 0.144 0.090
0.166 0.141 0.086
0.174 0.150 0.091
0.175 0.153 0.092
0.175 0.156 0.092
0.170 0.154 0.090
0.162 0.150 0.087
0.164 0.155 0.088
0.163 0.156 0.088
0.162 0.158 0.088
0.163 0.161 0.089
0.161 0.163 0.088
0.161 0.165 0.089
0.161 0.168 0.089
0.160 0.169 0.089
0.158 0.170 0.089
0.158 0.173 0.089
0.159 0.178 0.091
0.158 0.179 0.090
0.157 0.181 0.090
0.157 0.184 0.091
0.157 0.187 0.092
0.157 0.189 0.092
0.155 0.190 0.091
0.154 0.191 0.091
0.153 0.193 0.091
0.153 0.196 0.091
0.127 -0.163 0.075
0.123 -0.156 0.073
0.125 -0.156 0.074
0.130 -0.161 0.077
0.132 -0.161 0.078
0.133 -0.159 0.077
0.132 -0.156 0.077
0.130 -0.152 0.075
0.130 -0.149 0.075
0.129 -0.146 0.074
0.128 -0.142 0.073
0.124 -0.136 0.070
0.123 -0.133 0.069
0.122 -0.130 0.068
0.122 -0.128 0.068
0.120 -0.125 0.067
0.118 -0.120 0.065
0.113 -0.113 0.062
0.108 -0.106 0.059
0.109 -0.106 0.060
0.111 -0.106 0.060
0.113 -0.106 0.061
0.178 -0.162 0.095
0.182 -0.163 0.097
0.184 -0.162 0.098
0.185 -0.161 0.098
0.185 -0.158 0.097
0.183 -0.154 0.096
0.183 -0.151 0.096
0.185 -0.150 0.096
0.187 -0.149 0.097
0.187 -0.146 0.096
0.187 -0.144 0.096
0.187 -0.142 0.096
0.188 -0.140 0.096
0.187 -0.136 0.095
0.186 -0.134 0.094
0.187 -0.132 0.094
0.186 -0.129 0.093
0.186 -0.127 0.093
0.188 -0.125 0.094
0.188 -0.123 0.094
0.190 -0.122 0.094
0.189 -0.119 0.093
0.189 -0.117 0.093
0.189 -0.115 0.093
0.189 -0.113 0.092
0.188 -0.110 0.092
0.189 -0.108 0.092
0.190 -0.107 0.092
0.190 -0.105 0.092
0.190 -0.102 0.092
0.190 -0.100 0.092
0.190 -0.098 0.092
0.191 -0.097 0.092
0.193 -0.096 0.092
0.191 -0.093 0.092
0.192 -0.091 0.092
0.193 -0.089 0.092
0.193 -0.087 0.092
0.191 -0.085 0.091
0.193 -0.083 0.091
0.193 -0.081 0.091
0.193 -0.079 0.091
0.193 -0.077 0.091
0.193 -0.075 0.091
0.196 -0.074 0.092
0.195 -0.072 0.091
0.196 -0.070 0.092
0.195 -0.068 0.091
0.195 -0.066 0.091
0.195 -0.064 0.091
0.196 -0.063 0.091
0.197 -0.061 0.091
0.197 -0.059 0.092
0.198 -0.057 0.092
0.197 -0.055 0.091
0.197 -0.053 0.091
0.198 -0.052 0.092
0.200 -0.050 0.093
0.204 -0.049 0.094
0.215 -0.050 0.099
0.201 -0.045 0.092
0.193 -0.041 0.089
0.189 -0.038 0.087
0.193 -0.037 0.088
0.194 -0.036 0.089
0.202 -0.035 0.092
0.198 -0.033 0.091
0.194 -0.030 0.089
0.197 -0.029 0.090
0.219 -0.030 0.100
0.229 -0.029 0.105
0.228 -0.027 0.104
0.221 -0.024 0.101
0.186 -0.018 0.085
0.178 -0.016 0.081
0.175 -0.014 0.080
0.174 -0.012 0.079
0.177 -0.011 0.081
0.180 -0.009 0.082
0.179 -0.007 0.082
0.180 -0.006 0.082
0.189 -0.004 0.086
0.185 -0.003 0.084
0.176 -0.001 0.080
0.169 0.001 0.077
0.170 0.002 0.078
0.170 0.004 0.078
0.159 0.005 0.073
0.169 0.007 0.077
0.164 0.009 0.075
0.170 0.010 0.078
0.171 0.012 0.078
0.164 0.013 0.075
0.170 0.015 0.078
0.174 0.017 0.079
0.172 0.019 0.079
0.170 0.020 0.078
0.166 0.021 0.076
0.164 0.022 0.075
0.163 0.024 0.075
0.159 0.025 0.073
0.157 0.026 0.072
0.153 0.028 0.070
0.153 0.030 0.070
0.198 0.042 0.091
0.196 0.044 0.091
0.192 0.045 0.089
0.194 0.047 0.090
0.194 0.049 0.090
0.188 0.049 0.087
0.183 0.050 0.085
0.182 0.052 0.085
0.184 0.054 0.086
0.186 0.056 0.087
0.187 0.059 0.088
0.187 0.060 0.087
0.183 0.061 0.086
0.182 0.062 0.085
0.183 0.065 0.086
0.183 0.067 0.086
0.184 0.069 0.087
0.184 0.071 0.087
0.181 0.072 0.086
0.180 0.073 0.085
0.177 0.074 0.084
0.172 0.074 0.082
0.169 0.074 0.080
0.173 0.077 0.083
0.176 0.081 0.085
0.177 0.083 0.085
0.185 0.089 0.089
0.181 0.089 0.087
0.172 0.087 0.083
0.163 0.084 0.079
0.160 0.084 0.078
0.161 0.086 0.078
0.168 0.092 0.082
0.170 0.095 0.084
0.172 0.098 0.085
0.173 0.101 0.085
0.174 0.104 0.086
0.175 0.106 0.087
0.176 0.109 0.088
0.176 0.111 0.088
0.175 0.113 0.088
0.176 0.116 0.088
0.175 0.118 0.089
0.174 0.119 0.088
0.173 0.120 0.088
0.172 0.122 0.088
0.172 0.124 0.088
0.177 0.130 0.091
0.178 0.134 0.092
0.173 0.132 0.090
0.172 0.134 0.090
0.171 0.135 0.089
0.171 0.138 0.090
0.171 0.141 0.091
0.167 0.140 0.089
0.167 0.142 0.089
0.163 0.141 0.087
0.166 0.146 0.089
0.173 0.155 0.094
0.172 0.157 0.093
0.167 0.155 0.091
0.164 0.154 0.090
0.161 0.154 0.089
0.160 0.156 0.089
0.159 0.159 0.089
0.159 0.161 0.089
0.158 0.163 0.090
0.158 0.165 0.090
0.157 0.167 0.090
0.157 0.169 0.090
0.155 0.170 0.090
0.155 0.173 0.090
0.155 0.177 0.091
0.155 0.179 0.091
0.154 0.181 0.091
0.153 0.182 0.091
0.153 0.185 0.092
0.153 0.188 0.092
0.151 0.189 0.092
0.151 0.191 0.092
0.150 0.193 0.092
0.125 -0.161 0.076
0.125 -0.159 0.076
0.126 -0.158 0.076
0.130 -0.161 0.078
0.131 -0.160 0.078
0.131 -0.157 0.078
0.130 -0.155 0.077
0.129 -0.151 0.076
0.128 -0.147 0.075
0.129 -0.146 0.075
0.126 -0.141 0.073
0.125 -0.138 0.073
0.124 -0.135 0.072
