VERSION .7
FIELDS x y z
SIZE 4 4 4
TYPE F F F
COUNT 1 1 1
WIDTH     2433
HEIGHT 1
VIEWPOINT 0 0 0 1 0 0 0
POINTS     2433
DATA ascii
0.391 -0.113 -0.066
0.398 -0.111 -0.067
0.401 -0.108 -0.067
0.406 -0.106 -0.068
0.418 -0.105 -0.070
0.428 -0.103 -0.072
0.434 -0.101 -0.073
0.439 -0.098 -0.073
0.424 -0.091 -0.071
0.397 -0.081 -0.066
0.383 -0.075 -0.064
0.371 -0.069 -0.062
0.287 -0.051 -0.048
0.287 -0.048 -0.048
0.289 -0.046 -0.048
0.302 -0.045 -0.050
0.293 -0.041 -0.049
0.280 -0.037 -0.047
0.287 -0.035 -0.048
0.296 -0.034 -0.049
0.320 -0.033 -0.053
0.322 -0.031 -0.053
0.306 -0.026 -0.051
0.303 -0.023 -0.050
0.311 -0.021 -0.052
0.312 -0.018 -0.052
0.314 -0.016 -0.052
0.303 -0.012 -0.050
0.301 -0.010 -0.050
0.304 -0.007 -0.050
0.307 -0.004 -0.051
0.309 -0.001 -0.051
0.313 0.001 -0.052
0.315 0.004 -0.052
0.315 0.007 -0.052
0.315 0.010 -0.052
0.314 0.013 -0.052
0.321 0.016 -0.053
0.320 0.019 -0.053
0.318 0.021 -0.053
0.317 0.024 -0.053
0.317 0.027 -0.053
0.318 0.030 -0.053
0.318 0.033 -0.053
0.318 0.036 -0.053
0.319 0.039 -0.053
0.322 0.042 -0.054
0.323 0.045 -0.054
0.324 0.048 -0.054
0.322 0.051 -0.054
0.327 0.055 -0.055
0.323 0.057 -0.054
0.323 0.060 -0.054
0.322 0.063 -0.054
0.322 0.066 -0.054
0.321 0.069 -0.054
0.320 0.072 -0.054
0.319 0.074 -0.054
0.318 0.077 -0.053
0.317 0.080 -0.053
0.316 0.082 -0.053
0.315 0.085 -0.053
0.317 0.089 -0.053
0.318 0.092 -0.054
0.322 0.096 -0.054
0.328 0.101 -0.055
0.330 0.105 -0.056
0.324 0.106 -0.055
0.339 0.121 -0.058
0.345 0.134 -0.059
0.338 0.155 -0.059
0.329 0.154 -0.057
0.362 0.201 -0.064
0.361 0.204 -0.064
0.354 0.204 -0.063
0.366 0.245 -0.066
0.343 0.341 -0.068
0.277 -0.382 -0.057
0.256 -0.349 -0.052
0.254 -0.342 -0.052
0.253 -0.336 -0.051
0.255 -0.334 -0.051
0.261 -0.337 -0.052
0.269 -0.343 -0.054
0.272 -0.342 -0.054
0.263 -0.326 -0.052
0.266 -0.325 -0.052
0.277 -0.334 -0.054
0.276 -0.327 -0.054
0.267 -0.312 -0.052
0.265 -0.306 -0.051
0.282 -0.306 -0.054
0.285 -0.300 -0.054
0.286 -0.296 -0.053
0.292 -0.298 -0.054
0.299 -0.300 -0.055
0.305 -0.301 -0.056
0.309 -0.301 -0.057
0.313 -0.300 -0.057
0.315 -0.297 -0.057
0.314 -0.291 -0.057
0.314 -0.287 -0.057
0.316 -0.285 -0.057
0.317 -0.282 -0.057
0.318 -0.278 -0.057
0.318 -0.274 -0.057
0.317 -0.268 -0.056
0.315 -0.262 -0.056
0.314 -0.258 -0.055
0.307 -0.248 -0.054
0.290 -0.230 -0.051
0.302 -0.236 -0.053
0.302 -0.232 -0.052
0.227 -0.169 -0.039
0.230 -0.168 -0.040
0.229 -0.165 -0.039
0.236 -0.166 -0.040
0.226 -0.157 -0.039
0.220 -0.150 -0.037
0.217 -0.146 -0.037
0.222 -0.146 -0.037
0.227 -0.147 -0.038
0.230 -0.146 -0.039
0.226 -0.141 -0.038
0.227 -0.140 -0.038
0.228 -0.138 -0.038
0.225 -0.133 -0.038
0.227 -0.132 -0.038
0.230 -0.131 -0.038
0.232 -0.129 -0.038
0.229 -0.125 -0.038
0.225 -0.121 -0.037
0.229 -0.121 -0.038
0.231 -0.119 -0.038
0.227 -0.115 -0.037
0.224 -0.111 -0.037
0.225 -0.109 -0.037
0.224 -0.106 -0.036
0.224 -0.104 -0.036
0.224 -0.102 -0.036
0.224 -0.099 -0.036
0.218 -0.095 -0.035
0.223 -0.094 -0.036
0.220 -0.091 -0.035
0.216 -0.087 -0.035
0.214 -0.084 -0.034
0.215 -0.083 -0.035
0.217 -0.081 -0.035
0.294 -0.102 -0.047
0.303 -0.102 -0.048
0.369 -0.117 -0.059
0.375 -0.115 -0.060
0.379 -0.113 -0.060
0.391 -0.113 -0.062
0.399 -0.111 -0.063
0.400 -0.108 -0.063
0.408 -0.106 -0.065
0.421 -0.106 -0.067
0.428 -0.103 -0.068
0.439 -0.102 -0.069
0.436 -0.097 -0.069
0.421 -0.090 -0.066
0.403 -0.082 -0.064
0.389 -0.076 -0.061
0.284 -0.050 -0.045
0.283 -0.047 -0.045
0.285 -0.045 -0.045
0.291 -0.044 -0.046
0.284 -0.040 -0.045
0.286 -0.037 -0.045
0.288 -0.035 -0.045
0.286 -0.032 -0.045
0.326 -0.034 -0.051
0.321 -0.030 -0.050
0.311 -0.027 -0.049
0.311 -0.024 -0.049
0.309 -0.021 -0.048
0.316 -0.019 -0.049
0.313 -0.016 -0.049
0.300 -0.012 -0.047
0.303 -0.010 -0.047
0.304 -0.007 -0.048
0.306 -0.004 -0.048
0.309 -0.001 -0.048
0.312 0.001 -0.049
0.314 0.004 -0.049
0.317 0.007 -0.050
0.315 0.010 -0.049
0.323 0.013 -0.051
0.320 0.016 -0.050
0.319 0.019 -0.050
0.317 0.021 -0.050
0.315 0.024 -0.049
0.316 0.027 -0.050
0.317 0.030 -0.050
0.316 0.033 -0.050
0.316 0.036 -0.050
0.318 0.039 -0.050
0.317 0.042 -0.050
0.322 0.045 -0.051
0.323 0.048 -0.051
0.324 0.051 -0.051
0.322 0.054 -0.051
0.324 0.057 -0.051
0.323 0.060 -0.051
0.323 0.063 -0.051
0.323 0.066 -0.051
0.321 0.069 -0.051
0.320 0.071 -0.051
0.319 0.074 -0.051
0.318 0.077 -0.051
0.317 0.080 -0.050
0.316 0.082 -0.050
0.316 0.085 -0.050
0.317 0.089 -0.051
0.322 0.093 -0.051
0.327 0.098 -0.052
0.331 0.102 -0.053
0.331 0.105 -0.053
0.315 0.103 -0.051
0.304 0.103 -0.049
0.316 0.110 -0.051
0.340 0.121 -0.055
0.351 0.129 -0.057
0.331 0.128 -0.053
1.239 0.504 -0.201
0.352 0.161 -0.058
0.348 0.163 -0.057
0.322 0.161 -0.053
0.255 -0.352 -0.049
0.257 -0.350 -0.049
0.255 -0.343 -0.049
0.248 -0.329 -0.047
0.258 -0.337 -0.049
0.264 -0.340 -0.050
0.263 -0.335 -0.049
0.265 -0.333 -0.049
0.260 -0.322 -0.048
0.277 -0.338 -0.051
0.284 -0.342 -0.052
0.265 -0.315 -0.049
0.260 -0.304 -0.047
0.277 -0.292 -0.049
0.289 -0.299 -0.051
0.291 -0.297 -0.051
0.294 -0.295 -0.051
0.297 -0.293 -0.051
0.301 -0.293 -0.052
0.308 -0.295 -0.053
0.311 -0.293 -0.053
0.312 -0.290 -0.053
0.312 -0.286 -0.053
0.316 -0.284 -0.053
0.316 -0.280 -0.053
0.314 -0.274 -0.053
0.317 -0.272 -0.053
0.318 -0.269 -0.053
0.315 -0.262 -0.052
0.310 -0.254 -0.051
0.299 -0.241 -0.049
0.289 -0.229 -0.048
0.242 -0.189 -0.040
0.232 -0.178 -0.038
0.224 -0.169 -0.036
0.218 -0.162 -0.035
0.217 -0.158 -0.035
0.229 -0.165 -0.037
0.231 -0.163 -0.037
0.235 -0.163 -0.038
0.221 -0.151 -0.035
0.223 -0.149 -0.036
0.226 -0.149 -0.036
0.232 -0.150 -0.037
0.232 -0.148 -0.037
0.232 -0.145 -0.037
0.232 -0.142 -0.037
0.230 -0.139 -0.036
0.224 -0.133 -0.035
0.222 -0.129 -0.035
0.227 -0.129 -0.036
0.229 -0.128 -0.036
0.223 -0.122 -0.035
0.221 -0.119 -0.034
0.223 -0.118 -0.035
0.225 -0.116 -0.035
0.219 -0.111 -0.034
0.219 -0.108 -0.034
0.221 -0.107 -0.034
0.222 -0.105 -0.034
0.224 -0.104 -0.034
0.229 -0.104 -0.035
0.220 -0.097 -0.034
0.227 -0.099 -0.035
0.217 -0.092 -0.033
0.220 -0.091 -0.033
0.217 -0.088 -0.033
0.214 -0.084 -0.032
0.215 -0.083 -0.033
0.218 -0.082 -0.033
0.265 -0.094 -0.040
0.279 -0.096 -0.042
0.293 -0.098 -0.044
0.295 -0.096 -0.044
0.367 -0.113 -0.055
0.376 -0.112 -0.056
0.386 -0.111 -0.058
0.395 -0.110 -0.059
0.405 -0.109 -0.060
0.414 -0.107 -0.062
0.420 -0.105 -0.063
0.429 -0.103 -0.064
0.435 -0.101 -0.065
0.435 -0.097 -0.065
0.417 -0.089 -0.062
0.403 -0.082 -0.060
0.394 -0.077 -0.059
0.386 -0.072 -0.057
0.286 -0.051 -0.042
0.285 -0.048 -0.042
0.288 -0.046 -0.043
0.288 -0.043 -0.043
0.288 -0.040 -0.043
0.287 -0.038 -0.042
0.288 -0.035 -0.043
0.287 -0.032 -0.042
0.306 -0.029 -0.045
0.315 -0.027 -0.046
0.313 -0.024 -0.046
0.312 -0.021 -0.046
0.316 -0.019 -0.047
0.319 -0.016 -0.047
0.300 -0.012 -0.044
0.302 -0.010 -0.044
0.306 -0.007 -0.045
0.307 -0.004 -0.045
0.310 -0.001 -0.046
0.311 0.001 -0.046
0.314 0.004 -0.046
0.317 0.007 -0.047
0.317 0.010 -0.047
0.320 0.013 -0.047
0.319 0.016 -0.047
0.317 0.019 -0.047
0.316 0.021 -0.047
0.314 0.024 -0.046
0.314 0.027 -0.046
0.314 0.030 -0.046
0.314 0.033 -0.046
0.315 0.035 -0.047
0.315 0.038 -0.047
0.315 0.041 -0.047
0.319 0.045 -0.047
0.322 0.048 -0.048
0.323 0.051 -0.048
0.322 0.054 -0.048
0.324 0.057 -0.048
0.324 0.060 -0.048
0.324 0.063 -0.048
0.323 0.066 -0.048
0.321 0.069 -0.048
0.320 0.071 -0.048
0.319 0.074 -0.048
0.319 0.077 -0.048
0.317 0.080 -0.047
0.316 0.082 -0.047
0.315 0.085 -0.047
0.315 0.088 -0.047
0.323 0.094 -0.049
0.326 0.097 -0.049
0.328 0.101 -0.049
0.325 0.104 -0.049
0.318 0.104 -0.048
0.316 0.107 -0.048
0.314 0.109 -0.048
0.368 0.168 -0.057
0.353 0.165 -0.055
0.330 0.165 -0.051
0.338 0.176 -0.053
0.244 -0.336 -0.044
0.250 -0.341 -0.045
0.250 -0.336 -0.045
0.255 -0.339 -0.046
0.261 -0.342 -0.046
0.263 -0.340 -0.047
0.263 -0.335 -0.046
0.255 -0.320 -0.045
0.269 -0.332 -0.047
0.268 -0.327 -0.046
0.264 -0.313 -0.045
0.202 -0.229 -0.034
0.198 -0.221 -0.033
0.202 -0.222 -0.034
0.288 -0.298 -0.048
0.293 -0.298 -0.048
0.293 -0.294 -0.048
0.293 -0.289 -0.048
0.297 -0.288 -0.048
0.300 -0.287 -0.048
0.303 -0.286 -0.049
0.306 -0.284 -0.049
0.310 -0.283 -0.049
0.310 -0.279 -0.049
0.309 -0.273 -0.049
0.307 -0.268 -0.048
0.306 -0.263 -0.048
0.313 -0.264 -0.049
0.311 -0.259 -0.049
0.307 -0.251 -0.048
0.300 -0.241 -0.046
0.235 -0.183 -0.036
0.222 -0.170 -0.034
0.216 -0.163 -0.033
0.214 -0.159 -0.033
0.218 -0.159 -0.033
0.221 -0.158 -0.033
0.229 -0.161 -0.035
0.228 -0.158 -0.034
0.227 -0.154 -0.034
0.219 -0.146 -0.033
0.225 -0.148 -0.034
0.226 -0.146 -0.034
0.226 -0.144 -0.034
0.223 -0.139 -0.033
0.213 -0.131 -0.032
0.223 -0.134 -0.033
0.221 -0.130 -0.032
0.209 -0.121 -0.031
0.209 -0.119 -0.031
0.204 -0.114 -0.030
0.213 -0.117 -0.031
0.218 -0.117 -0.032
0.200 -0.105 -0.029
0.215 -0.111 -0.031
0.205 -0.104 -0.030
0.219 -0.108 -0.032
0.222 -0.107 -0.032
0.223 -0.106 -0.032
0.227 -0.105 -0.033
0.235 -0.107 -0.034
0.229 -0.102 -0.033
0.232 -0.101 -0.033
0.227 -0.096 -0.032
0.223 -0.092 -0.032
0.220 -0.089 -0.031
0.218 -0.086 -0.031
0.218 -0.084 -0.031
0.226 -0.084 -0.032
0.238 -0.087 -0.034
0.243 -0.086 -0.034
0.271 -0.093 -0.038
0.277 -0.093 -0.039
0.279 -0.091 -0.039
0.359 -0.107 -0.050
0.382 -0.110 -0.054
0.391 -0.109 -0.055
0.401 -0.108 -0.056
0.412 -0.107 -0.058
0.419 -0.105 -0.059
0.424 -0.102 -0.059
0.430 -0.100 -0.060
0.423 -0.094 -0.059
0.411 -0.088 -0.057
0.398 -0.081 -0.055
0.390 -0.076 -0.054
0.381 -0.071 -0.053
0.290 -0.051 -0.040
0.287 -0.048 -0.040
0.285 -0.045 -0.040
0.292 -0.044 -0.041
0.289 -0.041 -0.040
0.285 -0.037 -0.040
0.288 -0.035 -0.040
0.290 -0.033 -0.040
0.301 -0.029 -0.042
0.318 -0.027 -0.044
0.316 -0.024 -0.044
0.315 -0.021 -0.044
0.320 -0.019 -0.044
0.318 -0.016 -0.044
0.300 -0.012 -0.042
0.302 -0.010 -0.042
0.306 -0.007 -0.042
0.308 -0.004 -0.043
0.309 -0.001 -0.043
0.312 0.001 -0.043
0.313 0.004 -0.043
0.316 0.007 -0.044
0.317 0.010 -0.044
0.317 0.013 -0.044
0.318 0.016 -0.044
0.317 0.019 -0.044
0.316 0.021 -0.044
0.314 0.024 -0.044
0.313 0.027 -0.043
0.313 0.030 -0.043
0.313 0.032 -0.043
0.314 0.035 -0.044
0.314 0.038 -0.044
0.315 0.041 -0.044
0.317 0.044 -0.044
0.321 0.048 -0.045
0.322 0.051 -0.045
0.323 0.054 -0.045
0.322 0.057 -0.045
0.324 0.060 -0.045
0.324 0.063 -0.045
0.323 0.066 -0.045
0.321 0.069 -0.045
0.320 0.071 -0.045
0.320 0.074 -0.045
0.319 0.077 -0.045
0.317 0.080 -0.045
0.315 0.082 -0.044
0.315 0.085 -0.044
0.314 0.088 -0.044
0.324 0.094 -0.046
0.315 0.094 -0.045
0.323 0.100 -0.046
0.330 0.105 -0.047
0.326 0.107 -0.046
0.314 0.106 -0.045
0.312 0.108 -0.044
0.337 0.120 -0.048
0.333 0.129 -0.048
0.339 0.134 -0.049
0.354 0.162 -0.051
0.359 0.168 -0.052
0.312 0.159 -0.045
0.326 0.170 -0.048
0.247 -0.340 -0.041
0.250 -0.340 -0.042
0.252 -0.339 -0.042
0.258 -0.342 -0.043
0.266 -0.348 -0.044
0.268 -0.346 -0.044
0.269 -0.343 -0.044
0.267 -0.335 -0.044
0.264 -0.327 -0.043
0.263 -0.321 -0.043
0.184 -0.215 -0.029
0.196 -0.225 -0.031
0.191 -0.216 -0.030
0.191 -0.213 -0.030
0.194 -0.213 -0.030
0.293 -0.299 -0.045
0.295 -0.296 -0.045
0.295 -0.291 -0.045
0.295 -0.287 -0.045
0.298 -0.285 -0.045
0.299 -0.282 -0.045
0.303 -0.281 -0.045
0.305 -0.278 -0.045
0.304 -0.273 -0.045
0.306 -0.271 -0.045
0.308 -0.269 -0.045
0.307 -0.263 -0.045
0.308 -0.260 -0.045
0.311 -0.258 -0.045
0.304 -0.249 -0.044
0.299 -0.241 -0.043
0.241 -0.191 -0.035
0.232 -0.181 -0.033
0.217 -0.166 -0.031
0.209 -0.158 -0.030
0.215 -0.159 -0.031
0.220 -0.160 -0.031
0.225 -0.161 -0.032
0.225 -0.159 -0.032
0.228 -0.158 -0.032
0.223 -0.152 -0.031
0.207 -0.138 -0.029
0.199 -0.131 -0.028
0.216 -0.140 -0.030
0.214 -0.136 -0.030
0.210 -0.131 -0.029
0.208 -0.127 -0.029
0.223 -0.134 -0.031
0.222 -0.131 -0.030
0.213 -0.123 -0.029
0.218 -0.124 -0.030
0.213 -0.119 -0.029
0.216 -0.118 -0.029
0.216 -0.116 -0.029
0.214 -0.113 -0.029
0.216 -0.111 -0.029
0.217 -0.110 -0.029
0.219 -0.108 -0.030
0.222 -0.107 -0.030
0.227 -0.108 -0.031
0.230 -0.107 -0.031
0.229 -0.104 -0.031
0.237 -0.105 -0.032
0.233 -0.101 -0.031
0.228 -0.097 -0.030
0.225 -0.093 -0.030
0.223 -0.090 -0.030
0.220 -0.087 -0.029
0.215 -0.082 -0.028
0.228 -0.085 -0.030
0.236 -0.086 -0.031
0.241 -0.085 -0.032
0.264 -0.091 -0.035
0.265 -0.089 -0.035
0.259 -0.084 -0.034
0.261 -0.082 -0.034
0.390 -0.109 -0.051
0.400 -0.108 -0.052
0.408 -0.106 -0.053
0.415 -0.104 -0.054
0.423 -0.102 -0.055
0.428 -0.099 -0.056
0.425 -0.094 -0.055
0.405 -0.086 -0.053
0.393 -0.080 -0.051
0.386 -0.075 -0.050
0.293 -0.052 -0.038
0.285 -0.048 -0.037
0.285 -0.045 -0.037
0.295 -0.044 -0.038
0.289 -0.040 -0.037
0.285 -0.037 -0.037
0.288 -0.035 -0.037
0.296 -0.033 -0.038
0.306 -0.032 -0.040
0.328 -0.031 -0.042
0.311 -0.027 -0.040
0.313 -0.024 -0.041
0.300 -0.020 -0.039
0.310 -0.018 -0.040
0.317 -0.016 -0.041
0.301 -0.012 -0.039
0.302 -0.010 -0.039
0.306 -0.007 -0.040
0.307 -0.004 -0.040
0.311 -0.001 -0.040
0.312 0.001 -0.040
0.313 0.004 -0.041
0.315 0.007 -0.041
0.317 0.010 -0.041
0.317 0.013 -0.041
0.317 0.016 -0.041
0.318 0.019 -0.041
0.316 0.021 -0.041
0.314 0.024 -0.041
0.313 0.027 -0.041
0.313 0.030 -0.041
0.313 0.032 -0.041
0.314 0.035 -0.041
0.315 0.038 -0.041
0.315 0.041 -0.041
0.316 0.044 -0.041
0.320 0.048 -0.042
0.321 0.051 -0.042
0.323 0.054 -0.042
0.323 0.057 -0.042
0.323 0.060 -0.042
0.324 0.063 -0.042
0.323 0.066 -0.042
0.321 0.069 -0.042
0.320 0.071 -0.042
0.320 0.074 -0.042
0.319 0.077 -0.042
0.317 0.080 -0.042
0.315 0.082 -0.041
0.315 0.085 -0.041
0.314 0.088 -0.041
0.330 0.095 -0.043
0.323 0.096 -0.043
0.326 0.100 -0.043
0.336 0.107 -0.044
0.336 0.110 -0.044
0.313 0.106 -0.041
0.308 0.107 -0.041
0.315 0.112 -0.042
0.310 0.113 -0.041
0.360 0.165 -0.049
0.356 0.166 -0.048
0.310 0.158 -0.042
0.259 -0.357 -0.040
0.256 -0.348 -0.040
0.257 -0.345 -0.040
0.264 -0.350 -0.041
0.265 -0.347 -0.041
0.270 -0.348 -0.041
0.266 -0.339 -0.041
0.262 -0.329 -0.040
0.254 -0.314 -0.038
0.209 -0.254 -0.031
0.200 -0.236 -0.030
0.194 -0.226 -0.029
0.186 -0.214 -0.027
0.187 -0.212 -0.027
0.184 -0.205 -0.027
0.183 -0.201 -0.027
0.295 -0.300 -0.042
0.300 -0.301 -0.043
0.296 -0.292 -0.042
0.298 -0.289 -0.042
0.300 -0.287 -0.042
0.302 -0.285 -0.042
0.305 -0.283 -0.042
0.304 -0.277 -0.042
0.303 -0.273 -0.042
0.307 -0.271 -0.042
0.309 -0.269 -0.042
0.306 -0.263 -0.042
0.307 -0.259 -0.042
0.309 -0.256 -0.042
0.306 -0.250 -0.041
0.303 -0.244 -0.041
0.218 -0.170 -0.029
0.213 -0.163 -0.028
0.210 -0.158 -0.028
0.210 -0.156 -0.028
0.221 -0.161 -0.029
0.231 -0.166 -0.030
0.230 -0.162 -0.030
0.225 -0.156 -0.029
0.219 -0.149 -0.029
0.210 -0.140 -0.027
0.211 -0.139 -0.027
0.214 -0.138 -0.028
0.214 -0.136 -0.028
0.209 -0.130 -0.027
0.210 -0.128 -0.027
0.206 -0.123 -0.026
0.222 -0.131 -0.028
0.219 -0.127 -0.028
0.217 -0.121 -0.028
0.213 -0.117 -0.027
0.208 -0.111 -0.026
0.212 -0.112 -0.027
0.201 -0.104 -0.025
0.217 -0.109 -0.027
0.217 -0.107 -0.027
0.222 -0.107 -0.028
0.230 -0.109 -0.029
0.229 -0.106 -0.029
0.232 -0.105 -0.029
0.237 -0.105 -0.029
0.237 -0.103 -0.029
0.232 -0.098 -0.029
0.228 -0.094 -0.028
0.226 -0.091 -0.028
0.222 -0.087 -0.027
0.217 -0.083 -0.027
0.205 -0.077 -0.025
0.241 -0.088 -0.030
0.246 -0.087 -0.030
0.241 -0.083 -0.030
0.260 -0.087 -0.032
0.256 -0.084 -0.031
0.256 -0.081 -0.031
0.261 -0.080 -0.032
0.393 -0.109 -0.048
0.402 -0.108 -0.049
0.407 -0.106 -0.050
0.413 -0.103 -0.050
0.423 -0.102 -0.051
0.433 -0.100 -0.053
0.447 -0.099 -0.054
0.415 -0.089 -0.050
0.401 -0.082 -0.049
0.394 -0.077 -0.048
0.293 -0.052 -0.035
0.289 -0.048 -0.035
0.287 -0.045 -0.035
0.299 -0.045 -0.036
0.286 -0.040 -0.035
0.286 -0.037 -0.035
0.289 -0.035 -0.035
0.295 -0.033 -0.036
0.314 -0.033 -0.038
0.313 -0.030 -0.038
0.312 -0.027 -0.038
0.306 -0.023 -0.037
0.304 -0.021 -0.037
0.305 -0.018 -0.037
0.308 -0.015 -0.037
0.299 -0.012 -0.036
0.304 -0.010 -0.037
0.304 -0.007 -0.037
0.307 -0.004 -0.037
0.310 -0.001 -0.037
0.312 0.001 -0.038
0.314 0.004 -0.038
0.315 0.007 -0.038
0.318 0.010 -0.038
0.317 0.013 -0.038
0.318 0.016 -0.038
0.318 0.019 -0.038
0.317 0.021 -0.038
0.315 0.024 -0.038
0.314 0.027 -0.038
0.313 0.030 -0.038
0.313 0.032 -0.038
0.314 0.035 -0.038
0.314 0.038 -0.038
0.315 0.041 -0.038
0.316 0.044 -0.038
0.318 0.047 -0.039
0.320 0.051 -0.039
0.323 0.054 -0.039
0.324 0.057 -0.039
0.326 0.061 -0.040
0.326 0.064 -0.040
0.324 0.066 -0.039
0.323 0.069 -0.039
0.321 0.072 -0.039
0.320 0.074 -0.039
0.319 0.077 -0.039
0.318 0.080 -0.039
0.316 0.082 -0.039
0.315 0.085 -0.039
0.314 0.088 -0.038
0.326 0.094 -0.040
0.327 0.098 -0.040
0.327 0.101 -0.040
0.333 0.106 -0.041
0.327 0.107 -0.040
0.314 0.106 -0.039
0.310 0.107 -0.038
0.316 0.113 -0.039
0.315 0.115 -0.039
0.329 0.124 -0.041
0.345 0.162 -0.043
0.339 0.162 -0.043
0.254 -0.350 -0.037
0.262 -0.356 -0.038
0.262 -0.352 -0.037
0.260 -0.345 -0.037
0.266 -0.347 -0.038
0.259 -0.334 -0.037
0.194 -0.233 -0.027
0.196 -0.232 -0.027
0.187 -0.218 -0.026
0.182 -0.209 -0.025
0.182 -0.205 -0.025
0.181 -0.201 -0.024
0.189 -0.207 -0.025
0.207 -0.224 -0.028
0.220 -0.234 -0.029
0.290 -0.300 -0.038
0.298 -0.303 -0.039
0.301 -0.301 -0.039
0.303 -0.299 -0.039
0.302 -0.293 -0.039
0.305 -0.292 -0.039
0.308 -0.290 -0.040
0.305 -0.282 -0.039
0.304 -0.277 -0.039
0.303 -0.272 -0.039
0.304 -0.269 -0.039
0.305 -0.265 -0.039
0.305 -0.261 -0.038
0.305 -0.257 -0.038
0.305 -0.253 -0.038
0.306 -0.250 -0.038
0.304 -0.245 -0.038
0.212 -0.165 -0.026
0.210 -0.161 -0.026
0.213 -0.160 -0.026
0.219 -0.160 -0.027
0.225 -0.161 -0.027
0.232 -0.163 -0.028
0.224 -0.155 -0.027
0.220 -0.149 -0.026
0.215 -0.144 -0.026
0.212 -0.140 -0.025
0.215 -0.139 -0.026
0.217 -0.138 -0.026
0.217 -0.135 -0.026
0.219 -0.134 -0.026
0.217 -0.130 -0.026
0.215 -0.127 -0.025
0.215 -0.124 -0.025
0.215 -0.122 -0.025
0.198 -0.110 -0.023
0.212 -0.116 -0.025
0.212 -0.114 -0.025
0.201 -0.106 -0.023
0.215 -0.110 -0.025
0.205 -0.103 -0.024
0.215 -0.106 -0.025
0.222 -0.107 -0.026
0.222 -0.105 -0.026
0.228 -0.106 -0.026
0.227 -0.103 -0.026
0.231 -0.102 -0.027
0.238 -0.103 -0.027
0.234 -0.099 -0.027
0.236 -0.097 -0.027
0.224 -0.090 -0.026
0.221 -0.087 -0.025
0.220 -0.084 -0.025
0.220 -0.082 -0.025
0.228 -0.083 -0.026
0.235 -0.083 -0.027
0.241 -0.083 -0.027
0.253 -0.085 -0.029
0.258 -0.084 -0.029
0.249 -0.079 -0.028
0.258 -0.079 -0.029
0.278 -0.083 -0.031
0.281 -0.081 -0.032
0.388 -0.108 -0.044
0.400 -0.107 -0.045
0.408 -0.106 -0.046
0.417 -0.104 -0.047
0.425 -0.102 -0.048
0.434 -0.101 -0.049
0.441 -0.098 -0.049
0.430 -0.092 -0.048
0.417 -0.085 -0.047
0.402 -0.078 -0.045
0.292 -0.052 -0.033
0.288 -0.048 -0.032
0.291 -0.046 -0.033
0.295 -0.044 -0.033
0.288 -0.040 -0.032
0.285 -0.037 -0.032
0.287 -0.035 -0.032
0.297 -0.034 -0.033
0.311 -0.032 -0.035
0.315 -0.030 -0.035
0.307 -0.026 -0.034
0.306 -0.023 -0.034
0.306 -0.021 -0.034
0.308 -0.018 -0.034
0.306 -0.015 -0.034
0.301 -0.012 -0.033
0.302 -0.010 -0.034
0.304 -0.007 -0.034
0.305 -0.004 -0.034
0.309 -0.001 -0.034
0.311 0.001 -0.035
0.313 0.004 -0.035
0.316 0.007 -0.035
0.319 0.010 -0.036
0.318 0.013 -0.035
0.318 0.016 -0.035
0.318 0.019 -0.035
0.317 0.021 -0.035
0.315 0.024 -0.035
0.315 0.027 -0.035
0.314 0.030 -0.035
0.314 0.032 -0.035
0.314 0.035 -0.035
0.314 0.038 -0.035
0.315 0.041 -0.035
0.317 0.044 -0.036
0.319 0.048 -0.036
0.321 0.051 -0.036
0.324 0.054 -0.036
0.323 0.057 -0.036
0.326 0.061 -0.037
0.326 0.064 -0.037
0.324 0.066 -0.036
0.322 0.069 -0.036
0.322 0.072 -0.036
0.321 0.075 -0.036
0.320 0.077 -0.036
0.318 0.080 -0.036
0.317 0.083 -0.036
0.315 0.085 -0.036
0.314 0.088 -0.036
0.329 0.095 -0.037
0.326 0.097 -0.037
0.316 0.097 -0.036
0.318 0.101 -0.036
0.317 0.104 -0.036
0.312 0.105 -0.036
0.309 0.107 -0.035
0.339 0.121 -0.039
0.343 0.126 -0.039
0.332 0.128 -0.038
0.324 0.128 -0.037
0.349 0.163 -0.041
0.347 0.166 -0.040
0.352 0.211 -0.042
0.376 0.347 -0.049
0.385 0.374 -0.051
0.369 0.371 -0.049
0.277 -0.382 -0.037
0.266 -0.362 -0.035
0.262 -0.352 -0.034
0.262 -0.346 -0.034
0.258 -0.337 -0.034
0.253 -0.326 -0.033
0.194 -0.236 -0.025
0.187 -0.225 -0.024
0.182 -0.215 -0.023
0.180 -0.209 -0.023
0.178 -0.204 -0.022
0.180 -0.204 -0.022
0.185 -0.206 -0.023
0.199 -0.218 -0.024
0.294 -0.303 -0.036
0.297 -0.301 -0.036
0.301 -0.301 -0.036
0.304 -0.299 -0.036
0.306 -0.297 -0.036
0.306 -0.293 -0.036
0.306 -0.288 -0.036
0.303 -0.280 -0.036
0.302 -0.276 -0.035
0.303 -0.272 -0.035
0.303 -0.268 -0.035
0.301 -0.262 -0.035
0.302 -0.258 -0.035
0.303 -0.256 -0.035
0.302 -0.251 -0.035
0.302 -0.247 -0.035
0.298 -0.239 -0.034
0.212 -0.165 -0.024
0.211 -0.162 -0.024
0.213 -0.160 -0.024
0.214 -0.158 -0.024
0.204 -0.148 -0.023
0.218 -0.156 -0.024
0.218 -0.153 -0.024
0.222 -0.154 -0.025
0.221 -0.150 -0.024
0.220 -0.147 -0.024
0.217 -0.142 -0.024
0.218 -0.138 -0.024
0.217 -0.135 -0.024
0.208 -0.127 -0.023
0.216 -0.129 -0.023
0.214 -0.126 -0.023
0.216 -0.125 -0.023
0.213 -0.121 -0.023
0.208 -0.116 -0.022
0.212 -0.115 -0.023
0.214 -0.115 -0.023
0.217 -0.114 -0.023
0.213 -0.110 -0.023
0.222 -0.112 -0.024
0.216 -0.107 -0.023
0.216 -0.104 -0.023
0.225 -0.106 -0.024
0.226 -0.105 -0.024
0.226 -0.102 -0.024
0.226 -0.100 -0.024
0.228 -0.099 -0.024
0.233 -0.099 -0.025
0.221 -0.091 -0.023
0.228 -0.092 -0.024
0.222 -0.087 -0.023
0.211 -0.081 -0.022
0.224 -0.084 -0.023
0.231 -0.084 -0.024
0.238 -0.084 -0.025
0.244 -0.084 -0.026
0.249 -0.083 -0.026
0.246 -0.080 -0.026
0.248 -0.078 -0.026
0.268 -0.082 -0.028
0.279 -0.083 -0.029
0.286 -0.082 -0.030
0.387 -0.108 -0.040
0.397 -0.107 -0.041
0.410 -0.106 -0.042
0.418 -0.105 -0.043
0.426 -0.103 -0.044
0.431 -0.100 -0.044
0.437 -0.097 -0.045
0.436 -0.093 -0.045
0.416 -0.085 -0.043
0.402 -0.078 -0.041
0.287 -0.051 -0.030
0.287 -0.048 -0.029
0.292 -0.046 -0.030
0.294 -0.044 -0.030
0.288 -0.040 -0.030
0.283 -0.037 -0.029
0.284 -0.035 -0.029
0.293 -0.033 -0.030
0.316 -0.033 -0.032
0.311 -0.029 -0.032
0.307 -0.026 -0.031
0.305 -0.023 -0.031
0.311 -0.021 -0.032
0.310 -0.018 -0.032
0.309 -0.015 -0.032
0.302 -0.012 -0.031
0.303 -0.010 -0.031
0.304 -0.007 -0.031
0.305 -0.004 -0.031
0.308 -0.001 -0.031
0.312 0.001 -0.032
0.313 0.004 -0.032
0.316 0.007 -0.032
0.318 0.010 -0.033
0.318 0.013 -0.033
0.318 0.016 -0.033
0.318 0.019 -0.033
0.317 0.021 -0.032
0.317 0.024 -0.032
0.316 0.027 -0.032
0.315 0.030 -0.032
0.314 0.033 -0.032
0.314 0.035 -0.032
0.314 0.038 -0.032
0.316 0.041 -0.032
0.318 0.045 -0.033
0.320 0.048 -0.033
0.323 0.051 -0.033
0.323 0.054 -0.033
0.323 0.057 -0.033
0.325 0.060 -0.033
0.325 0.063 -0.034
0.322 0.066 -0.033
0.321 0.069 -0.033
0.321 0.072 -0.033
0.320 0.074 -0.033
0.319 0.077 -0.033
0.318 0.080 -0.033
0.316 0.082 -0.033
0.314 0.085 -0.033
0.313 0.087 -0.033
0.332 0.096 -0.035
0.324 0.097 -0.034
0.314 0.097 -0.033
0.312 0.099 -0.033
0.317 0.104 -0.033
0.313 0.106 -0.033
0.308 0.107 -0.032
0.354 0.126 -0.037
0.352 0.129 -0.037
0.338 0.127 -0.036
0.321 0.124 -0.034
0.321 0.127 -0.034
1.235 0.577 -0.132
0.368 0.220 -0.040
0.372 0.244 -0.041
0.332 0.230 -0.037
0.374 0.278 -0.042
0.372 0.281 -0.042
0.380 0.292 -0.043
0.389 0.304 -0.045
0.369 0.303 -0.043
0.373 0.318 -0.044
0.379 0.333 -0.045
0.377 0.337 -0.045
0.383 0.349 -0.046
0.384 0.355 -0.046
0.382 0.359 -0.046
0.375 0.359 -0.045
0.385 0.374 -0.047
0.382 0.377 -0.046
0.376 0.378 -0.046
0.386 0.400 -0.048
0.388 0.410 -0.048
0.384 0.412 -0.048
0.396 0.440 -0.050
0.415 0.484 -0.053
0.387 0.488 -0.051
0.381 0.497 -0.051
0.267 -0.367 -0.032
0.261 -0.355 -0.031
0.259 -0.348 -0.031
0.251 -0.333 -0.030
0.248 -0.324 -0.029
0.189 -0.236 -0.022
0.184 -0.227 -0.021
0.182 -0.221 -0.021
0.178 -0.213 -0.020
0.173 -0.204 -0.020
0.175 -0.204 -0.020
0.180 -0.207 -0.021
0.188 -0.213 -0.021
0.282 -0.295 -0.031
0.290 -0.299 -0.032
0.297 -0.302 -0.033
0.300 -0.300 -0.033
0.301 -0.296 -0.033
0.300 -0.291 -0.033
0.301 -0.287 -0.032
0.302 -0.284 -0.033
0.300 -0.278 -0.032
0.300 -0.273 -0.032
0.301 -0.270 -0.032
0.301 -0.266 -0.032
0.300 -0.261 -0.032
0.300 -0.256 -0.032
0.299 -0.252 -0.031
0.302 -0.250 -0.032
0.293 -0.239 -0.031
0.282 -0.226 -0.029
0.220 -0.171 -0.023
0.215 -0.165 -0.022
0.217 -0.163 -0.022
0.212 -0.157 -0.022
0.206 -0.150 -0.021
0.209 -0.149 -0.021
0.211 -0.149 -0.021
0.214 -0.148 -0.022
0.222 -0.151 -0.022
0.224 -0.149 -0.022
0.221 -0.145 -0.022
0.220 -0.142 -0.022
0.202 -0.128 -0.020
0.215 -0.133 -0.021
0.213 -0.130 -0.021
0.208 -0.125 -0.021
0.218 -0.128 -0.022
0.218 -0.126 -0.022
0.212 -0.120 -0.021
0.209 -0.116 -0.021
0.201 -0.110 -0.020
0.214 -0.115 -0.021
0.215 -0.113 -0.021
0.203 -0.104 -0.020
0.210 -0.106 -0.020
0.211 -0.104 -0.020
0.216 -0.105 -0.021
0.227 -0.107 -0.022
0.226 -0.105 -0.022
0.225 -0.102 -0.022
0.224 -0.099 -0.022
0.226 -0.098 -0.022
0.220 -0.093 -0.021
0.215 -0.089 -0.021
0.221 -0.089 -0.021
0.223 -0.088 -0.021
0.220 -0.084 -0.021
0.210 -0.078 -0.020
0.232 -0.084 -0.022
0.243 -0.086 -0.023
0.250 -0.086 -0.024
0.249 -0.083 -0.024
0.248 -0.081 -0.024
0.259 -0.082 -0.025
0.267 -0.082 -0.025
0.275 -0.082 -0.026
0.289 -0.083 -0.027
0.387 -0.108 -0.037
0.399 -0.107 -0.038
0.407 -0.106 -0.038
0.420 -0.105 -0.040
0.426 -0.102 -0.040
0.433 -0.100 -0.041
0.436 -0.097 -0.041
0.423 -0.090 -0.040
0.409 -0.083 -0.038
0.396 -0.077 -0.037
0.286 -0.050 -0.027
0.285 -0.048 -0.027
0.287 -0.045 -0.027
0.295 -0.044 -0.028
0.286 -0.040 -0.027
0.282 -0.037 -0.026
0.283 -0.034 -0.026
0.293 -0.033 -0.027
0.312 -0.032 -0.029
0.310 -0.029 -0.029
0.303 -0.026 -0.028
0.307 -0.024 -0.029
0.307 -0.021 -0.029
0.309 -0.018 -0.029
0.314 -0.016 -0.029
0.305 -0.012 -0.028
0.303 -0.010 -0.028
0.304 -0.007 -0.028
0.306 -0.004 -0.029
0.307 -0.001 -0.029
0.313 0.001 -0.029
0.315 0.004 -0.029
0.318 0.007 -0.030
0.317 0.010 -0.030
0.319 0.013 -0.030
0.318 0.016 -0.030
0.318 0.019 -0.030
0.318 0.021 -0.030
0.317 0.024 -0.030
0.317 0.027 -0.030
0.316 0.030 -0.030
0.315 0.033 -0.029
0.315 0.035 -0.029
0.316 0.038 -0.030
0.317 0.041 -0.030
0.319 0.045 -0.030
0.321 0.048 -0.030
0.323 0.051 -0.030
0.324 0.054 -0.030
0.323 0.057 -0.030
0.324 0.060 -0.030
0.323 0.063 -0.030
0.322 0.066 -0.030
0.321 0.068 -0.030
0.320 0.071 -0.030
0.320 0.074 -0.030
0.319 0.077 -0.030
0.318 0.080 -0.030
0.316 0.082 -0.030
0.314 0.085 -0.030
0.313 0.087 -0.030
0.323 0.093 -0.031
0.325 0.097 -0.031
0.319 0.098 -0.030
0.318 0.101 -0.030
0.319 0.104 -0.030
0.324 0.109 -0.031
0.315 0.109 -0.030
0.336 0.120 -0.032
0.325 0.125 -0.031
1.252 0.651 -0.123
1.312 0.783 -0.131
1.302 0.793 -0.130
1.288 0.798 -0.129
1.287 0.813 -0.130
1.290 0.830 -0.130
1.290 0.845 -0.131
1.290 0.861 -0.131
1.287 0.875 -0.131
1.296 0.896 -0.132
1.316 0.926 -0.135
1.317 0.961 -0.136
1.290 0.974 -0.134
0.379 0.339 -0.041
0.375 0.341 -0.041
0.378 0.350 -0.041
0.372 0.350 -0.041
0.381 0.364 -0.042
0.375 0.365 -0.041
0.374 0.369 -0.041
0.375 0.377 -0.042
0.374 0.388 -0.042
0.410 0.440 -0.047
0.412 0.449 -0.047
0.406 0.450 -0.047
0.409 0.524 -0.049
0.395 0.514 -0.048
0.257 -0.354 -0.028
0.254 -0.346 -0.027
0.185 -0.232 -0.019
0.179 -0.221 -0.019
0.174 -0.212 -0.018
0.173 -0.208 -0.018
0.175 -0.206 -0.018
0.176 -0.205 -0.018
0.276 -0.294 -0.028
0.285 -0.298 -0.028
0.292 -0.301 -0.029
0.300 -0.304 -0.030
0.301 -0.301 -0.030
0.298 -0.293 -0.029
0.297 -0.288 -0.029
0.298 -0.284 -0.029
0.297 -0.279 -0.029
0.297 -0.275 -0.029
0.299 -0.272 -0.029
0.299 -0.268 -0.029
0.300 -0.265 -0.029
0.303 -0.264 -0.029
0.303 -0.259 -0.029
0.299 -0.251 -0.028
0.294 -0.244 -0.028
0.292 -0.239 -0.027
0.220 -0.171 -0.020
0.219 -0.167 -0.020
0.217 -0.163 -0.020
0.211 -0.156 -0.019
0.208 -0.151 -0.019
0.207 -0.148 -0.019
0.207 -0.145 -0.019
0.208 -0.144 -0.019
0.214 -0.145 -0.019
0.222 -0.148 -0.020
0.221 -0.145 -0.020
0.220 -0.142 -0.020
0.204 -0.129 -0.018
0.220 -0.137 -0.020
0.220 -0.135 -0.020
0.214 -0.128 -0.019
0.218 -0.129 -0.020
0.217 -0.126 -0.019
0.212 -0.120 -0.019
0.200 -0.111 -0.018
0.209 -0.114 -0.019
0.213 -0.114 -0.019
0.207 -0.109 -0.018
0.212 -0.109 -0.019
0.204 -0.103 -0.018
0.209 -0.103 -0.018
0.215 -0.104 -0.019
0.222 -0.105 -0.019
0.227 -0.105 -0.020
0.225 -0.102 -0.020
0.223 -0.099 -0.019
0.227 -0.098 -0.020
0.219 -0.093 -0.019
0.215 -0.089 -0.019
0.216 -0.087 -0.019
0.221 -0.087 -0.019
0.221 -0.085 -0.019
0.220 -0.082 -0.019
0.228 -0.083 -0.020
0.242 -0.085 -0.021
0.251 -0.086 -0.022
0.259 -0.087 -0.022
0.264 -0.086 -0.023
0.264 -0.083 -0.023
0.258 -0.079 -0.022
0.267 -0.079 -0.023
0.387 -0.108 -0.033
0.397 -0.107 -0.034
0.405 -0.105 -0.035
0.412 -0.103 -0.035
0.427 -0.103 -0.036
0.441 -0.102 -0.037
0.435 -0.097 -0.037
0.420 -0.089 -0.036
0.401 -0.082 -0.034
0.391 -0.076 -0.033
0.379 -0.070 -0.032
0.284 -0.050 -0.024
0.285 -0.048 -0.024
0.288 -0.046 -0.024
0.292 -0.044 -0.025
0.287 -0.040 -0.024
0.283 -0.037 -0.024
0.281 -0.034 -0.024
0.295 -0.033 -0.025
0.309 -0.032 -0.026
0.313 -0.030 -0.026
0.314 -0.027 -0.027
0.307 -0.024 -0.026
0.304 -0.021 -0.026
0.300 -0.018 -0.025
0.323 -0.016 -0.027
0.314 -0.013 -0.026
0.302 -0.010 -0.025
0.304 -0.007 -0.026
0.306 -0.004 -0.026
0.308 -0.001 -0.026
0.312 0.001 -0.026
0.313 0.004 -0.026
0.315 0.007 -0.027
0.317 0.010 -0.027
0.322 0.013 -0.027
0.318 0.016 -0.027
0.319 0.019 -0.027
0.318 0.021 -0.027
0.318 0.024 -0.027
0.317 0.027 -0.027
0.317 0.030 -0.027
0.316 0.033 -0.027
0.316 0.036 -0.027
0.318 0.039 -0.027
0.319 0.042 -0.027
0.321 0.045 -0.027
0.322 0.048 -0.027
0.324 0.051 -0.027
0.324 0.054 -0.027
0.327 0.058 -0.028
0.323 0.060 -0.027
0.323 0.063 -0.027
0.322 0.066 -0.027
0.321 0.069 -0.027
0.321 0.071 -0.027
0.320 0.074 -0.027
0.318 0.077 -0.027
0.317 0.079 -0.027
0.316 0.082 -0.027
0.315 0.085 -0.027
0.314 0.088 -0.027
0.322 0.093 -0.028
0.325 0.097 -0.028
0.324 0.100 -0.028
0.328 0.104 -0.028
0.314 0.106 -0.027
0.324 0.112 -0.028
0.336 0.119 -0.029
0.333 0.125 -0.029
0.337 0.130 -0.029
0.330 0.131 -0.029
1.276 0.677 -0.114
1.306 0.780 -0.118
1.294 0.788 -0.117
1.292 0.801 -0.117
1.288 0.813 -0.117
1.287 0.828 -0.117
1.284 0.841 -0.117
1.287 0.858 -0.118
1.289 0.876 -0.118
1.295 0.895 -0.119
1.295 0.911 -0.120
1.279 0.916 -0.119
1.301 0.948 -0.121
1.286 0.954 -0.120
1.285 0.987 -0.121
0.413 0.450 -0.042
0.417 0.462 -0.043
0.514 0.598 -0.054
0.511 0.604 -0.054
0.504 0.606 -0.053
0.486 0.594 -0.052
0.473 0.587 -0.051
0.448 0.582 -0.049
0.288 -0.396 -0.028
0.214 -0.283 -0.020
0.210 -0.274 -0.020
0.179 -0.224 -0.017
0.170 -0.209 -0.016
0.171 -0.208 -0.016
0.177 -0.212 -0.016
0.182 -0.215 -0.017
0.219 -0.251 -0.020
0.242 -0.269 -0.022
0.254 -0.278 -0.023
0.278 -0.300 -0.025
0.290 -0.308 -0.026
0.292 -0.305 -0.026
0.297 -0.306 -0.026
0.301 -0.306 -0.027
0.303 -0.302 -0.027
0.299 -0.294 -0.026
0.298 -0.289 -0.026
0.296 -0.283 -0.026
0.296 -0.278 -0.026
0.296 -0.274 -0.026
0.299 -0.272 -0.026
0.299 -0.268 -0.026
0.300 -0.264 -0.026
0.303 -0.264 -0.026
0.305 -0.261 -0.026
0.293 -0.247 -0.025
0.294 -0.243 -0.025
0.291 -0.237 -0.024
0.285 -0.228 -0.024
0.221 -0.171 -0.018
0.216 -0.165 -0.018
0.220 -0.166 -0.018
0.214 -0.158 -0.018
0.208 -0.151 -0.017
0.204 -0.146 -0.017
0.208 -0.146 -0.017
0.208 -0.144 -0.017
0.209 -0.142 -0.017
0.217 -0.145 -0.018
0.222 -0.146 -0.018
0.210 -0.135 -0.017
0.205 -0.130 -0.016
0.209 -0.130 -0.017
0.211 -0.129 -0.017
0.217 -0.130 -0.017
0.214 -0.126 -0.017
0.216 -0.125 -0.017
0.213 -0.121 -0.017
0.205 -0.114 -0.016
0.213 -0.116 -0.017
0.213 -0.114 -0.017
0.213 -0.112 -0.017
0.215 -0.111 -0.017
0.213 -0.107 -0.017
0.213 -0.105 -0.017
0.214 -0.103 -0.017
0.219 -0.103 -0.017
0.225 -0.104 -0.018
0.226 -0.102 -0.018
0.227 -0.100 -0.018
0.221 -0.095 -0.017
0.219 -0.092 -0.017
0.218 -0.090 -0.017
0.217 -0.087 -0.017
0.217 -0.085 -0.017
0.208 -0.080 -0.016
0.222 -0.083 -0.017
0.231 -0.084 -0.018
0.241 -0.085 -0.018
0.249 -0.086 -0.019
0.259 -0.087 -0.020
0.263 -0.085 -0.020
0.257 -0.081 -0.020
0.255 -0.078 -0.019
0.270 -0.080 -0.021
0.387 -0.108 -0.030
0.395 -0.106 -0.030
0.403 -0.104 -0.031
0.411 -0.103 -0.031
0.433 -0.104 -0.033
0.437 -0.101 -0.033
0.436 -0.097 -0.033
0.415 -0.088 -0.031
0.402 -0.082 -0.030
0.391 -0.076 -0.030
0.286 -0.050 -0.022
0.285 -0.048 -0.022
0.287 -0.045 -0.022
0.290 -0.043 -0.022
0.289 -0.040 -0.022
0.284 -0.037 -0.021
0.283 -0.035 -0.021
0.295 -0.033 -0.022
0.309 -0.032 -0.023
0.324 -0.031 -0.024
0.324 -0.028 -0.024
0.309 -0.024 -0.023
0.299 -0.020 -0.023
0.296 -0.017 -0.022
0.304 -0.015 -0.023
0.317 -0.013 -0.024
0.297 -0.009 -0.022
0.301 -0.007 -0.023
0.306 -0.004 -0.023
0.308 -0.001 -0.023
0.312 0.001 -0.023
0.313 0.004 -0.024
0.315 0.007 -0.024
0.316 0.010 -0.024
0.317 0.013 -0.024
0.323 0.016 -0.024
0.319 0.019 -0.024
0.319 0.021 -0.024
0.318 0.024 -0.024
0.318 0.027 -0.024
0.318 0.030 -0.024
0.318 0.033 -0.024
0.318 0.036 -0.024
0.320 0.039 -0.024
0.321 0.042 -0.024
0.321 0.045 -0.024
0.322 0.048 -0.024
0.325 0.051 -0.025
0.327 0.055 -0.025
0.323 0.057 -0.024
0.323 0.060 -0.024
0.322 0.063 -0.024
0.322 0.066 -0.024
0.322 0.069 -0.024
0.321 0.071 -0.024
0.319 0.074 -0.024
0.318 0.077 -0.024
0.317 0.079 -0.024
0.316 0.082 -0.024
0.315 0.085 -0.024
0.316 0.088 -0.024
0.326 0.094 -0.025
0.326 0.097 -0.025
0.325 0.100 -0.025
0.334 0.106 -0.026
0.328 0.107 -0.025
0.313 0.105 -0.024
0.313 0.108 -0.024
0.339 0.121 -0.026
0.343 0.126 -0.027
0.343 0.129 -0.027
0.329 0.127 -0.025
1.282 0.559 -0.100
1.276 0.569 -0.100
1.268 0.579 -0.099
1.255 0.638 -0.099
1.263 0.656 -0.100
1.260 0.668 -0.100
1.007 0.567 -0.080
0.992 0.570 -0.080
1.280 0.778 -0.103
1.290 0.799 -0.104
1.292 0.816 -0.105
1.289 0.829 -0.105
1.283 0.840 -0.105
1.297 0.865 -0.106
1.295 0.879 -0.106
1.298 0.897 -0.107
1.290 0.907 -0.106
1.304 0.933 -0.108
1.292 0.941 -0.107
1.281 0.950 -0.107
0.513 0.596 -0.048
0.510 0.603 -0.048
0.504 0.606 -0.048
0.491 0.599 -0.047
0.476 0.590 -0.045
0.413 0.529 -0.040
0.403 0.524 -0.039
0.241 -0.332 -0.020
0.212 -0.281 -0.018
0.203 -0.265 -0.017
0.169 -0.212 -0.014
0.167 -0.206 -0.014
0.172 -0.209 -0.014
0.182 -0.218 -0.015
0.192 -0.227 -0.016
0.245 -0.276 -0.019
0.248 -0.276 -0.020
0.289 -0.312 -0.023
0.292 -0.310 -0.023
0.295 -0.308 -0.023
0.295 -0.304 -0.023
0.296 -0.300 -0.023
0.299 -0.299 -0.023
0.297 -0.293 -0.023
0.293 -0.284 -0.022
0.297 -0.283 -0.023
0.295 -0.277 -0.022
0.296 -0.274 -0.022
0.298 -0.271 -0.022
0.300 -0.269 -0.022
0.300 -0.265 -0.022
0.297 -0.258 -0.022
0.292 -0.249 -0.022
0.293 -0.247 -0.022
0.288 -0.238 -0.021
0.288 -0.235 -0.021
0.277 -0.222 -0.020
0.230 -0.181 -0.017
0.220 -0.171 -0.016
0.214 -0.164 -0.016
0.218 -0.164 -0.016
0.218 -0.161 -0.016
0.214 -0.156 -0.015
0.210 -0.150 -0.015
0.204 -0.143 -0.015
0.209 -0.144 -0.015
0.214 -0.145 -0.015
0.221 -0.147 -0.016
0.221 -0.145 -0.016
0.216 -0.139 -0.015
0.209 -0.133 -0.015
0.207 -0.129 -0.015
0.218 -0.133 -0.015
0.215 -0.129 -0.015
0.216 -0.127 -0.015
0.217 -0.126 -0.015
0.217 -0.123 -0.015
0.207 -0.115 -0.014
0.201 -0.110 -0.014
0.209 -0.112 -0.014
0.216 -0.113 -0.015
0.201 -0.103 -0.014
0.207 -0.104 -0.014
0.207 -0.102 -0.014
0.211 -0.102 -0.015
0.219 -0.103 -0.015
0.224 -0.103 -0.015
0.226 -0.102 -0.015
0.224 -0.099 -0.015
0.220 -0.095 -0.015
0.219 -0.093 -0.015
0.220 -0.091 -0.015
0.221 -0.089 -0.015
0.214 -0.084 -0.015
0.207 -0.079 -0.014
0.209 -0.078 -0.014
0.238 -0.086 -0.016
0.241 -0.085 -0.016
0.243 -0.084 -0.016
0.252 -0.084 -0.017
0.258 -0.084 -0.017
0.259 -0.082 -0.017
0.264 -0.081 -0.018
0.280 -0.083 -0.019
0.298 -0.085 -0.020
0.383 -0.106 -0.026
0.397 -0.107 -0.027
0.404 -0.105 -0.027
0.414 -0.103 -0.028
0.425 -0.102 -0.028
0.434 -0.100 -0.029
0.424 -0.094 -0.028
0.410 -0.087 -0.027
0.400 -0.081 -0.027
0.393 -0.076 -0.026
0.289 -0.051 -0.019
0.286 -0.048 -0.019
0.286 -0.045 -0.019
0.288 -0.043 -0.019
0.289 -0.040 -0.019
0.286 -0.037 -0.019
0.280 -0.034 -0.019
0.294 -0.033 -0.020
0.306 -0.032 -0.020
0.331 -0.031 -0.022
0.331 -0.028 -0.022
0.307 -0.024 -0.020
0.297 -0.020 -0.020
0.292 -0.017 -0.019
0.306 -0.015 -0.020
0.312 -0.013 -0.021
0.301 -0.010 -0.020
0.299 -0.007 -0.020
0.302 -0.004 -0.020
0.304 -0.001 -0.020
0.309 0.001 -0.020
0.313 0.004 -0.021
0.315 0.007 -0.021
0.316 0.010 -0.021
0.316 0.013 -0.021
0.317 0.016 -0.021
0.321 0.019 -0.021
0.319 0.021 -0.021
0.318 0.024 -0.021
0.318 0.027 -0.021
0.320 0.030 -0.021
0.321 0.033 -0.021
0.321 0.036 -0.021
0.321 0.039 -0.021
0.322 0.042 -0.021
0.322 0.045 -0.021
0.322 0.048 -0.021
0.323 0.051 -0.022
0.327 0.055 -0.022
0.323 0.057 -0.022
0.322 0.060 -0.021
0.321 0.063 -0.021
0.321 0.065 -0.021
0.321 0.068 -0.021
0.320 0.071 -0.021
0.319 0.074 -0.021
0.317 0.077 -0.021
0.316 0.079 -0.021
0.315 0.082 -0.021
0.314 0.085 -0.021
0.327 0.091 -0.022
0.331 0.095 -0.022
0.326 0.097 -0.022
0.327 0.100 -0.022
0.324 0.103 -0.022
0.314 0.103 -0.021
0.311 0.105 -0.021
0.316 0.109 -0.021
0.329 0.117 -0.022
0.331 0.128 -0.023
0.338 0.134 -0.023
1.268 0.579 -0.087
1.237 0.656 -0.086
1.024 0.565 -0.072
1.009 0.568 -0.071
1.278 0.791 -0.091
1.299 0.820 -0.093
1.292 0.831 -0.092
1.309 0.872 -0.094
0.512 0.595 -0.042
0.510 0.602 -0.042
0.502 0.603 -0.041
0.490 0.598 -0.041
0.414 0.530 -0.035
0.404 0.525 -0.034
0.202 -0.267 -0.014
0.193 -0.252 -0.014
0.184 -0.237 -0.013
0.171 -0.217 -0.012
0.171 -0.214 -0.012
0.171 -0.211 -0.012
0.174 -0.211 -0.012
0.186 -0.223 -0.013
0.199 -0.234 -0.014
0.243 -0.279 -0.017
0.246 -0.278 -0.017
0.275 -0.305 -0.019
0.278 -0.305 -0.019
0.281 -0.303 -0.019
0.285 -0.302 -0.019
0.285 -0.298 -0.019
0.288 -0.296 -0.019
0.290 -0.294 -0.019
0.291 -0.291 -0.019
0.288 -0.284 -0.019
0.288 -0.279 -0.019
0.289 -0.276 -0.019
0.292 -0.274 -0.019
0.292 -0.270 -0.019
0.294 -0.268 -0.019
0.300 -0.269 -0.019
0.296 -0.261 -0.019
0.288 -0.250 -0.018
0.287 -0.245 -0.018
0.286 -0.241 -0.018
0.290 -0.240 -0.018
0.281 -0.229 -0.018
0.278 -0.223 -0.018
0.214 -0.166 -0.013
0.210 -0.161 -0.013
0.204 -0.153 -0.013
0.216 -0.160 -0.013
0.219 -0.159 -0.014
0.215 -0.154 -0.013
0.200 -0.140 -0.012
0.209 -0.144 -0.013
0.213 -0.144 -0.013
0.221 -0.147 -0.014
0.224 -0.147 -0.014
0.220 -0.142 -0.013
0.219 -0.138 -0.013
0.209 -0.130 -0.013
0.221 -0.135 -0.013
0.220 -0.132 -0.013
0.217 -0.128 -0.013
0.218 -0.126 -0.013
0.218 -0.124 -0.013
0.218 -0.121 -0.013
0.214 -0.117 -0.013
0.209 -0.112 -0.013
0.214 -0.112 -0.013
0.217 -0.111 -0.013
0.202 -0.102 -0.012
0.207 -0.102 -0.012
0.211 -0.102 -0.013
0.220 -0.104 -0.013
0.224 -0.103 -0.013
0.225 -0.102 -0.013
0.223 -0.099 -0.013
0.224 -0.097 -0.013
0.224 -0.094 -0.013
0.232 -0.096 -0.014
0.220 -0.088 -0.013
0.221 -0.087 -0.013
0.216 -0.083 -0.013
0.210 -0.078 -0.012
0.236 -0.086 -0.014
0.239 -0.085 -0.014
0.243 -0.084 -0.014
0.256 -0.086 -0.015
0.265 -0.086 -0.015
0.274 -0.086 -0.016
0.279 -0.085 -0.016
0.278 -0.082 -0.016
0.273 -0.078 -0.016
0.382 -0.106 -0.022
0.397 -0.107 -0.023
0.407 -0.106 -0.024
0.415 -0.104 -0.024
0.423 -0.102 -0.024
0.431 -0.100 -0.025
0.419 -0.093 -0.024
0.411 -0.088 -0.024
0.406 -0.083 -0.023
0.388 -0.075 -0.022
0.374 -0.069 -0.022
0.291 -0.051 -0.017
0.288 -0.048 -0.017
0.287 -0.045 -0.016
0.289 -0.043 -0.017
0.290 -0.041 -0.017
0.287 -0.038 -0.016
0.279 -0.034 -0.016
0.293 -0.033 -0.017
0.301 -0.031 -0.017
0.314 -0.030 -0.018
0.306 -0.023 -0.018
0.311 -0.021 -0.018
0.296 -0.017 -0.017
0.299 -0.015 -0.017
0.310 -0.013 -0.018
0.307 -0.010 -0.018
0.301 -0.007 -0.017
0.301 -0.004 -0.017
0.305 -0.001 -0.017
0.307 0.001 -0.018
0.311 0.004 -0.018
0.313 0.007 -0.018
0.316 0.010 -0.018
0.316 0.013 -0.018
0.317 0.016 -0.018
0.318 0.018 -0.018
0.325 0.022 -0.019
0.317 0.024 -0.018
0.318 0.027 -0.018
0.321 0.030 -0.018
0.321 0.033 -0.018
0.321 0.036 -0.018
0.322 0.039 -0.019
0.323 0.042 -0.019
0.323 0.045 -0.019
0.324 0.048 -0.019
0.326 0.052 -0.019
0.321 0.054 -0.019
0.321 0.057 -0.019
0.321 0.059 -0.019
0.320 0.062 -0.018
0.320 0.065 -0.019
0.320 0.068 -0.019
0.319 0.071 -0.018
0.318 0.074 -0.018
0.317 0.076 -0.018
0.316 0.079 -0.018
0.314 0.082 -0.018
0.313 0.084 -0.018
0.333 0.093 -0.019
0.333 0.096 -0.019
0.334 0.099 -0.019
0.330 0.101 -0.019
0.322 0.102 -0.019
0.315 0.103 -0.018
0.315 0.106 -0.018
0.324 0.112 -0.019
0.328 0.120 -0.019
0.361 0.135 -0.021
0.361 0.139 -0.021
0.354 0.140 -0.021
1.276 0.649 -0.077
1.275 0.662 -0.077
0.433 0.479 -0.030
0.511 0.594 -0.036
0.510 0.602 -0.036
0.506 0.607 -0.036
0.491 0.600 -0.035
0.380 0.494 -0.028
0.211 -0.291 -0.013
0.184 -0.247 -0.011
0.179 -0.237 -0.011
0.177 -0.231 -0.011
0.174 -0.224 -0.010
0.175 -0.222 -0.010
0.177 -0.221 -0.010
0.180 -0.222 -0.011
0.183 -0.222 -0.011
0.192 -0.229 -0.011
0.204 -0.240 -0.012
0.214 -0.249 -0.012
0.274 -0.304 -0.016
0.280 -0.289 -0.016
0.284 -0.288 -0.016
0.282 -0.281 -0.016
0.281 -0.277 -0.016
0.281 -0.272 -0.016
0.279 -0.266 -0.015
0.281 -0.264 -0.015
0.279 -0.258 -0.015
0.289 -0.263 -0.016
0.290 -0.259 -0.016
0.284 -0.250 -0.015
0.277 -0.241 -0.015
0.277 -0.236 -0.015
0.284 -0.239 -0.015
0.281 -0.233 -0.015
0.284 -0.231 -0.015
0.272 -0.218 -0.014
0.215 -0.167 -0.011
0.208 -0.159 -0.011
0.208 -0.156 -0.011
0.209 -0.155 -0.011
0.218 -0.158 -0.011
0.218 -0.156 -0.011
0.209 -0.147 -0.011
0.200 -0.138 -0.010
0.204 -0.139 -0.011
0.214 -0.143 -0.011
0.224 -0.147 -0.012
0.225 -0.145 -0.012
0.220 -0.139 -0.011
0.228 -0.142 -0.012
0.219 -0.134 -0.011
0.219 -0.131 -0.011
0.217 -0.128 -0.011
0.218 -0.126 -0.011
0.220 -0.124 -0.011
0.217 -0.121 -0.011
0.211 -0.115 -0.011
0.211 -0.113 -0.011
0.214 -0.112 -0.011
0.216 -0.111 -0.011
0.213 -0.107 -0.011
0.212 -0.105 -0.011
0.215 -0.104 -0.011
0.219 -0.103 -0.011
0.224 -0.104 -0.011
0.226 -0.102 -0.011
0.225 -0.100 -0.011
0.225 -0.097 -0.011
0.226 -0.095 -0.011
0.223 -0.092 -0.011
0.224 -0.090 -0.011
0.219 -0.086 -0.011
0.211 -0.081 -0.010
0.210 -0.078 -0.010
0.228 -0.083 -0.011
0.242 -0.085 -0.012
0.253 -0.087 -0.012
0.260 -0.087 -0.013
0.265 -0.086 -0.013
0.273 -0.086 -0.013
0.274 -0.084 -0.013
0.267 -0.079 -0.013
0.274 -0.079 -0.013
0.387 -0.107 -0.019
0.399 -0.107 -0.019
0.407 -0.105 -0.020
0.413 -0.103 -0.020
0.424 -0.102 -0.021
0.427 -0.099 -0.021
0.427 -0.095 -0.021
0.416 -0.089 -0.020
0.404 -0.082 -0.020
0.392 -0.076 -0.019
0.289 -0.051 -0.014
0.286 -0.048 -0.014
0.287 -0.045 -0.014
0.288 -0.043 -0.014
0.290 -0.041 -0.014
0.293 -0.038 -0.014
0.280 -0.034 -0.014
0.281 -0.032 -0.014
0.293 -0.030 -0.014
0.308 -0.029 -0.015
0.327 -0.025 -0.016
0.321 -0.022 -0.016
0.313 -0.018 -0.015
0.294 -0.015 -0.014
0.301 -0.012 -0.015
0.312 -0.010 -0.015
0.301 -0.007 -0.015
0.302 -0.004 -0.015
0.306 -0.001 -0.015
0.308 0.001 -0.015
0.310 0.004 -0.015
0.312 0.007 -0.015
0.314 0.010 -0.015
0.315 0.013 -0.015
0.316 0.016 -0.015
0.317 0.018 -0.015
0.316 0.021 -0.015
0.329 0.025 -0.016
0.327 0.028 -0.016
0.321 0.030 -0.016
0.321 0.033 -0.016
0.322 0.036 -0.016
0.322 0.039 -0.016
0.323 0.042 -0.016
0.324 0.045 -0.016
0.321 0.048 -0.016
0.320 0.051 -0.016
0.320 0.054 -0.016
0.320 0.056 -0.016
0.320 0.059 -0.016
0.320 0.062 -0.016
0.320 0.065 -0.016
0.319 0.068 -0.016
0.319 0.071 -0.016
0.317 0.074 -0.015
0.316 0.076 -0.015
0.315 0.079 -0.015
0.314 0.082 -0.015
0.312 0.084 -0.015
0.329 0.092 -0.016
0.333 0.096 -0.016
0.334 0.100 -0.016
0.329 0.101 -0.016
0.322 0.102 -0.016
0.319 0.104 -0.016
0.322 0.108 -0.016
0.332 0.115 -0.016
0.328 0.117 -0.016
0.344 0.129 -0.017
0.334 0.211 -0.017
0.327 0.214 -0.017
0.311 0.207 -0.016
0.319 0.216 -0.017
0.510 0.593 -0.030
0.510 0.602 -0.030
0.506 0.607 -0.030
0.493 0.601 -0.029
0.436 0.549 -0.026
0.435 0.556 -0.026
0.461 0.599 -0.028
0.192 -0.264 -0.009
0.181 -0.246 -0.009
0.174 -0.233 -0.008
0.170 -0.225 -0.008
0.171 -0.223 -0.008
0.172 -0.221 -0.008
0.175 -0.223 -0.008
0.183 -0.228 -0.009
0.194 -0.239 -0.009
0.192 -0.233 -0.009
0.199 -0.238 -0.009
0.205 -0.241 -0.010
0.210 -0.244 -0.010
0.218 -0.234 -0.010
0.269 -0.223 -0.012
0.276 -0.225 -0.012
0.232 -0.183 -0.010
0.221 -0.171 -0.009
0.212 -0.162 -0.009
0.210 -0.158 -0.009
0.208 -0.153 -0.009
0.212 -0.154 -0.009
0.217 -0.155 -0.009
0.215 -0.151 -0.009
0.207 -0.143 -0.009
0.205 -0.139 -0.009
0.217 -0.145 -0.009
0.219 -0.144 -0.009
0.220 -0.142 -0.009
0.223 -0.141 -0.009
0.219 -0.136 -0.009
0.220 -0.134 -0.009
0.217 -0.130 -0.009
0.218 -0.128 -0.009
0.219 -0.126 -0.009
0.221 -0.125 -0.009
0.216 -0.120 -0.009
0.207 -0.113 -0.008
0.204 -0.109 -0.008
0.208 -0.109 -0.009
0.211 -0.108 -0.009
0.212 -0.106 -0.009
0.202 -0.100 -0.008
0.208 -0.100 -0.008
0.214 -0.101 -0.009
0.223 -0.103 -0.009
0.226 -0.102 -0.009
0.225 -0.099 -0.009
0.224 -0.097 -0.009
0.226 -0.096 -0.009
0.225 -0.093 -0.009
0.221 -0.089 -0.009
0.218 -0.086 -0.009
0.213 -0.082 -0.009
0.210 -0.078 -0.008
0.228 -0.083 -0.009
0.239 -0.084 -0.010
0.245 -0.084 -0.010
0.250 -0.084 -0.010
0.247 -0.080 -0.010
0.247 -0.078 -0.010
0.255 -0.078 -0.010
0.268 -0.079 -0.011
0.274 -0.079 -0.011
0.389 -0.108 -0.015
0.403 -0.108 -0.016
0.407 -0.105 -0.016
0.411 -0.103 -0.016
0.421 -0.101 -0.017
0.426 -0.099 -0.017
0.429 -0.095 -0.017
0.414 -0.088 -0.016
0.396 -0.081 -0.016
0.387 -0.075 -0.015
0.288 -0.051 -0.011
0.285 -0.048 -0.011
0.287 -0.045 -0.011
0.286 -0.043 -0.011
0.289 -0.040 -0.011
0.293 -0.038 -0.012
0.288 -0.035 -0.011
0.281 -0.032 -0.011
0.288 -0.030 -0.011
0.300 -0.028 -0.012
0.332 -0.025 -0.013
0.320 -0.022 -0.013
0.311 -0.018 -0.012
0.302 -0.015 -0.012
0.299 -0.012 -0.012
0.308 -0.010 -0.012
0.307 -0.007 -0.012
0.301 -0.004 -0.012
0.303 -0.001 -0.012
0.308 0.001 -0.012
0.309 0.004 -0.012
0.312 0.007 -0.012
0.312 0.010 -0.012
0.314 0.013 -0.012
0.315 0.015 -0.012
0.316 0.018 -0.012
0.317 0.021 -0.012
0.317 0.024 -0.013
0.318 0.027 -0.013
0.322 0.030 -0.013
0.323 0.033 -0.013
0.322 0.036 -0.013
0.322 0.039 -0.013
0.321 0.042 -0.013
0.320 0.045 -0.013
0.320 0.048 -0.013
0.319 0.050 -0.013
0.320 0.053 -0.013
0.320 0.056 -0.013
0.320 0.059 -0.013
0.319 0.062 -0.013
0.318 0.065 -0.013
0.316 0.067 -0.013
0.317 0.070 -0.013
0.316 0.073 -0.013
0.315 0.076 -0.013
0.314 0.079 -0.013
0.313 0.081 -0.012
0.323 0.087 -0.013
0.324 0.090 -0.013
0.325 0.094 -0.013
0.329 0.098 -0.013
0.327 0.100 -0.013
0.322 0.102 -0.013
0.319 0.104 -0.013
0.324 0.109 -0.013
0.333 0.115 -0.013
0.341 0.121 -0.014
0.336 0.123 -0.014
0.345 0.130 -0.014
0.337 0.130 -0.014
0.343 0.136 -0.014
0.353 0.143 -0.014
0.375 0.156 -0.015
0.360 0.153 -0.015
0.358 0.156 -0.015
0.370 0.169 -0.015
0.347 0.165 -0.014
0.329 0.178 -0.014
0.332 0.183 -0.014
0.349 0.200 -0.015
0.341 0.199 -0.014
0.330 0.197 -0.014
0.326 0.198 -0.014
0.326 0.202 -0.014
0.329 0.208 -0.014
0.322 0.207 -0.014
0.318 0.208 -0.013
0.314 0.209 -0.013
0.311 0.211 -0.013
0.308 0.213 -0.013
0.305 0.214 -0.013
0.297 0.212 -0.013
0.465 0.505 -0.022
0.511 0.594 -0.024
0.510 0.602 -0.024
0.505 0.606 -0.024
0.495 0.604 -0.024
0.480 0.594 -0.023
0.439 0.553 -0.021
0.430 0.550 -0.021
0.465 0.605 -0.023
0.171 -0.235 -0.006
0.171 -0.232 -0.006
0.168 -0.225 -0.006
0.167 -0.221 -0.006
0.170 -0.221 -0.006
0.172 -0.221 -0.006
0.179 -0.227 -0.006
0.190 -0.238 -0.007
0.195 -0.240 -0.007
0.204 -0.248 -0.007
0.195 -0.234 -0.007
0.195 -0.231 -0.007
0.195 -0.227 -0.007
0.197 -0.226 -0.007
0.198 -0.223 -0.007
0.200 -0.223 -0.007
0.203 -0.222 -0.007
0.206 -0.222 -0.007
0.208 -0.221 -0.007
0.210 -0.220 -0.007
0.212 -0.218 -0.007
0.213 -0.216 -0.007
0.216 -0.215 -0.007
0.218 -0.215 -0.007
0.221 -0.214 -0.008
0.224 -0.213 -0.008
0.226 -0.212 -0.008
0.228 -0.211 -0.008
0.231 -0.210 -0.008
0.234 -0.209 -0.008
0.237 -0.209 -0.008
0.239 -0.208 -0.008
0.242 -0.207 -0.008
0.245 -0.206 -0.008
0.247 -0.204 -0.008
0.248 -0.202 -0.008
0.248 -0.199 -0.008
0.235 -0.185 -0.008
0.224 -0.174 -0.007
0.219 -0.167 -0.007
0.203 -0.152 -0.007
0.202 -0.149 -0.007
0.207 -0.150 -0.007
0.212 -0.152 -0.007
0.215 -0.151 -0.007
0.209 -0.144 -0.007
0.207 -0.141 -0.007
0.212 -0.141 -0.007
0.216 -0.142 -0.007
0.216 -0.139 -0.007
0.215 -0.136 -0.007
0.214 -0.133 -0.007
0.212 -0.130 -0.007
0.215 -0.129 -0.007
0.218 -0.128 -0.007
0.219 -0.126 -0.007
0.221 -0.125 -0.007
0.220 -0.122 -0.007
0.212 -0.116 -0.007
0.207 -0.111 -0.007
0.209 -0.109 -0.007
0.210 -0.108 -0.007
0.210 -0.106 -0.007
0.212 -0.105 -0.007
0.211 -0.102 -0.007
0.211 -0.099 -0.007
0.222 -0.102 -0.007
0.224 -0.101 -0.007
0.222 -0.098 -0.007
0.223 -0.096 -0.007
0.225 -0.095 -0.007
0.227 -0.094 -0.007
0.220 -0.088 -0.007
0.219 -0.086 -0.007
0.217 -0.083 -0.007
0.214 -0.080 -0.007
0.230 -0.084 -0.007
0.237 -0.084 -0.007
0.239 -0.082 -0.007
0.244 -0.082 -0.008
0.244 -0.079 -0.008
0.245 -0.077 -0.008
0.253 -0.077 -0.008
0.280 -0.083 -0.009
0.286 -0.082 -0.009
0.385 -0.107 -0.012
0.398 -0.107 -0.012
0.410 -0.106 -0.013
0.414 -0.103 -0.013
0.415 -0.100 -0.013
0.426 -0.099 -0.013
0.424 -0.094 -0.013
0.409 -0.087 -0.012
0.390 -0.079 -0.012
0.380 -0.074 -0.012
0.370 -0.069 -0.011
0.301 -0.053 -0.009
0.288 -0.048 -0.009
0.285 -0.045 -0.009
0.287 -0.043 -0.009
0.286 -0.040 -0.009
0.293 -0.038 -0.009
0.290 -0.035 -0.009
0.282 -0.032 -0.009
0.287 -0.030 -0.009
0.295 -0.028 -0.009
0.316 -0.027 -0.010
0.323 -0.025 -0.010
0.316 -0.021 -0.010
0.310 -0.018 -0.009
