VERSION .7
FIELDS x y z
SIZE 4 4 4
TYPE F F F
COUNT 1 1 1
WIDTH     2434
HEIGHT 1
VIEWPOINT 0 0 0 1 0 0 0
POINTS     2434
DATA ascii
0.226 0.189 -0.110
0.222 0.189 -0.108
0.220 0.190 -0.108
0.220 0.193 -0.108
0.220 0.197 -0.109
0.218 0.198 -0.108
0.220 0.204 -0.110
0.228 0.215 -0.114
0.221 0.219 -0.113
0.209 0.211 -0.107
0.208 0.214 -0.107
0.196 0.204 -0.101
0.207 0.219 -0.108
0.216 0.233 -0.113
0.214 0.238 -0.113
0.219 0.249 -0.117
0.219 0.253 -0.117
0.325 -0.330 -0.160
0.330 -0.330 -0.162
0.332 -0.327 -0.162
0.331 -0.321 -0.161
0.330 -0.315 -0.159
0.330 -0.310 -0.159
0.330 -0.305 -0.158
0.328 -0.298 -0.156
0.326 -0.292 -0.155
0.327 -0.288 -0.155
0.326 -0.282 -0.153
0.326 -0.277 -0.153
0.326 -0.273 -0.152
0.325 -0.268 -0.151
0.321 -0.260 -0.149
0.320 -0.255 -0.148
0.320 -0.251 -0.147
0.321 -0.247 -0.147
0.318 -0.241 -0.145
0.316 -0.235 -0.144
0.313 -0.229 -0.142
0.311 -0.224 -0.141
0.312 -0.220 -0.141
0.309 -0.215 -0.139
0.306 -0.209 -0.137
0.302 -0.202 -0.135
0.209 -0.130 -0.093
0.209 -0.128 -0.092
0.210 -0.126 -0.092
0.298 -0.172 -0.130
0.299 -0.169 -0.131
0.299 -0.166 -0.130
0.301 -0.164 -0.131
0.304 -0.162 -0.132
0.307 -0.160 -0.133
0.310 -0.158 -0.134
0.314 -0.157 -0.135
0.317 -0.155 -0.137
0.320 -0.153 -0.137
0.322 -0.150 -0.138
0.326 -0.149 -0.140
0.331 -0.148 -0.142
0.334 -0.146 -0.142
0.356 -0.134 -0.150
0.362 -0.132 -0.153
0.367 -0.131 -0.155
0.373 -0.129 -0.157
0.380 -0.128 -0.160
0.384 -0.125 -0.161
0.388 -0.122 -0.162
0.397 -0.121 -0.166
1.288 -0.382 -0.538
1.313 -0.376 -0.548
1.326 -0.367 -0.553
1.350 -0.361 -0.562
1.358 -0.350 -0.565
0.345 -0.069 -0.143
0.335 -0.064 -0.139
0.298 -0.054 -0.123
0.284 -0.049 -0.117
0.278 -0.045 -0.115
0.281 -0.043 -0.116
0.287 -0.041 -0.118
0.293 -0.039 -0.121
0.299 -0.037 -0.123
0.297 -0.034 -0.123
0.294 -0.031 -0.121
0.302 -0.029 -0.124
0.296 -0.026 -0.122
0.284 -0.022 -0.117
0.273 -0.019 -0.112
0.285 -0.017 -0.117
0.295 -0.015 -0.121
0.309 -0.013 -0.127
0.306 -0.010 -0.126
0.304 -0.007 -0.125
0.303 -0.004 -0.125
0.309 -0.001 -0.127
0.310 0.002 -0.127
0.302 0.004 -0.124
0.290 0.007 -0.119
0.282 0.009 -0.116
0.286 0.012 -0.118
0.319 0.016 -0.131
0.306 0.019 -0.126
0.296 0.021 -0.122
0.299 0.024 -0.123
0.315 0.028 -0.130
0.287 0.028 -0.119
0.282 0.030 -0.116
0.285 0.033 -0.118
0.294 0.037 -0.121
0.325 0.047 -0.134
0.290 0.050 -0.120
0.287 0.052 -0.119
0.291 0.056 -0.121
0.294 0.059 -0.122
0.303 0.067 -0.126
0.294 0.068 -0.122
0.286 0.069 -0.119
0.283 0.071 -0.118
0.282 0.073 -0.118
0.321 0.090 -0.134
0.310 0.090 -0.130
0.295 0.088 -0.124
0.308 0.095 -0.130
0.308 0.101 -0.130
0.319 0.108 -0.135
0.305 0.110 -0.129
0.325 0.140 -0.139
0.334 0.148 -0.143
0.298 0.148 -0.130
0.302 0.153 -0.132
0.295 0.153 -0.129
0.294 0.156 -0.128
0.288 0.156 -0.126
0.289 0.159 -0.127
0.280 0.158 -0.124
0.275 0.158 -0.122
0.278 0.163 -0.123
0.276 0.165 -0.123
0.274 0.167 -0.122
0.269 0.168 -0.120
0.264 0.168 -0.118
0.274 0.177 -0.123
0.270 0.178 -0.122
0.269 0.181 -0.122
0.266 0.182 -0.121
0.262 0.183 -0.119
0.258 0.184 -0.118
0.249 0.180 -0.114
0.246 0.181 -0.113
0.263 0.198 -0.122
0.273 0.208 -0.127
0.277 0.215 -0.129
0.275 0.218 -0.129
0.265 0.218 -0.125
0.235 0.196 -0.112
0.226 0.192 -0.108
0.223 0.192 -0.106
0.225 0.198 -0.108
0.227 0.203 -0.109
0.222 0.201 -0.107
0.225 0.209 -0.110
0.225 0.212 -0.110
0.232 0.222 -0.114
0.227 0.225 -0.113
0.233 0.234 -0.116
0.203 0.208 -0.102
0.197 0.205 -0.099
0.319 -0.354 -0.157
0.322 -0.352 -0.158
0.321 -0.345 -0.157
0.327 -0.347 -0.159
0.326 -0.340 -0.158
0.335 -0.345 -0.162
0.329 -0.333 -0.158
0.331 -0.330 -0.158
0.333 -0.327 -0.158
0.332 -0.321 -0.157
0.328 -0.311 -0.154
0.328 -0.307 -0.154
0.327 -0.301 -0.153
0.324 -0.293 -0.151
0.325 -0.290 -0.150
0.325 -0.286 -0.150
0.324 -0.279 -0.149
0.324 -0.275 -0.148
0.324 -0.271 -0.148
0.320 -0.263 -0.145
0.319 -0.258 -0.144
0.318 -0.253 -0.144
0.321 -0.251 -0.144
0.320 -0.246 -0.143
0.318 -0.240 -0.142
0.313 -0.232 -0.139
0.310 -0.227 -0.138
0.309 -0.222 -0.136
0.308 -0.217 -0.136
0.307 -0.213 -0.135
0.306 -0.209 -0.134
0.302 -0.202 -0.132
0.211 -0.131 -0.091
0.209 -0.128 -0.090
0.207 -0.124 -0.089
0.213 -0.125 -0.091
0.293 -0.169 -0.125
0.296 -0.167 -0.126
0.297 -0.165 -0.126
0.302 -0.164 -0.128
0.302 -0.160 -0.128
0.305 -0.159 -0.129
0.310 -0.158 -0.131
0.314 -0.157 -0.132
0.317 -0.155 -0.133
0.319 -0.152 -0.134
0.320 -0.150 -0.134
0.324 -0.148 -0.135
0.328 -0.146 -0.137
0.333 -0.145 -0.138
0.324 -0.138 -0.135
0.311 -0.129 -0.129
0.359 -0.135 -0.148
0.362 -0.132 -0.149
0.366 -0.130 -0.150
0.372 -0.128 -0.153
0.379 -0.127 -0.155
0.385 -0.125 -0.158
0.389 -0.123 -0.159
0.394 -0.121 -0.161
0.406 -0.120 -0.166
1.307 -0.374 -0.532
1.331 -0.368 -0.542
1.311 -0.350 -0.533
1.316 -0.339 -0.535
0.282 -0.048 -0.114
0.281 -0.046 -0.113
0.287 -0.044 -0.116
0.288 -0.041 -0.116
0.292 -0.039 -0.117
0.294 -0.037 -0.118
0.297 -0.034 -0.120
0.292 -0.031 -0.117
0.283 -0.027 -0.114
0.293 -0.026 -0.118
0.290 -0.023 -0.116
0.289 -0.020 -0.116
0.291 -0.017 -0.117
0.296 -0.015 -0.119
0.299 -0.012 -0.120
0.306 -0.010 -0.123
0.304 -0.007 -0.122
0.304 -0.004 -0.122
0.305 -0.001 -0.123
0.301 0.001 -0.121
0.289 0.004 -0.116
0.281 0.007 -0.113
0.284 0.009 -0.114
0.319 0.019 -0.128
0.303 0.021 -0.122
0.311 0.025 -0.125
0.304 0.027 -0.122
0.296 0.029 -0.119
0.274 0.029 -0.110
0.286 0.033 -0.115
0.314 0.043 -0.127
0.323 0.047 -0.130
0.308 0.048 -0.125
0.316 0.052 -0.128
0.292 0.051 -0.118
0.299 0.055 -0.121
0.303 0.058 -0.123
0.298 0.060 -0.121
0.300 0.063 -0.122
0.300 0.066 -0.122
0.310 0.071 -0.126
0.300 0.072 -0.122
0.289 0.072 -0.118
0.290 0.075 -0.118
0.294 0.079 -0.120
0.296 0.085 -0.121
0.298 0.089 -0.122
0.301 0.093 -0.124
0.289 0.092 -0.119
0.328 0.111 -0.135
0.340 0.119 -0.140
0.292 0.110 -0.121
0.331 0.143 -0.138
0.336 0.148 -0.141
0.334 0.151 -0.140
0.322 0.149 -0.136
0.308 0.146 -0.130
0.301 0.146 -0.127
0.298 0.148 -0.126
0.297 0.150 -0.126
0.294 0.152 -0.125
0.291 0.154 -0.124
0.286 0.155 -0.122
0.284 0.157 -0.122
0.284 0.160 -0.122
0.283 0.162 -0.122
0.280 0.164 -0.121
0.284 0.169 -0.123
0.282 0.172 -0.122
0.273 0.170 -0.119
0.278 0.176 -0.121
0.277 0.179 -0.121
0.275 0.181 -0.121
0.273 0.183 -0.121
0.270 0.184 -0.119
0.264 0.184 -0.118
0.265 0.188 -0.118
0.252 0.185 -0.113
0.278 0.227 -0.128
0.232 0.200 -0.108
0.236 0.206 -0.110
0.238 0.213 -0.112
0.232 0.233 -0.113
0.331 -0.377 -0.160
0.327 -0.368 -0.158
0.328 -0.363 -0.157
0.325 -0.355 -0.156
0.324 -0.348 -0.154
0.325 -0.344 -0.154
0.331 -0.345 -0.156
0.329 -0.338 -0.155
0.330 -0.333 -0.154
0.331 -0.329 -0.154
0.329 -0.322 -0.152
0.324 -0.312 -0.149
0.325 -0.309 -0.149
0.325 -0.304 -0.149
0.324 -0.297 -0.147
0.323 -0.292 -0.146
0.324 -0.289 -0.146
0.322 -0.282 -0.145
0.322 -0.277 -0.144
0.322 -0.273 -0.144
0.322 -0.269 -0.143
0.319 -0.262 -0.141
0.317 -0.256 -0.140
0.319 -0.253 -0.140
0.320 -0.250 -0.140
0.322 -0.247 -0.141
0.313 -0.236 -0.136
0.309 -0.230 -0.134
0.308 -0.224 -0.133
0.307 -0.220 -0.132
0.308 -0.217 -0.132
0.307 -0.212 -0.131
0.307 -0.208 -0.131
0.305 -0.204 -0.130
0.295 -0.194 -0.125
0.212 -0.131 -0.089
0.209 -0.127 -0.088
0.210 -0.125 -0.088
0.211 -0.124 -0.088
0.297 -0.158 -0.123
0.300 -0.156 -0.124
0.307 -0.156 -0.126
0.314 -0.156 -0.129
0.317 -0.155 -0.130
0.318 -0.152 -0.130
0.320 -0.149 -0.130
0.324 -0.148 -0.132
0.326 -0.145 -0.133
0.327 -0.142 -0.133
0.360 -0.135 -0.145
0.361 -0.131 -0.145
0.364 -0.129 -0.146
0.371 -0.128 -0.149
0.375 -0.126 -0.150
0.382 -0.124 -0.152
0.388 -0.122 -0.155
0.394 -0.120 -0.157
0.407 -0.120 -0.162
0.417 -0.119 -0.166
1.307 -0.348 -0.518
0.367 -0.077 -0.145
0.372 -0.074 -0.147
0.297 -0.054 -0.117
0.286 -0.049 -0.112
0.284 -0.046 -0.112
0.291 -0.044 -0.114
0.292 -0.042 -0.115
0.292 -0.039 -0.114
0.286 -0.036 -0.112
0.288 -0.033 -0.113
0.308 -0.033 -0.121
0.298 -0.029 -0.117
0.291 -0.026 -0.114
0.290 -0.023 -0.114
0.294 -0.020 -0.115
0.295 -0.018 -0.115
0.296 -0.015 -0.116
0.301 -0.012 -0.118
0.302 -0.010 -0.118
0.306 -0.007 -0.120
0.305 -0.004 -0.120
0.306 -0.001 -0.120
0.292 0.001 -0.114
0.283 0.004 -0.111
0.272 0.006 -0.107
0.301 0.013 -0.118
0.312 0.016 -0.122
0.317 0.019 -0.124
0.310 0.022 -0.121
0.305 0.024 -0.120
0.283 0.028 -0.111
0.287 0.031 -0.113
0.309 0.036 -0.121
0.308 0.042 -0.121
0.302 0.044 -0.119
0.302 0.046 -0.119
0.313 0.054 -0.124
0.313 0.057 -0.124
0.313 0.060 -0.124
0.302 0.061 -0.120
0.309 0.065 -0.122
0.319 0.070 -0.126
0.312 0.072 -0.124
0.295 0.071 -0.117
0.297 0.074 -0.118
0.299 0.078 -0.119
0.309 0.083 -0.123
0.304 0.085 -0.121
0.300 0.086 -0.120
0.295 0.088 -0.118
0.293 0.090 -0.117
0.288 0.092 -0.115
0.287 0.094 -0.115
0.330 0.111 -0.132
0.339 0.118 -0.136
0.332 0.119 -0.134
0.306 0.113 -0.123
0.295 0.112 -0.119
0.293 0.114 -0.119
0.313 0.125 -0.127
0.307 0.125 -0.125
0.315 0.132 -0.128
0.323 0.139 -0.132
0.325 0.143 -0.133
0.321 0.145 -0.131
0.312 0.144 -0.128
0.305 0.144 -0.125
0.302 0.146 -0.124
0.300 0.148 -0.124
0.295 0.149 -0.122
0.294 0.152 -0.122
0.288 0.152 -0.120
0.285 0.154 -0.119
0.287 0.158 -0.120
0.287 0.161 -0.120
0.285 0.163 -0.120
0.286 0.167 -0.120
0.286 0.170 -0.121
0.287 0.175 -0.122
0.285 0.177 -0.121
0.283 0.179 -0.121
0.283 0.182 -0.121
0.285 0.187 -0.122
0.283 0.190 -0.122
0.277 0.189 -0.120
0.323 -0.401 -0.157
0.333 -0.408 -0.161
0.326 -0.393 -0.157
0.324 -0.385 -0.155
0.329 -0.385 -0.157
0.330 -0.381 -0.157
0.334 -0.380 -0.158
0.330 -0.370 -0.155
0.330 -0.365 -0.155
0.329 -0.358 -0.153
0.326 -0.350 -0.151
0.328 -0.346 -0.151
0.329 -0.342 -0.151
0.329 -0.337 -0.151
0.330 -0.333 -0.150
0.329 -0.327 -0.149
0.324 -0.316 -0.146
0.323 -0.311 -0.145
0.323 -0.306 -0.144
0.322 -0.300 -0.144
0.320 -0.294 -0.142
0.321 -0.290 -0.142
0.320 -0.285 -0.141
0.319 -0.279 -0.140
0.320 -0.275 -0.140
0.321 -0.271 -0.139
0.319 -0.265 -0.138
0.318 -0.260 -0.137
0.318 -0.256 -0.136
0.316 -0.250 -0.135
0.315 -0.245 -0.134
0.314 -0.240 -0.133
0.310 -0.233 -0.131
0.307 -0.228 -0.130
0.307 -0.224 -0.129
0.308 -0.220 -0.129
0.307 -0.216 -0.128
0.306 -0.211 -0.128
0.304 -0.206 -0.126
0.302 -0.202 -0.125
0.299 -0.196 -0.124
0.216 -0.134 -0.089
0.209 -0.127 -0.085
0.209 -0.124 -0.085
0.210 -0.123 -0.085
0.219 -0.126 -0.089
0.254 -0.143 -0.103
0.244 -0.135 -0.099
0.245 -0.133 -0.099
0.252 -0.133 -0.101
0.300 -0.156 -0.121
0.308 -0.157 -0.124
0.313 -0.155 -0.125
0.315 -0.153 -0.126
0.317 -0.151 -0.126
0.319 -0.149 -0.127
0.322 -0.147 -0.128
0.323 -0.144 -0.128
0.325 -0.141 -0.128
0.290 -0.120 -0.114
0.356 -0.133 -0.139
0.359 -0.131 -0.140
0.361 -0.128 -0.141
0.367 -0.126 -0.143
0.376 -0.126 -0.147
0.381 -0.124 -0.148
0.384 -0.121 -0.149
0.390 -0.119 -0.152
0.409 -0.121 -0.159
0.418 -0.119 -0.162
1.328 -0.341 -0.513
0.384 -0.080 -0.148
0.377 -0.075 -0.145
0.305 -0.055 -0.117
0.290 -0.050 -0.111
0.288 -0.047 -0.110
0.292 -0.045 -0.112
0.297 -0.043 -0.114
0.293 -0.039 -0.112
0.286 -0.036 -0.110
0.290 -0.033 -0.111
0.300 -0.032 -0.115
0.298 -0.029 -0.114
0.292 -0.026 -0.111
0.293 -0.023 -0.112
0.295 -0.020 -0.113
0.300 -0.018 -0.115
0.303 -0.015 -0.116
0.311 -0.013 -0.119
0.311 -0.010 -0.119
0.297 -0.007 -0.113
0.312 -0.004 -0.119
0.302 -0.001 -0.115
0.292 0.001 -0.112
0.281 0.004 -0.107
0.282 0.007 -0.108
0.277 0.009 -0.106
0.291 0.012 -0.111
0.307 0.016 -0.117
0.307 0.019 -0.117
0.299 0.021 -0.114
0.304 0.024 -0.116
0.298 0.026 -0.114
0.303 0.030 -0.116
0.293 0.031 -0.112
0.303 0.035 -0.116
0.307 0.038 -0.118
0.293 0.042 -0.113
0.298 0.046 -0.114
0.296 0.048 -0.114
0.303 0.052 -0.116
0.313 0.057 -0.120
0.316 0.060 -0.122
0.318 0.064 -0.122
0.321 0.068 -0.124
0.324 0.071 -0.125
0.317 0.073 -0.122
0.300 0.072 -0.116
0.299 0.075 -0.116
0.309 0.080 -0.120
0.314 0.084 -0.122
0.313 0.087 -0.122
0.303 0.087 -0.118
0.299 0.089 -0.117
0.282 0.090 -0.110
0.294 0.096 -0.115
0.321 0.115 -0.126
0.321 0.118 -0.126
0.309 0.120 -0.122
0.310 0.123 -0.123
0.321 0.131 -0.127
0.318 0.133 -0.126
0.316 0.136 -0.126
0.316 0.139 -0.126
0.314 0.142 -0.126
0.307 0.141 -0.123
0.303 0.143 -0.122
0.304 0.147 -0.122
0.299 0.147 -0.120
0.298 0.151 -0.120
0.293 0.151 -0.119
0.292 0.154 -0.118
0.293 0.158 -0.119
0.293 0.161 -0.119
0.287 0.161 -0.117
0.283 0.162 -0.116
0.289 0.168 -0.119
0.300 0.178 -0.123
0.290 0.183 -0.121
0.337 -0.441 -0.162
0.334 -0.431 -0.160
0.316 -0.403 -0.151
0.325 -0.409 -0.155
0.331 -0.410 -0.156
0.332 -0.405 -0.156
0.332 -0.400 -0.156
0.333 -0.395 -0.155
0.329 -0.386 -0.153
0.332 -0.382 -0.153
0.330 -0.375 -0.152
0.330 -0.369 -0.151
0.320 -0.353 -0.146
0.324 -0.352 -0.147
0.327 -0.350 -0.148
0.328 -0.346 -0.148
0.329 -0.341 -0.147
0.327 -0.334 -0.146
0.328 -0.330 -0.146
0.328 -0.325 -0.145
0.322 -0.314 -0.142
0.322 -0.310 -0.141
0.322 -0.304 -0.140
0.319 -0.297 -0.138
0.318 -0.291 -0.137
0.318 -0.286 -0.137
0.319 -0.283 -0.137
0.320 -0.279 -0.136
0.320 -0.275 -0.136
0.320 -0.270 -0.135
0.314 -0.261 -0.133
0.316 -0.259 -0.133
0.314 -0.253 -0.132
0.311 -0.246 -0.130
0.309 -0.240 -0.128
0.306 -0.234 -0.127
0.307 -0.231 -0.127
0.308 -0.227 -0.127
0.308 -0.223 -0.126
0.307 -0.219 -0.126
0.307 -0.216 -0.125
0.304 -0.209 -0.123
0.302 -0.204 -0.122
0.300 -0.199 -0.121
0.296 -0.194 -0.119
0.216 -0.134 -0.086
0.209 -0.127 -0.083
0.208 -0.124 -0.083
0.208 -0.122 -0.083
0.217 -0.124 -0.086
0.251 -0.141 -0.099
0.243 -0.134 -0.096
0.244 -0.132 -0.096
0.246 -0.130 -0.096
0.293 -0.152 -0.115
0.307 -0.156 -0.120
0.312 -0.155 -0.121
0.315 -0.153 -0.122
0.317 -0.151 -0.123
0.320 -0.149 -0.124
0.322 -0.146 -0.124
0.323 -0.144 -0.125
0.324 -0.141 -0.125
0.312 -0.129 -0.120
0.311 -0.119 -0.119
0.352 -0.131 -0.134
0.357 -0.130 -0.136
0.361 -0.127 -0.137
0.364 -0.125 -0.138
0.378 -0.126 -0.143
0.379 -0.123 -0.144
0.377 -0.118 -0.143
0.385 -0.117 -0.146
0.409 -0.120 -0.155
0.415 -0.118 -0.156
0.421 -0.116 -0.159
0.383 -0.080 -0.143
0.379 -0.076 -0.142
0.307 -0.055 -0.115
0.296 -0.051 -0.111
0.295 -0.048 -0.110
0.298 -0.045 -0.111
0.299 -0.043 -0.112
0.297 -0.040 -0.111
0.293 -0.036 -0.109
0.295 -0.034 -0.110
0.293 -0.031 -0.109
0.290 -0.028 -0.108
0.292 -0.026 -0.109
0.291 -0.023 -0.108
0.298 -0.021 -0.111
0.304 -0.018 -0.113
0.310 -0.016 -0.115
0.308 -0.013 -0.115
0.316 -0.010 -0.118
0.315 -0.007 -0.117
0.306 -0.004 -0.114
0.299 0.001 -0.111
0.304 0.004 -0.113
0.294 0.010 -0.110
0.304 0.013 -0.113
0.311 0.016 -0.116
0.296 0.018 -0.110
0.290 0.020 -0.108
0.294 0.023 -0.110
0.304 0.027 -0.113
0.302 0.029 -0.113
0.301 0.032 -0.112
0.304 0.035 -0.113
0.298 0.037 -0.111
0.286 0.039 -0.107
0.304 0.044 -0.114
0.308 0.047 -0.115
0.306 0.050 -0.115
0.304 0.052 -0.114
0.296 0.054 -0.111
0.320 0.064 -0.120
0.335 0.070 -0.126
0.318 0.073 -0.120
0.318 0.076 -0.120
0.307 0.076 -0.116
0.311 0.080 -0.118
0.312 0.084 -0.118
0.314 0.087 -0.119
0.308 0.089 -0.117
0.300 0.089 -0.114
0.292 0.090 -0.111
0.288 0.091 -0.110
0.301 0.098 -0.115
0.313 0.105 -0.119
0.303 0.105 -0.116
0.302 0.108 -0.116
0.314 0.115 -0.121
0.320 0.120 -0.123
0.313 0.121 -0.120
0.320 0.127 -0.123
0.322 0.131 -0.124
0.321 0.134 -0.124
0.319 0.137 -0.124
0.317 0.139 -0.123
0.311 0.140 -0.121
0.304 0.140 -0.119
0.307 0.145 -0.120
0.307 0.148 -0.120
0.306 0.150 -0.120
0.301 0.151 -0.118
0.309 0.159 -0.122
0.304 0.160 -0.120
0.336 0.196 -0.135
0.329 -0.440 -0.155
0.338 -0.447 -0.159
0.342 -0.446 -0.160
0.337 -0.434 -0.157
0.331 -0.421 -0.154
0.329 -0.412 -0.152
0.331 -0.410 -0.153
0.335 -0.409 -0.154
0.336 -0.404 -0.153
0.333 -0.395 -0.151
0.330 -0.386 -0.149
0.328 -0.378 -0.148
0.326 -0.370 -0.146
0.321 -0.359 -0.143
0.321 -0.354 -0.142
0.319 -0.346 -0.141
0.323 -0.345 -0.142
0.327 -0.344 -0.143
0.327 -0.339 -0.142
0.326 -0.332 -0.141
0.323 -0.324 -0.139
0.319 -0.316 -0.137
0.322 -0.314 -0.138
0.322 -0.308 -0.137
0.321 -0.303 -0.136
0.319 -0.296 -0.135
0.316 -0.289 -0.133
0.315 -0.283 -0.132
0.318 -0.281 -0.132
0.320 -0.279 -0.133
0.320 -0.274 -0.132
0.313 -0.264 -0.129
0.313 -0.260 -0.129
0.312 -0.255 -0.128
0.313 -0.251 -0.128
0.309 -0.244 -0.125
0.307 -0.238 -0.124
0.305 -0.233 -0.123
0.305 -0.229 -0.123
0.307 -0.226 -0.123
0.307 -0.222 -0.122
0.308 -0.220 -0.123
0.308 -0.216 -0.122
0.304 -0.209 -0.120
0.299 -0.202 -0.118
0.296 -0.196 -0.116
0.291 -0.190 -0.114
0.218 -0.135 -0.085
0.209 -0.126 -0.081
0.208 -0.123 -0.080
0.208 -0.122 -0.080
0.215 -0.123 -0.083
0.251 -0.141 -0.096
0.243 -0.134 -0.093
0.244 -0.131 -0.093
0.244 -0.129 -0.093
0.258 -0.133 -0.098
0.307 -0.155 -0.117
0.310 -0.154 -0.118
0.314 -0.152 -0.119
0.318 -0.151 -0.120
0.320 -0.149 -0.121
0.323 -0.147 -0.122
0.326 -0.144 -0.122
0.333 -0.144 -0.125
0.314 -0.130 -0.117
0.350 -0.130 -0.130
0.357 -0.129 -0.132
0.361 -0.127 -0.134
0.364 -0.125 -0.135
0.370 -0.123 -0.137
0.376 -0.122 -0.139
0.378 -0.118 -0.139
0.377 -0.115 -0.139
0.424 -0.121 -0.156
0.422 -0.116 -0.155
0.419 -0.111 -0.154
0.373 -0.078 -0.136
0.359 -0.071 -0.131
0.347 -0.066 -0.127
0.304 -0.055 -0.111
0.296 -0.051 -0.108
0.296 -0.048 -0.108
0.295 -0.045 -0.107
0.296 -0.042 -0.108
0.294 -0.039 -0.107
0.295 -0.037 -0.107
0.295 -0.034 -0.107
0.291 -0.031 -0.106
0.290 -0.028 -0.105
0.296 -0.026 -0.107
0.297 -0.023 -0.108
0.299 -0.021 -0.108
0.310 -0.019 -0.112
0.308 -0.016 -0.112
0.304 -0.013 -0.110
0.306 -0.010 -0.111
0.313 -0.004 -0.113
0.309 -0.001 -0.112
0.312 0.001 -0.113
0.308 0.004 -0.111
0.303 0.007 -0.110
0.314 0.010 -0.114
0.305 0.013 -0.111
0.300 0.015 -0.109
0.301 0.018 -0.109
0.292 0.020 -0.106
0.295 0.023 -0.107
0.303 0.027 -0.110
0.302 0.029 -0.110
0.307 0.033 -0.112
0.314 0.036 -0.114
0.302 0.038 -0.110
0.297 0.040 -0.108
0.312 0.045 -0.114
0.328 0.050 -0.120
0.319 0.052 -0.116
0.310 0.053 -0.113
0.290 0.052 -0.106
0.280 0.053 -0.102
0.294 0.059 -0.108
0.322 0.067 -0.118
0.328 0.072 -0.120
0.321 0.074 -0.118
0.316 0.075 -0.116
0.312 0.077 -0.115
0.297 0.077 -0.109
0.307 0.082 -0.113
0.318 0.088 -0.117
0.311 0.089 -0.115
0.309 0.092 -0.114
0.307 0.094 -0.114
0.307 0.097 -0.114
0.310 0.101 -0.115
0.315 0.106 -0.117
0.305 0.106 -0.114
0.296 0.106 -0.111
0.312 0.114 -0.116
0.313 0.118 -0.117
0.308 0.119 -0.115
0.316 0.125 -0.119
0.322 0.131 -0.121
0.322 0.134 -0.121
0.324 0.139 -0.122
0.320 0.140 -0.121
0.314 0.141 -0.119
0.310 0.142 -0.118
0.314 0.148 -0.120
0.312 0.150 -0.119
0.298 0.146 -0.114
0.316 0.159 -0.121
0.327 -0.437 -0.150
0.335 -0.442 -0.153
0.335 -0.437 -0.152
0.336 -0.432 -0.152
0.334 -0.424 -0.151
0.324 -0.406 -0.146
0.328 -0.405 -0.147
0.335 -0.408 -0.149
0.335 -0.402 -0.149
0.329 -0.389 -0.145
0.328 -0.382 -0.144
0.327 -0.376 -0.143
0.326 -0.369 -0.142
0.324 -0.361 -0.140
0.322 -0.353 -0.139
0.321 -0.347 -0.138
0.322 -0.343 -0.138
0.325 -0.341 -0.138
0.325 -0.336 -0.138
0.323 -0.329 -0.136
0.318 -0.319 -0.133
0.317 -0.313 -0.133
0.319 -0.310 -0.133
0.321 -0.307 -0.133
0.321 -0.302 -0.132
0.320 -0.296 -0.131
0.315 -0.287 -0.129
0.313 -0.281 -0.128
0.311 -0.274 -0.126
0.312 -0.271 -0.126
0.311 -0.266 -0.125
0.311 -0.262 -0.125
0.312 -0.258 -0.125
0.313 -0.255 -0.125
0.310 -0.248 -0.123
0.310 -0.244 -0.123
0.307 -0.238 -0.121
0.305 -0.233 -0.120
0.304 -0.228 -0.119
0.303 -0.223 -0.118
0.306 -0.222 -0.119
0.307 -0.219 -0.119
0.306 -0.214 -0.118
0.301 -0.207 -0.116
0.296 -0.200 -0.114
0.290 -0.192 -0.111
0.289 -0.188 -0.110
0.246 -0.154 -0.093
0.234 -0.144 -0.088
0.207 -0.125 -0.078
0.207 -0.123 -0.078
0.208 -0.121 -0.078
0.211 -0.120 -0.079
0.252 -0.141 -0.094
0.245 -0.134 -0.091
0.244 -0.131 -0.091
0.245 -0.129 -0.091
0.248 -0.128 -0.092
0.306 -0.155 -0.113
0.310 -0.153 -0.114
0.312 -0.151 -0.115
0.316 -0.150 -0.116
0.321 -0.149 -0.118
0.323 -0.147 -0.118
0.326 -0.144 -0.119
0.335 -0.145 -0.122
0.302 -0.125 -0.110
0.352 -0.131 -0.127
0.356 -0.129 -0.129
0.359 -0.127 -0.130
0.364 -0.125 -0.131
0.369 -0.123 -0.133
0.375 -0.121 -0.135
0.378 -0.118 -0.136
0.384 -0.116 -0.138
0.417 -0.122 -0.149
0.425 -0.121 -0.152
0.424 -0.117 -0.152
0.422 -0.112 -0.151
0.416 -0.106 -0.148
0.364 -0.076 -0.129
0.362 -0.072 -0.129
0.350 -0.066 -0.124
0.304 -0.055 -0.108
0.292 -0.050 -0.103
0.291 -0.047 -0.103
0.292 -0.044 -0.103
0.291 -0.042 -0.103
0.288 -0.038 -0.102
0.292 -0.036 -0.103
0.292 -0.034 -0.103
0.293 -0.031 -0.103
0.292 -0.028 -0.103
0.298 -0.026 -0.105
0.302 -0.024 -0.106
0.302 -0.021 -0.107
0.308 -0.018 -0.109
0.308 -0.016 -0.109
0.301 -0.012 -0.106
0.300 -0.010 -0.106
0.304 -0.007 -0.107
0.304 -0.004 -0.107
0.305 -0.001 -0.107
0.296 0.001 -0.104
0.291 0.004 -0.103
0.300 0.007 -0.106
0.308 0.010 -0.109
0.308 0.013 -0.109
0.309 0.016 -0.109
0.312 0.019 -0.110
0.308 0.021 -0.109
0.307 0.024 -0.109
0.309 0.027 -0.109
0.309 0.030 -0.109
0.312 0.033 -0.110
0.311 0.039 -0.110
0.310 0.042 -0.110
0.320 0.046 -0.113
0.323 0.049 -0.114
0.325 0.053 -0.115
0.317 0.054 -0.113
0.305 0.055 -0.108
0.287 0.055 -0.102
0.290 0.058 -0.103
0.315 0.066 -0.112
0.328 0.072 -0.117
0.330 0.075 -0.118
0.298 0.077 -0.107
0.317 0.085 -0.114
0.318 0.088 -0.114
0.311 0.089 -0.112
0.313 0.093 -0.113
0.316 0.097 -0.114
0.319 0.101 -0.115
0.311 0.101 -0.112
0.312 0.105 -0.113
0.316 0.109 -0.114
0.320 0.114 -0.116
0.309 0.113 -0.112
0.303 0.114 -0.110
0.298 0.115 -0.109
0.324 0.142 -0.119
0.317 0.142 -0.117
0.322 -0.436 -0.144
0.325 -0.434 -0.145
0.327 -0.431 -0.145
0.328 -0.427 -0.145
0.330 -0.424 -0.146
0.331 -0.420 -0.145
0.325 -0.407 -0.142
0.324 -0.400 -0.141
0.332 -0.404 -0.144
0.326 -0.390 -0.141
0.326 -0.385 -0.140
0.327 -0.381 -0.140
0.327 -0.376 -0.139
0.329 -0.372 -0.139
0.327 -0.364 -0.138
0.322 -0.353 -0.135
0.322 -0.348 -0.134
0.323 -0.343 -0.134
0.322 -0.338 -0.133
0.324 -0.334 -0.133
0.318 -0.323 -0.130
0.313 -0.313 -0.128
0.315 -0.310 -0.128
0.316 -0.306 -0.128
0.316 -0.302 -0.127
0.319 -0.300 -0.128
0.316 -0.292 -0.126
0.314 -0.285 -0.125
0.309 -0.276 -0.122
0.307 -0.271 -0.121
0.309 -0.268 -0.121
0.311 -0.265 -0.121
0.312 -0.262 -0.121
0.313 -0.258 -0.121
0.312 -0.254 -0.121
0.309 -0.247 -0.119
0.308 -0.242 -0.118
0.305 -0.236 -0.117
0.305 -0.232 -0.116
0.305 -0.228 -0.116
0.304 -0.223 -0.115
0.305 -0.220 -0.115
0.299 -0.212 -0.113
0.301 -0.210 -0.113
0.295 -0.202 -0.110
0.293 -0.197 -0.109
0.289 -0.191 -0.108
0.288 -0.187 -0.107
0.206 -0.125 -0.076
0.206 -0.122 -0.076
0.208 -0.121 -0.076
0.209 -0.119 -0.076
0.248 -0.139 -0.090
0.244 -0.134 -0.089
0.245 -0.131 -0.089
0.245 -0.129 -0.089
0.247 -0.127 -0.089
0.300 -0.152 -0.108
0.308 -0.152 -0.111
0.311 -0.151 -0.112
0.314 -0.149 -0.112
0.318 -0.147 -0.114
0.321 -0.145 -0.114
0.323 -0.143 -0.115
0.323 -0.140 -0.115
0.288 -0.118 -0.102
0.280 -0.112 -0.099
0.349 -0.130 -0.123
0.356 -0.129 -0.125
0.360 -0.127 -0.126
0.363 -0.124 -0.127
0.370 -0.123 -0.129
0.375 -0.121 -0.131
0.383 -0.120 -0.134
0.393 -0.119 -0.137
0.405 -0.119 -0.141
0.422 -0.120 -0.147
0.425 -0.116 -0.148
0.428 -0.113 -0.149
0.428 -0.109 -0.149
0.360 -0.078 -0.125
0.368 -0.077 -0.127
0.366 -0.073 -0.126
0.354 -0.067 -0.122
0.296 -0.053 -0.102
0.287 -0.049 -0.099
0.288 -0.046 -0.099
0.290 -0.044 -0.100
0.292 -0.042 -0.101
0.288 -0.038 -0.099
0.285 -0.035 -0.098
0.291 -0.033 -0.100
0.293 -0.031 -0.101
0.293 -0.028 -0.101
0.299 -0.026 -0.103
0.303 -0.024 -0.104
0.304 -0.021 -0.104
0.302 -0.018 -0.103
0.301 -0.015 -0.103
0.306 -0.013 -0.105
0.302 -0.010 -0.104
0.308 -0.007 -0.106
0.301 -0.004 -0.103
0.297 -0.001 -0.102
0.293 0.001 -0.101
0.292 0.004 -0.100
0.291 0.007 -0.100
0.309 0.010 -0.106
0.308 0.013 -0.106
0.320 0.016 -0.110
0.340 0.020 -0.117
0.340 0.023 -0.117
0.299 0.023 -0.103
0.310 0.027 -0.106
0.314 0.030 -0.108
0.309 0.033 -0.106
0.316 0.036 -0.109
0.325 0.040 -0.112
0.318 0.043 -0.109
0.312 0.045 -0.108
0.309 0.047 -0.107
0.313 0.051 -0.108
0.326 0.056 -0.113
0.318 0.057 -0.110
0.306 0.061 -0.106
0.310 0.065 -0.108
0.316 0.069 -0.109
0.304 0.069 -0.106
0.298 0.071 -0.104
0.303 0.075 -0.106
0.318 0.085 -0.111
0.312 0.086 -0.109
0.305 0.087 -0.106
0.314 0.093 -0.110
0.331 0.101 -0.116
0.315 0.099 -0.110
0.305 0.099 -0.107
0.308 0.103 -0.108
0.318 0.110 -0.112
0.326 0.116 -0.115
0.326 0.119 -0.115
0.305 0.115 -0.108
0.295 0.114 -0.105
0.347 0.152 -0.124
0.354 0.158 -0.127
0.351 0.187 -0.128
0.354 0.201 -0.130
0.324 -0.438 -0.141
0.331 -0.442 -0.144
0.327 -0.431 -0.141
0.325 -0.423 -0.140
0.326 -0.418 -0.140
0.326 -0.413 -0.139
0.324 -0.404 -0.138
0.324 -0.399 -0.137
0.329 -0.399 -0.138
0.322 -0.385 -0.135
0.320 -0.378 -0.134
0.322 -0.374 -0.134
0.329 -0.376 -0.136
0.326 -0.367 -0.134
0.325 -0.362 -0.133
0.323 -0.353 -0.131
0.321 -0.346 -0.130
0.321 -0.341 -0.130
0.321 -0.336 -0.129
0.319 -0.328 -0.127
0.312 -0.317 -0.124
0.311 -0.310 -0.123
0.312 -0.307 -0.123
0.312 -0.302 -0.123
0.314 -0.299 -0.123
0.315 -0.296 -0.123
0.314 -0.290 -0.122
0.312 -0.283 -0.120
0.305 -0.273 -0.117
0.306 -0.270 -0.117
0.309 -0.268 -0.118
0.313 -0.266 -0.119
0.314 -0.263 -0.119
0.313 -0.258 -0.118
0.309 -0.250 -0.116
0.307 -0.245 -0.115
0.307 -0.241 -0.115
0.304 -0.235 -0.113
0.303 -0.230 -0.112
0.306 -0.228 -0.113
0.304 -0.223 -0.112
0.299 -0.216 -0.110
0.295 -0.209 -0.108
0.230 -0.147 -0.083
0.227 -0.142 -0.081
0.225 -0.138 -0.081
0.208 -0.125 -0.074
0.207 -0.123 -0.074
0.208 -0.121 -0.074
0.208 -0.119 -0.074
0.235 -0.131 -0.083
0.244 -0.134 -0.086
0.244 -0.131 -0.086
0.245 -0.129 -0.086
0.247 -0.127 -0.086
0.307 -0.152 -0.107
0.310 -0.150 -0.108
0.314 -0.148 -0.109
0.316 -0.146 -0.110
0.318 -0.144 -0.110
0.321 -0.142 -0.111
0.322 -0.139 -0.111
0.296 -0.125 -0.102
0.285 -0.117 -0.098
0.281 -0.107 -0.096
0.357 -0.129 -0.122
0.360 -0.126 -0.123
0.364 -0.124 -0.124
0.369 -0.122 -0.125
0.379 -0.122 -0.129
0.390 -0.122 -0.132
0.401 -0.121 -0.136
0.409 -0.120 -0.138
0.418 -0.118 -0.141
0.424 -0.116 -0.143
0.430 -0.114 -0.145
0.437 -0.111 -0.147
0.428 -0.105 -0.144
0.373 -0.081 -0.125
0.384 -0.080 -0.129
0.384 -0.076 -0.129
0.293 -0.053 -0.098
0.288 -0.049 -0.096
0.287 -0.046 -0.096
0.293 -0.044 -0.098
0.298 -0.042 -0.100
0.290 -0.039 -0.097
0.289 -0.036 -0.097
0.294 -0.034 -0.098
0.295 -0.031 -0.099
0.294 -0.028 -0.098
0.295 -0.026 -0.099
0.303 -0.024 -0.101
0.298 -0.020 -0.099
0.297 -0.018 -0.099
0.294 -0.015 -0.098
0.301 -0.012 -0.100
0.313 -0.010 -0.104
0.308 -0.007 -0.103
0.303 -0.004 -0.101
0.303 -0.001 -0.101
0.307 0.001 -0.102
0.308 0.004 -0.103
0.301 0.007 -0.100
0.296 0.010 -0.099
0.314 0.013 -0.105
0.319 0.016 -0.106
0.331 0.020 -0.111
0.327 0.023 -0.109
0.297 0.023 -0.099
0.303 0.026 -0.101
0.307 0.030 -0.103
0.306 0.032 -0.102
0.314 0.036 -0.105
0.318 0.040 -0.107
0.313 0.042 -0.105
0.304 0.043 -0.102
0.304 0.046 -0.102
0.307 0.050 -0.103
0.328 0.056 -0.110
0.328 0.059 -0.110
0.323 0.061 -0.109
0.308 0.061 -0.104
0.310 0.065 -0.105
0.307 0.067 -0.103
0.299 0.068 -0.101
0.307 0.073 -0.104
0.318 0.079 -0.108
0.325 0.083 -0.110
0.321 0.085 -0.109
0.306 0.084 -0.104
0.302 0.086 -0.103
0.320 0.095 -0.109
0.329 0.100 -0.112
0.317 0.100 -0.108
0.311 0.101 -0.106
0.312 0.104 -0.107
0.322 0.111 -0.110
0.330 0.117 -0.113
0.334 0.122 -0.115
0.322 0.121 -0.111
0.349 0.152 -0.121
0.349 0.156 -0.121
0.341 0.174 -0.120
0.368 0.200 -0.131
0.358 0.207 -0.128
0.322 -0.434 -0.136
0.329 -0.438 -0.138
0.326 -0.429 -0.137
0.327 -0.424 -0.136
0.329 -0.421 -0.137
0.322 -0.408 -0.134
0.321 -0.400 -0.132
0.324 -0.398 -0.133
0.323 -0.391 -0.132
0.321 -0.384 -0.131
0.319 -0.376 -0.129
0.320 -0.372 -0.129
0.318 -0.364 -0.128
0.319 -0.359 -0.127
0.322 -0.357 -0.128
0.323 -0.353 -0.128
0.321 -0.345 -0.126
0.319 -0.338 -0.125
0.320 -0.334 -0.125
0.319 -0.328 -0.124
0.316 -0.320 -0.122
0.312 -0.311 -0.120
0.312 -0.306 -0.120
0.313 -0.302 -0.119
0.312 -0.296 -0.118
0.313 -0.293 -0.118
0.313 -0.288 -0.118
0.310 -0.281 -0.116
0.308 -0.275 -0.115
0.305 -0.268 -0.113
0.309 -0.267 -0.115
0.312 -0.265 -0.115
0.313 -0.262 -0.115
0.312 -0.257 -0.114
0.307 -0.249 -0.112
0.307 -0.244 -0.112
0.305 -0.239 -0.111
0.304 -0.234 -0.110
0.302 -0.229 -0.109
0.300 -0.224 -0.108
0.299 -0.219 -0.107
0.297 -0.214 -0.106
0.208 -0.142 -0.073
0.207 -0.139 -0.073
0.208 -0.137 -0.073
0.210 -0.136 -0.074
0.225 -0.143 -0.079
0.226 -0.141 -0.079
0.227 -0.139 -0.079
0.215 -0.129 -0.074
0.208 -0.123 -0.072
0.208 -0.121 -0.072
0.209 -0.119 -0.072
0.218 -0.122 -0.075
0.243 -0.133 -0.083
0.244 -0.131 -0.083
0.245 -0.129 -0.084
0.246 -0.127 -0.084
0.254 -0.128 -0.086
0.306 -0.151 -0.103
0.309 -0.149 -0.105
0.312 -0.147 -0.105
0.315 -0.145 -0.106
0.317 -0.143 -0.107
0.318 -0.140 -0.107
0.311 -0.134 -0.104
0.272 -0.112 -0.091
0.263 -0.103 -0.088
0.276 -0.105 -0.092
0.351 -0.127 -0.117
0.359 -0.126 -0.119
0.364 -0.124 -0.120
0.371 -0.123 -0.123
0.383 -0.123 -0.126
0.391 -0.122 -0.129
0.399 -0.121 -0.131
0.405 -0.119 -0.133
0.412 -0.117 -0.135
0.425 -0.116 -0.139
0.434 -0.115 -0.142
0.435 -0.111 -0.142
0.440 -0.108 -0.144
0.376 -0.082 -0.123
0.387 -0.080 -0.126
0.391 -0.077 -0.128
0.385 -0.073 -0.125
0.297 -0.053 -0.097
0.288 -0.049 -0.094
0.290 -0.047 -0.094
0.293 -0.044 -0.095
0.292 -0.042 -0.095
0.294 -0.039 -0.095
0.300 -0.037 -0.097
0.300 -0.034 -0.097
0.298 -0.031 -0.097
0.294 -0.028 -0.095
0.289 -0.025 -0.094
0.288 -0.022 -0.093
0.292 -0.020 -0.095
0.290 -0.017 -0.094
0.288 -0.014 -0.093
0.289 -0.012 -0.094
0.305 -0.010 -0.099
0.315 -0.007 -0.102
0.312 -0.004 -0.101
0.319 -0.001 -0.103
0.328 0.002 -0.106
0.326 0.004 -0.106
0.295 0.007 -0.095
0.302 0.010 -0.098
0.303 0.013 -0.098
0.310 0.016 -0.101
0.315 0.019 -0.102
0.312 0.021 -0.101
0.306 0.024 -0.099
0.302 0.026 -0.098
0.301 0.029 -0.098
0.304 0.032 -0.099
0.313 0.036 -0.102
0.312 0.039 -0.101
0.313 0.042 -0.102
0.305 0.044 -0.099
0.303 0.046 -0.099
0.312 0.050 -0.102
0.317 0.054 -0.103
0.323 0.058 -0.106
0.320 0.061 -0.105
0.322 0.064 -0.105
0.308 0.064 -0.101
0.306 0.067 -0.100
0.318 0.072 -0.104
0.313 0.074 -0.103
0.325 0.080 -0.107
0.318 0.081 -0.105
0.316 0.084 -0.104
0.327 0.090 -0.108
0.311 0.089 -0.103
0.305 0.090 -0.101
0.316 0.096 -0.105
0.316 0.099 -0.105
0.314 0.102 -0.104
0.323 0.108 -0.107
0.328 0.113 -0.109
0.328 0.116 -0.109
0.332 0.121 -0.111
0.326 0.122 -0.109
0.319 0.123 -0.107
0.351 0.179 -0.120
0.351 0.187 -0.121
0.338 0.184 -0.117
0.324 -0.442 -0.133
0.323 -0.435 -0.132
0.320 -0.426 -0.131
0.323 -0.425 -0.131
0.327 -0.425 -0.133
0.325 -0.416 -0.131
0.322 -0.407 -0.129
0.321 -0.399 -0.128
0.321 -0.394 -0.128
0.323 -0.391 -0.128
0.323 -0.386 -0.128
0.322 -0.379 -0.127
0.319 -0.369 -0.125
0.321 -0.366 -0.125
0.320 -0.360 -0.124
0.320 -0.355 -0.124
0.322 -0.351 -0.123
0.320 -0.344 -0.122
0.317 -0.335 -0.120
0.315 -0.329 -0.119
0.321 -0.330 -0.121
0.314 -0.317 -0.118
0.313 -0.312 -0.117
0.313 -0.307 -0.116
0.312 -0.301 -0.115
0.308 -0.292 -0.113
0.310 -0.290 -0.114
0.311 -0.286 -0.114
0.310 -0.281 -0.113
0.307 -0.273 -0.111
0.305 -0.267 -0.110
0.304 -0.262 -0.109
0.307 -0.261 -0.110
0.308 -0.257 -0.110
0.306 -0.251 -0.108
0.305 -0.246 -0.108
0.305 -0.243 -0.108
0.303 -0.237 -0.106
0.302 -0.232 -0.106
0.301 -0.228 -0.105
0.298 -0.222 -0.104
0.299 -0.219 -0.104
0.221 -0.154 -0.076
0.210 -0.143 -0.072
0.208 -0.140 -0.071
0.208 -0.137 -0.071
0.209 -0.136 -0.071
0.224 -0.143 -0.076
0.226 -0.141 -0.076
0.226 -0.138 -0.076
0.219 -0.132 -0.074
0.208 -0.123 -0.070
0.208 -0.121 -0.070
0.209 -0.119 -0.070
0.219 -0.122 -0.073
0.240 -0.131 -0.080
0.245 -0.131 -0.081
0.245 -0.128 -0.081
0.245 -0.126 -0.081
0.249 -0.125 -0.082
0.299 -0.147 -0.098
0.309 -0.149 -0.101
0.312 -0.147 -0.102
0.314 -0.145 -0.103
0.316 -0.143 -0.103
0.318 -0.140 -0.103
0.306 -0.132 -0.099
0.288 -0.121 -0.094
0.280 -0.115 -0.091
0.355 -0.128 -0.114
0.358 -0.125 -0.115
0.363 -0.124 -0.116
0.374 -0.124 -0.120
0.383 -0.123 -0.123
0.392 -0.122 -0.126
0.400 -0.121 -0.128
0.406 -0.119 -0.130
0.414 -0.117 -0.132
0.422 -0.115 -0.134
0.427 -0.113 -0.136
0.433 -0.110 -0.138
0.444 -0.109 -0.141
0.373 -0.081 -0.118
0.390 -0.081 -0.123
0.392 -0.077 -0.124
0.295 -0.053 -0.093
0.293 -0.050 -0.092
0.289 -0.046 -0.091
0.291 -0.044 -0.092
0.291 -0.041 -0.092
0.292 -0.039 -0.092
0.298 -0.037 -0.094
0.303 -0.035 -0.095
0.303 -0.032 -0.095
0.293 -0.028 -0.092
0.283 -0.025 -0.089
0.278 -0.022 -0.088
0.285 -0.020 -0.090
0.296 -0.018 -0.093
0.291 -0.015 -0.092
0.295 -0.012 -0.093
0.299 -0.010 -0.094
0.310 -0.007 -0.098
0.320 -0.004 -0.100
0.333 -0.002 -0.105
0.329 0.002 -0.103
0.306 0.004 -0.096
0.316 0.007 -0.099
0.308 0.010 -0.097
0.309 0.013 -0.097
0.307 0.015 -0.097
0.305 0.018 -0.096
0.326 0.022 -0.103
0.326 0.025 -0.103
0.318 0.028 -0.100
0.312 0.030 -0.098
0.312 0.033 -0.098
0.313 0.036 -0.099
0.320 0.040 -0.101
0.319 0.043 -0.101
0.313 0.045 -0.099
0.308 0.047 -0.097
0.308 0.050 -0.098
0.313 0.053 -0.099
0.318 0.057 -0.101
0.323 0.061 -0.102
0.319 0.063 -0.101
0.311 0.065 -0.099
0.309 0.067 -0.098
0.309 0.070 -0.098
0.328 0.078 -0.105
0.328 0.081 -0.104
0.314 0.089 -0.101
0.308 0.091 -0.099
0.312 0.095 -0.100
0.309 0.097 -0.099
0.317 0.103 -0.102
0.327 0.109 -0.105
0.332 0.114 -0.107
0.328 0.116 -0.106
0.328 0.119 -0.106
0.323 0.121 -0.105
0.319 0.122 -0.103
0.377 0.209 -0.127
0.326 -0.445 -0.130
0.321 -0.432 -0.127
0.320 -0.425 -0.127
0.323 -0.424 -0.127
0.322 -0.417 -0.126
0.316 -0.404 -0.124
0.316 -0.399 -0.123
0.322 -0.400 -0.125
0.324 -0.397 -0.125
0.323 -0.391 -0.124
0.324 -0.385 -0.124
0.320 -0.375 -0.122
0.321 -0.371 -0.122
0.320 -0.364 -0.121
0.320 -0.359 -0.120
0.320 -0.354 -0.119
0.319 -0.348 -0.119
0.316 -0.339 -0.117
0.312 -0.330 -0.115
0.311 -0.324 -0.114
0.311 -0.318 -0.113
0.311 -0.314 -0.113
0.312 -0.310 -0.113
0.313 -0.306 -0.113
0.311 -0.300 -0.111
0.307 -0.291 -0.110
0.306 -0.286 -0.109
0.310 -0.285 -0.110
0.308 -0.278 -0.108
0.306 -0.272 -0.107
0.304 -0.266 -0.106
0.301 -0.259 -0.105
0.302 -0.256 -0.105
0.304 -0.254 -0.105
0.304 -0.249 -0.104
0.303 -0.245 -0.104
0.301 -0.239 -0.103
0.300 -0.234 -0.102
0.300 -0.231 -0.102
0.298 -0.225 -0.101
0.297 -0.220 -0.100
0.297 -0.217 -0.100
0.292 -0.210 -0.098
0.210 -0.143 -0.070
0.208 -0.139 -0.069
0.208 -0.137 -0.069
0.209 -0.135 -0.069
0.225 -0.143 -0.074
0.225 -0.140 -0.074
0.226 -0.139 -0.074
0.223 -0.134 -0.073
0.209 -0.123 -0.068
0.208 -0.120 -0.067
0.209 -0.118 -0.068
0.210 -0.117 -0.068
0.240 -0.131 -0.077
0.243 -0.130 -0.078
0.245 -0.128 -0.078
0.245 -0.125 -0.078
0.245 -0.123 -0.078
0.309 -0.149 -0.098
0.312 -0.147 -0.099
0.315 -0.145 -0.100
0.317 -0.143 -0.100
0.318 -0.140 -0.100
0.301 -0.129 -0.095
0.289 -0.121 -0.091
0.290 -0.119 -0.091
0.285 -0.108 -0.089
0.291 -0.108 -0.091
0.354 -0.128 -0.111
0.358 -0.125 -0.112
0.363 -0.124 -0.113
0.376 -0.124 -0.117
0.386 -0.124 -0.120
0.390 -0.122 -0.121
0.403 -0.122 -0.125
0.411 -0.120 -0.127
0.416 -0.117 -0.129
0.420 -0.115 -0.130
0.423 -0.111 -0.130
0.429 -0.109 -0.132
0.444 -0.108 -0.137
0.441 -0.104 -0.136
0.381 -0.082 -0.117
0.392 -0.081 -0.120
0.384 -0.076 -0.118
0.292 -0.052 -0.089
0.291 -0.049 -0.089
0.291 -0.047 -0.089
0.289 -0.044 -0.088
0.292 -0.041 -0.089
0.288 -0.038 -0.088
0.290 -0.036 -0.089
0.296 -0.034 -0.090
0.298 -0.031 -0.091
0.299 -0.029 -0.091
0.287 -0.025 -0.087
0.280 -0.022 -0.085
0.288 -0.020 -0.088
0.301 -0.018 -0.092
0.303 -0.015 -0.092
0.297 -0.012 -0.091
0.309 -0.010 -0.094
0.321 -0.007 -0.098
0.331 -0.005 -0.101
0.323 -0.001 -0.098
0.318 0.001 -0.097
0.309 0.004 -0.094
0.301 0.007 -0.092
0.312 0.010 -0.095
0.313 0.013 -0.095
0.314 0.016 -0.096
0.322 0.019 -0.098
0.330 0.023 -0.101
0.336 0.026 -0.102
0.327 0.032 -0.100
0.314 0.033 -0.096
0.315 0.036 -0.096
0.319 0.040 -0.098
0.322 0.043 -0.099
0.319 0.045 -0.098
0.314 0.048 -0.096
0.310 0.050 -0.095
0.314 0.053 -0.096
0.322 0.058 -0.099
0.317 0.060 -0.097
0.312 0.062 -0.096
0.312 0.065 -0.096
0.312 0.068 -0.096
0.311 0.071 -0.096
0.323 0.076 -0.100
0.334 0.082 -0.103
0.313 0.080 -0.097
0.309 0.082 -0.096
0.308 0.085 -0.096
0.317 0.090 -0.098
0.312 0.092 -0.097
0.319 0.097 -0.099
0.315 0.102 -0.098
0.316 0.105 -0.099
0.325 0.111 -0.102
0.325 0.115 -0.102
0.321 0.117 -0.101
0.317 0.118 -0.100
0.316 0.121 -0.100
0.326 0.145 -0.104
0.320 0.146 -0.102
0.326 0.191 -0.107
0.319 -0.434 -0.123
0.317 -0.426 -0.122
0.319 -0.424 -0.123
0.319 -0.419 -0.122
0.317 -0.411 -0.121
0.312 -0.398 -0.118
0.314 -0.395 -0.118
0.322 -0.400 -0.121
0.324 -0.397 -0.121
0.324 -0.390 -0.120
0.320 -0.381 -0.119
0.320 -0.375 -0.118
0.318 -0.368 -0.117
0.316 -0.360 -0.116
0.313 -0.351 -0.114
0.317 -0.350 -0.115
0.311 -0.339 -0.112
0.312 -0.334 -0.112
0.310 -0.327 -0.111
0.311 -0.323 -0.110
0.310 -0.318 -0.110
0.310 -0.312 -0.109
0.311 -0.308 -0.109
0.311 -0.303 -0.108
0.310 -0.298 -0.107
0.308 -0.292 -0.106
0.307 -0.286 -0.106
0.306 -0.280 -0.105
0.307 -0.277 -0.105
0.306 -0.272 -0.104
0.304 -0.266 -0.103
0.302 -0.260 -0.102
0.303 -0.256 -0.102
0.304 -0.253 -0.102
0.304 -0.249 -0.101
0.303 -0.244 -0.101
0.299 -0.237 -0.099
0.298 -0.233 -0.098
0.298 -0.228 -0.098
0.296 -0.223 -0.097
0.294 -0.218 -0.096
0.292 -0.213 -0.095
0.291 -0.209 -0.094
0.211 -0.143 -0.068
0.209 -0.140 -0.067
0.209 -0.137 -0.067
0.209 -0.135 -0.067
0.222 -0.140 -0.070
0.225 -0.140 -0.071
0.225 -0.137 -0.071
0.229 -0.137 -0.072
0.210 -0.124 -0.066
0.207 -0.119 -0.065
0.208 -0.118 -0.065
0.210 -0.117 -0.066
0.240 -0.131 -0.075
0.243 -0.130 -0.076
0.244 -0.128 -0.076
0.243 -0.125 -0.075
0.245 -0.123 -0.076
0.256 -0.126 -0.079
0.308 -0.148 -0.095
0.311 -0.146 -0.096
0.314 -0.144 -0.096
0.317 -0.143 -0.097
0.320 -0.140 -0.098
0.304 -0.131 -0.093
0.295 -0.124 -0.090
0.286 -0.117 -0.087
0.277 -0.111 -0.084
0.276 -0.107 -0.084
0.274 -0.104 -0.083
0.281 -0.104 -0.085
0.349 -0.125 -0.105
0.354 -0.124 -0.107
0.369 -0.125 -0.111
0.375 -0.124 -0.113
0.383 -0.123 -0.115
0.391 -0.122 -0.118
0.397 -0.119 -0.119
0.409 -0.119 -0.122
0.414 -0.117 -0.124
0.419 -0.114 -0.125
0.423 -0.111 -0.127
0.430 -0.109 -0.129
0.442 -0.108 -0.132
0.381 -0.082 -0.113
0.402 -0.083 -0.119
0.389 -0.077 -0.116
0.284 -0.051 -0.084
0.289 -0.049 -0.086
0.293 -0.047 -0.087
0.291 -0.044 -0.086
0.285 -0.040 -0.085
0.294 -0.039 -0.087
0.292 -0.036 -0.086
0.292 -0.033 -0.086
0.304 -0.032 -0.090
0.303 -0.029 -0.090
0.295 -0.026 -0.087
0.289 -0.022 -0.085
0.303 -0.021 -0.090
0.309 -0.018 -0.091
0.309 -0.016 -0.091
0.314 -0.013 -0.093
0.346 -0.011 -0.102
0.335 -0.008 -0.099
0.321 -0.004 -0.095
0.324 -0.001 -0.096
0.300 0.001 -0.089
0.302 0.004 -0.089
0.308 0.007 -0.091
0.310 0.010 -0.092
0.313 0.013 -0.093
0.318 0.016 -0.094
0.323 0.019 -0.095
0.331 0.023 -0.098
0.305 0.024 -0.090
0.304 0.026 -0.090
0.304 0.029 -0.090
0.305 0.032 -0.090
0.306 0.035 -0.091
0.307 0.038 -0.091
0.306 0.041 -0.091
0.309 0.044 -0.092
0.317 0.048 -0.094
0.315 0.051 -0.094
0.316 0.054 -0.094
0.322 0.058 -0.096
0.321 0.061 -0.096
0.313 0.062 -0.093
0.311 0.064 -0.093
0.319 0.069 -0.095
0.313 0.071 -0.094
0.317 0.075 -0.095
0.325 0.080 -0.097
0.326 0.083 -0.098
0.304 0.081 -0.091
0.303 0.083 -0.091
0.308 0.087 -0.093
0.314 0.092 -0.095
0.329 0.100 -0.099
0.333 0.104 -0.101
0.319 0.103 -0.097
0.310 0.103 -0.094
0.314 0.108 -0.095
0.314 0.111 -0.095
0.312 0.113 -0.095
0.325 0.121 -0.099
0.326 0.145 -0.101
0.324 0.147 -0.100
0.335 0.163 -0.104
0.364 0.201 -0.115
0.310 -0.422 -0.116
0.315 -0.424 -0.118
0.315 -0.417 -0.117
0.312 -0.409 -0.116
0.312 -0.403 -0.115
0.312 -0.398 -0.114
0.311 -0.391 -0.113
0.316 -0.391 -0.115
0.321 -0.392 -0.116
0.321 -0.387 -0.116
0.320 -0.380 -0.115
0.317 -0.371 -0.113
0.316 -0.365 -0.112
0.313 -0.356 -0.111
0.313 -0.351 -0.110
0.311 -0.343 -0.109
0.312 -0.339 -0.109
0.310 -0.331 -0.107
0.311 -0.328 -0.107
0.311 -0.322 -0.107
0.311 -0.318 -0.106
0.310 -0.312 -0.106
0.310 -0.307 -0.105
0.307 -0.300 -0.104
0.305 -0.293 -0.102
0.307 -0.290 -0.103
0.307 -0.286 -0.102
0.305 -0.279 -0.101
0.306 -0.275 -0.101
0.307 -0.272 -0.101
0.304 -0.266 -0.100
0.305 -0.262 -0.099
0.304 -0.257 -0.099
0.302 -0.251 -0.098
0.303 -0.248 -0.098
0.304 -0.245 -0.098
0.299 -0.236 -0.096
0.296 -0.231 -0.095
0.295 -0.226 -0.094
0.293 -0.221 -0.093
0.288 -0.214 -0.091
0.283 -0.206 -0.089
0.279 -0.200 -0.088
0.214 -0.146 -0.067
0.209 -0.140 -0.065
0.209 -0.137 -0.065
0.210 -0.135 -0.065
0.221 -0.140 -0.068
0.223 -0.139 -0.068
0.223 -0.136 -0.068
0.225 -0.135 -0.069
0.215 -0.127 -0.066
0.207 -0.119 -0.063
0.208 -0.118 -0.063
0.210 -0.117 -0.064
0.227 -0.124 -0.069
0.243 -0.130 -0.073
0.244 -0.127 -0.073
0.243 -0.124 -0.073
0.245 -0.123 -0.073
0.249 -0.122 -0.074
0.306 -0.147 -0.091
0.309 -0.145 -0.092
0.313 -0.144 -0.093
0.316 -0.142 -0.094
0.320 -0.140 -0.095
0.312 -0.134 -0.092
0.295 -0.124 -0.087
0.282 -0.115 -0.083
0.267 -0.107 -0.079
0.266 -0.103 -0.078
0.269 -0.102 -0.079
0.270 -0.100 -0.079
0.349 -0.125 -0.102
0.353 -0.123 -0.103
0.370 -0.126 -0.108
0.376 -0.124 -0.110
0.380 -0.122 -0.111
0.384 -0.119 -0.112
0.395 -0.119 -0.115
0.401 -0.117 -0.116
0.410 -0.116 -0.119
0.417 -0.114 -0.121
0.427 -0.112 -0.124
0.438 -0.111 -0.127
0.442 -0.108 -0.128
0.392 -0.088 -0.113
0.392 -0.085 -0.113
0.383 -0.079 -0.110
0.370 -0.073 -0.107
0.374 -0.070 -0.108
0.282 -0.050 -0.081
0.285 -0.048 -0.082
0.293 -0.047 -0.084
0.289 -0.044 -0.083
0.289 -0.041 -0.083
0.293 -0.039 -0.084
0.296 -0.037 -0.085
0.296 -0.034 -0.085
0.306 -0.032 -0.088
0.306 -0.029 -0.087
0.302 -0.026 -0.086
0.301 -0.023 -0.086
0.311 -0.021 -0.089
0.317 -0.019 -0.091
0.323 -0.016 -0.092
0.341 -0.014 -0.098
0.338 -0.011 -0.097
0.316 -0.007 -0.090
0.321 -0.004 -0.092
0.303 -0.001 -0.087
0.307 0.001 -0.088
0.311 0.004 -0.089
0.315 0.007 -0.090
0.314 0.010 -0.090
0.310 0.013 -0.089
0.304 0.015 -0.087
0.303 0.018 -0.087
0.304 0.021 -0.087
0.306 0.024 -0.088
0.306 0.027 -0.088
0.306 0.029 -0.088
0.307 0.032 -0.088
0.308 0.035 -0.088
0.308 0.038 -0.088
0.308 0.041 -0.088
0.308 0.044 -0.089
0.308 0.047 -0.089
0.308 0.050 -0.089
0.312 0.053 -0.090
0.316 0.057 -0.091
0.325 0.061 -0.094
0.320 0.063 -0.092
0.315 0.065 -0.091
0.317 0.069 -0.092
0.318 0.072 -0.092
0.316 0.074 -0.092
0.316 0.078 -0.092
0.320 0.082 -0.093
0.308 0.082 -0.090
0.304 0.083 -0.088
0.303 0.086 -0.088
0.310 0.091 -0.090
0.316 0.096 -0.092
0.316 0.099 -0.092
0.310 0.100 -0.091
0.316 0.105 -0.093
0.307 0.105 -0.090
0.308 0.108 -0.090
0.318 0.115 -0.094
0.333 0.124 -0.098
0.322 0.143 -0.096
0.330 0.150 -0.099
0.345 0.179 -0.105
0.359 0.194 -0.109
0.351 0.193 -0.107
0.341 0.192 -0.104
0.339 0.195 -0.104
0.342 0.200 -0.105
0.350 0.209 -0.108
0.364 0.222 -0.113
0.305 -0.421 -0.111
0.309 -0.420 -0.112
0.311 -0.418 -0.112
0.312 -0.414 -0.112
0.311 -0.406 -0.111
0.310 -0.400 -0.110
0.309 -0.393 -0.110
0.311 -0.390 -0.110
0.314 -0.389 -0.110
0.318 -0.389 -0.111
0.319 -0.384 -0.111
0.317 -0.376 -0.110
0.316 -0.369 -0.109
0.314 -0.362 -0.108
0.316 -0.358 -0.108
0.313 -0.350 -0.106
0.313 -0.345 -0.106
0.310 -0.336 -0.104
0.311 -0.332 -0.104
0.310 -0.327 -0.104
0.311 -0.323 -0.103
0.311 -0.317 -0.103
0.311 -0.312 -0.102
0.310 -0.306 -0.101
0.306 -0.298 -0.100
0.305 -0.293 -0.099
0.305 -0.288 -0.099
0.303 -0.282 -0.098
0.303 -0.277 -0.097
0.305 -0.275 -0.097
0.304 -0.269 -0.097
0.305 -0.266 -0.097
0.304 -0.261 -0.096
0.302 -0.255 -0.095
0.298 -0.248 -0.093
0.299 -0.245 -0.093
0.302 -0.242 -0.094
0.297 -0.235 -0.092
0.293 -0.228 -0.090
0.292 -0.223 -0.090
0.290 -0.218 -0.089
0.289 -0.214 -0.088
0.249 -0.178 -0.075
0.238 -0.167 -0.072
0.237 -0.164 -0.071
0.214 -0.145 -0.064
0.208 -0.139 -0.063
0.208 -0.136 -0.062
0.208 -0.134 -0.062
0.215 -0.136 -0.064
0.223 -0.139 -0.066
0.225 -0.137 -0.067
0.223 -0.133 -0.066
0.220 -0.129 -0.065
0.208 -0.120 -0.061
0.208 -0.118 -0.061
0.209 -0.116 -0.061
0.223 -0.121 -0.065
0.242 -0.129 -0.071
0.243 -0.127 -0.071
0.243 -0.124 -0.070
0.244 -0.122 -0.071
0.248 -0.122 -0.072
0.304 -0.146 -0.088
0.309 -0.145 -0.089
0.312 -0.143 -0.090
0.316 -0.142 -0.091
0.320 -0.140 -0.092
0.307 -0.132 -0.088
0.301 -0.126 -0.086
0.272 -0.111 -0.078
0.261 -0.104 -0.074
0.261 -0.101 -0.074
0.265 -0.100 -0.075
0.265 -0.098 -0.075
0.349 -0.125 -0.099
0.355 -0.124 -0.100
0.369 -0.125 -0.104
0.376 -0.124 -0.106
0.379 -0.121 -0.107
0.383 -0.119 -0.108
0.389 -0.117 -0.109
0.399 -0.116 -0.112
0.408 -0.115 -0.114
0.416 -0.113 -0.116
0.423 -0.111 -0.118
0.439 -0.111 -0.123
0.447 -0.109 -0.125
0.451 -0.106 -0.126
0.408 -0.088 -0.114
0.379 -0.078 -0.106
0.370 -0.073 -0.103
0.369 -0.069 -0.103
0.283 -0.050 -0.079
0.283 -0.048 -0.079
0.286 -0.046 -0.080
0.292 -0.044 -0.081
0.291 -0.041 -0.081
0.293 -0.039 -0.081
0.298 -0.037 -0.082
0.298 -0.034 -0.083
0.288 -0.030 -0.080
0.310 -0.030 -0.086
0.306 -0.027 -0.085
0.306 -0.024 -0.085
0.309 -0.021 -0.086
0.316 -0.019 -0.087
0.334 -0.017 -0.092
0.346 -0.014 -0.096
0.337 -0.011 -0.093
0.324 -0.007 -0.090
0.308 -0.004 -0.085
0.309 -0.001 -0.085
0.314 0.001 -0.087
0.321 0.004 -0.089
0.323 0.007 -0.089
0.313 0.010 -0.087
0.302 0.012 -0.084
0.302 0.015 -0.084
0.306 0.018 -0.085
0.307 0.021 -0.085
0.307 0.024 -0.085
0.309 0.027 -0.086
0.308 0.030 -0.086
0.309 0.032 -0.086
0.310 0.035 -0.086
0.310 0.038 -0.086
0.310 0.041 -0.086
0.309 0.044 -0.086
0.310 0.047 -0.086
0.310 0.050 -0.086
0.310 0.053 -0.086
0.309 0.055 -0.086
0.310 0.058 -0.087
0.315 0.062 -0.088
0.318 0.066 -0.089
0.318 0.069 -0.089
0.314 0.071 -0.088
0.311 0.073 -0.087
0.316 0.077 -0.089
0.312 0.079 -0.088
0.313 0.083 -0.088
0.310 0.085 -0.087
0.309 0.088 -0.087
0.307 0.090 -0.086
0.311 0.094 -0.088
0.311 0.097 -0.088
0.318 0.102 -0.090
0.312 0.103 -0.088
0.312 0.107 -0.089
0.305 0.107 -0.087
0.313 0.113 -0.089
0.341 0.127 -0.097
0.346 0.132 -0.099
0.330 0.146 -0.095
0.342 0.155 -0.099
0.348 0.180 -0.102
0.341 0.180 -0.100
0.350 0.189 -0.103
0.342 0.188 -0.101
0.347 0.195 -0.103
0.347 0.199 -0.103
0.350 0.205 -0.104
0.360 0.214 -0.107
0.360 0.219 -0.108
0.369 0.229 -0.111
0.372 0.239 -0.112
0.386 0.253 -0.117
0.392 0.261 -0.119
0.369 0.260 -0.113
0.368 0.269 -0.114
0.307 -0.422 -0.107
0.309 -0.419 -0.108
0.311 -0.417 -0.108
0.312 -0.413 -0.108
0.312 -0.408 -0.108
0.311 -0.400 -0.107
0.309 -0.392 -0.106
0.309 -0.388 -0.105
0.315 -0.390 -0.107
0.317 -0.387 -0.107
0.315 -0.378 -0.106
0.314 -0.372 -0.105
0.312 -0.364 -0.104
0.314 -0.361 -0.104
0.315 -0.357 -0.104
0.315 -0.352 -0.103
0.312 -0.343 -0.102
0.312 -0.337 -0.101
0.310 -0.330 -0.100
0.311 -0.327 -0.100
0.311 -0.321 -0.100
0.310 -0.316 -0.099
0.310 -0.311 -0.098
0.309 -0.305 -0.098
0.307 -0.299 -0.097
0.306 -0.292 -0.096
0.304 -0.287 -0.095
0.303 -0.281 -0.094
0.302 -0.276 -0.093
0.302 -0.271 -0.093
0.302 -0.267 -0.093
0.302 -0.263 -0.092
0.303 -0.260 -0.092
0.302 -0.255 -0.092
0.297 -0.247 -0.090
0.297 -0.242 -0.089
0.297 -0.238 -0.089
0.288 -0.227 -0.086
0.288 -0.224 -0.086
0.289 -0.221 -0.086
0.290 -0.218 -0.086
0.286 -0.212 -0.084
0.235 -0.168 -0.069
0.235 -0.165 -0.069
0.214 -0.148 -0.062
0.214 -0.145 -0.062
0.210 -0.140 -0.061
0.207 -0.136 -0.060
0.208 -0.134 -0.060
0.217 -0.137 -0.062
0.220 -0.136 -0.063
0.216 -0.132 -0.062
0.219 -0.131 -0.062
0.222 -0.130 -0.063
0.208 -0.120 -0.059
0.209 -0.118 -0.059
0.209 -0.116 -0.059
0.217 -0.118 -0.061
0.238 -0.127 -0.067
0.243 -0.126 -0.068
0.243 -0.124 -0.068
0.243 -0.122 -0.068
0.246 -0.120 -0.069
0.308 -0.144 -0.086
0.312 -0.143 -0.087
0.316 -0.141 -0.087
0.320 -0.140 -0.089
0.320 -0.137 -0.088
0.270 -0.110 -0.074
0.268 -0.106 -0.074
0.270 -0.105 -0.074
0.267 -0.101 -0.073
0.260 -0.096 -0.071
0.348 -0.125 -0.095
0.356 -0.124 -0.097
0.370 -0.125 -0.101
0.374 -0.123 -0.102
0.378 -0.121 -0.103
0.382 -0.118 -0.104
0.387 -0.116 -0.105
0.397 -0.115 -0.108
0.410 -0.115 -0.111
0.415 -0.113 -0.112
0.421 -0.110 -0.114
0.433 -0.110 -0.117
0.446 -0.109 -0.120
0.452 -0.106 -0.122
0.392 -0.084 -0.105
0.384 -0.079 -0.103
0.378 -0.074 -0.102
0.369 -0.069 -0.099
0.283 -0.050 -0.076
0.280 -0.047 -0.075
0.280 -0.045 -0.075
0.287 -0.043 -0.077
0.291 -0.041 -0.078
0.291 -0.039 -0.078
0.292 -0.036 -0.078
0.289 -0.033 -0.077
0.300 -0.031 -0.080
0.303 -0.029 -0.081
0.307 -0.027 -0.082
0.311 -0.024 -0.083
0.312 -0.021 -0.083
0.301 -0.018 -0.080
0.306 -0.013 -0.082
0.328 -0.010 -0.088
0.315 -0.007 -0.084
0.312 -0.004 -0.083
0.314 -0.001 -0.084
0.318 0.001 -0.085
0.323 0.004 -0.086
0.302 0.007 -0.081
0.303 0.010 -0.081
0.305 0.012 -0.082
0.307 0.015 -0.082
0.308 0.018 -0.082
0.309 0.021 -0.083
0.310 0.024 -0.083
0.310 0.027 -0.083
0.311 0.030 -0.083
0.311 0.033 -0.083
0.312 0.036 -0.084
0.313 0.039 -0.084
0.312 0.041 -0.084
0.312 0.044 -0.084
0.312 0.047 -0.084
0.312 0.050 -0.084
0.313 0.053 -0.084
0.312 0.056 -0.084
0.313 0.059 -0.084
0.311 0.061 -0.084
0.315 0.065 -0.085
0.318 0.069 -0.086
0.315 0.071 -0.085
0.314 0.074 -0.085
0.309 0.076 -0.084
0.314 0.080 -0.085
0.308 0.081 -0.084
0.313 0.085 -0.085
0.314 0.089 -0.085
0.313 0.092 -0.085
0.305 0.092 -0.083
0.308 0.096 -0.084
0.311 0.100 -0.085
0.316 0.105 -0.087
0.304 0.104 -0.083
0.301 0.106 -0.083
0.302 0.109 -0.083
0.301 0.115 -0.083
0.338 0.153 -0.094
0.325 0.151 -0.091
0.336 0.177 -0.095
0.350 0.192 -0.100
0.340 0.191 -0.097
0.341 0.195 -0.098
0.347 0.203 -0.100
0.355 0.211 -0.102
0.360 0.219 -0.104
0.368 0.232 -0.107
0.381 0.249 -0.111
