VERSION .7
FIELDS x y z
SIZE 4 4 4
TYPE F F F
COUNT 1 1 1
WIDTH     2441
HEIGHT 1
VIEWPOINT 0 0 0 1 0 0 0
POINTS     2441
DATA ascii
0.322 0.101 -0.155
0.315 0.105 -0.152
0.323 0.111 -0.157
0.233 0.201 -0.128
0.223 0.196 -0.123
0.222 0.198 -0.123
0.220 0.200 -0.123
0.216 0.200 -0.121
0.222 0.208 -0.125
0.226 0.216 -0.128
0.226 0.220 -0.128
0.220 0.217 -0.125
0.216 0.218 -0.124
0.211 0.217 -0.122
0.210 0.219 -0.122
0.203 0.218 -0.119
0.192 0.210 -0.113
0.187 0.208 -0.110
0.193 0.218 -0.115
0.199 0.229 -0.119
0.202 0.236 -0.122
0.197 0.237 -0.120
0.188 0.230 -0.115
0.181 0.225 -0.111
0.179 0.226 -0.110
0.186 0.237 -0.115
0.314 -0.229 -0.160
0.321 -0.229 -0.163
0.320 -0.225 -0.162
0.316 -0.218 -0.159
0.229 -0.152 -0.115
0.226 -0.147 -0.113
0.209 -0.134 -0.104
0.209 -0.131 -0.104
0.209 -0.129 -0.104
0.213 -0.129 -0.105
0.302 -0.179 -0.149
0.311 -0.181 -0.153
0.314 -0.179 -0.154
0.314 -0.176 -0.154
0.314 -0.172 -0.153
0.315 -0.169 -0.153
0.315 -0.166 -0.153
0.314 -0.162 -0.152
0.314 -0.158 -0.152
0.321 -0.158 -0.155
0.323 -0.156 -0.156
0.326 -0.154 -0.157
0.330 -0.152 -0.159
0.336 -0.151 -0.161
0.338 -0.149 -0.162
1.347 -0.442 -0.634
1.355 -0.432 -0.637
1.344 -0.415 -0.631
1.335 -0.399 -0.627
1.327 -0.384 -0.622
1.319 -0.368 -0.617
1.313 -0.354 -0.614
1.313 -0.341 -0.613
0.275 -0.050 -0.128
0.277 -0.048 -0.129
0.285 -0.047 -0.132
0.294 -0.045 -0.136
0.291 -0.042 -0.135
0.287 -0.039 -0.133
0.281 -0.035 -0.130
0.288 -0.034 -0.133
0.288 -0.031 -0.133
0.294 -0.029 -0.136
0.296 -0.026 -0.137
0.309 -0.024 -0.142
0.321 -0.022 -0.148
0.317 -0.019 -0.146
0.303 -0.015 -0.140
0.303 -0.013 -0.140
0.302 -0.010 -0.139
0.324 -0.001 -0.150
0.325 0.002 -0.150
0.301 0.004 -0.139
0.306 0.007 -0.141
0.310 0.010 -0.143
0.335 0.021 -0.155
0.340 0.030 -0.157
0.315 0.031 -0.146
0.316 0.034 -0.146
0.318 0.059 -0.148
0.330 0.071 -0.154
0.309 0.081 -0.145
0.308 0.084 -0.145
0.304 0.086 -0.143
0.307 0.090 -0.145
0.332 0.107 -0.157
0.317 0.105 -0.150
0.311 0.106 -0.147
0.309 0.109 -0.147
0.316 0.115 -0.150
0.323 0.121 -0.154
0.241 0.193 -0.127
0.231 0.189 -0.122
0.232 0.193 -0.123
0.226 0.191 -0.121
0.223 0.191 -0.119
0.223 0.196 -0.120
0.224 0.199 -0.121
0.220 0.199 -0.119
0.217 0.200 -0.119
0.220 0.207 -0.121
0.228 0.218 -0.126
0.226 0.220 -0.126
0.218 0.215 -0.122
0.215 0.216 -0.121
0.218 0.222 -0.123
0.229 0.238 -0.130
0.217 0.229 -0.124
0.201 0.215 -0.115
0.201 0.219 -0.116
0.199 0.220 -0.115
0.197 0.222 -0.114
0.205 0.235 -0.120
0.179 0.222 -0.107
0.179 0.225 -0.108
0.185 0.235 -0.112
0.181 0.234 -0.110
0.314 -0.244 -0.159
0.320 -0.244 -0.161
0.322 -0.242 -0.161
0.326 -0.241 -0.163
0.327 -0.237 -0.163
0.324 -0.231 -0.161
0.322 -0.225 -0.159
0.319 -0.220 -0.157
0.237 -0.157 -0.116
0.227 -0.148 -0.111
0.208 -0.133 -0.102
0.209 -0.131 -0.101
0.210 -0.129 -0.102
0.212 -0.128 -0.102
0.307 -0.179 -0.148
0.311 -0.177 -0.149
0.311 -0.174 -0.149
0.311 -0.170 -0.148
0.312 -0.167 -0.149
0.312 -0.164 -0.148
0.312 -0.161 -0.148
0.316 -0.159 -0.150
0.322 -0.158 -0.152
0.324 -0.156 -0.153
0.326 -0.154 -0.153
0.330 -0.152 -0.155
0.335 -0.151 -0.157
0.340 -0.149 -0.159
0.287 -0.114 -0.133
0.354 -0.134 -0.164
0.353 -0.130 -0.164
0.355 -0.127 -0.164
1.346 -0.441 -0.620
1.346 -0.428 -0.619
1.342 -0.414 -0.616
1.330 -0.397 -0.610
1.324 -0.382 -0.607
1.329 -0.371 -0.609
1.325 -0.357 -0.606
1.339 -0.347 -0.612
0.284 -0.049 -0.129
0.292 -0.048 -0.132
0.302 -0.047 -0.137
0.298 -0.043 -0.135
0.290 -0.039 -0.131
0.283 -0.036 -0.128
0.285 -0.033 -0.129
0.287 -0.031 -0.130
0.294 -0.029 -0.133
0.296 -0.026 -0.134
0.301 -0.024 -0.136
0.313 -0.022 -0.141
0.311 -0.019 -0.140
0.309 -0.016 -0.139
0.316 -0.013 -0.143
0.325 -0.011 -0.147
0.308 -0.007 -0.139
0.307 -0.004 -0.138
0.320 -0.001 -0.144
0.326 0.002 -0.147
0.320 0.005 -0.144
0.313 0.007 -0.141
0.301 0.010 -0.136
0.292 0.015 -0.132
0.327 0.029 -0.148
0.320 0.038 -0.145
0.318 0.052 -0.145
0.316 0.058 -0.144
0.315 0.061 -0.143
0.314 0.064 -0.143
0.319 0.068 -0.146
0.319 0.071 -0.146
0.320 0.074 -0.146
0.322 0.078 -0.147
0.325 0.082 -0.149
0.319 0.084 -0.146
0.318 0.086 -0.146
0.315 0.089 -0.145
0.317 0.092 -0.146
0.342 0.103 -0.158
0.353 0.110 -0.163
0.311 0.103 -0.144
0.323 0.120 -0.151
0.333 0.142 -0.157
0.347 0.151 -0.163
0.258 0.189 -0.130
0.256 0.190 -0.130
0.273 0.207 -0.139
0.266 0.205 -0.136
0.248 0.195 -0.127
0.240 0.192 -0.124
0.234 0.190 -0.121
0.225 0.186 -0.117
0.225 0.190 -0.118
0.224 0.192 -0.117
0.223 0.194 -0.117
0.221 0.197 -0.117
0.219 0.198 -0.116
0.218 0.200 -0.116
0.219 0.205 -0.118
0.224 0.213 -0.121
0.221 0.214 -0.120
0.219 0.215 -0.119
0.219 0.219 -0.120
0.231 0.235 -0.127
0.229 0.237 -0.127
0.235 0.247 -0.131
0.231 0.247 -0.129
0.209 0.231 -0.118
0.203 0.228 -0.115
0.200 0.229 -0.114
0.215 0.250 -0.124
0.189 0.233 -0.111
0.189 0.237 -0.111
0.180 0.228 -0.106
0.183 0.235 -0.108
0.331 -0.270 -0.165
0.334 -0.268 -0.166
0.328 -0.259 -0.162
0.324 -0.251 -0.160
0.321 -0.245 -0.158
0.323 -0.242 -0.158
0.321 -0.237 -0.157
0.316 -0.229 -0.154
0.320 -0.227 -0.155
0.322 -0.225 -0.156
0.316 -0.217 -0.152
0.209 -0.133 -0.099
0.209 -0.131 -0.099
0.210 -0.129 -0.100
0.212 -0.128 -0.100
0.307 -0.178 -0.145
0.309 -0.176 -0.145
0.308 -0.172 -0.144
0.307 -0.168 -0.144
0.308 -0.165 -0.143
0.311 -0.163 -0.144
0.313 -0.161 -0.145
0.315 -0.158 -0.146
0.318 -0.157 -0.147
0.322 -0.155 -0.148
0.326 -0.153 -0.150
0.330 -0.152 -0.151
0.335 -0.150 -0.153
0.339 -0.149 -0.155
0.286 -0.114 -0.130
0.356 -0.134 -0.161
0.363 -0.133 -0.164
0.370 -0.132 -0.167
0.361 -0.126 -0.163
1.336 -0.437 -0.601
1.337 -0.424 -0.601
1.326 -0.408 -0.595
1.321 -0.393 -0.592
1.321 -0.381 -0.592
1.330 -0.370 -0.595
1.335 -0.359 -0.597
1.320 -0.342 -0.590
0.319 -0.061 -0.142
0.322 -0.059 -0.143
0.299 -0.052 -0.133
0.297 -0.049 -0.132
0.304 -0.047 -0.135
0.301 -0.044 -0.133
0.290 -0.039 -0.128
0.284 -0.036 -0.126
0.285 -0.033 -0.126
0.294 -0.031 -0.130
0.299 -0.029 -0.132
0.295 -0.026 -0.130
0.294 -0.023 -0.130
0.297 -0.021 -0.131
0.305 -0.018 -0.135
0.303 -0.015 -0.134
0.310 -0.013 -0.137
0.314 -0.010 -0.139
0.316 -0.007 -0.139
0.311 -0.004 -0.137
0.317 -0.001 -0.140
0.323 0.002 -0.142
0.319 0.005 -0.141
0.316 0.007 -0.139
0.306 0.010 -0.135
0.304 0.021 -0.134
0.307 0.024 -0.136
0.316 0.028 -0.140
0.309 0.030 -0.137
0.313 0.034 -0.139
0.315 0.037 -0.139
0.314 0.046 -0.139
0.327 0.051 -0.145
0.313 0.055 -0.139
0.312 0.057 -0.139
0.321 0.065 -0.143
0.322 0.068 -0.144
0.324 0.072 -0.145
0.320 0.074 -0.143
0.329 0.080 -0.147
0.325 0.082 -0.146
0.319 0.083 -0.143
0.322 0.087 -0.144
0.326 0.092 -0.147
0.329 0.096 -0.148
0.338 0.102 -0.152
0.342 0.106 -0.154
0.330 0.106 -0.149
0.305 0.101 -0.138
0.303 0.103 -0.137
0.327 0.121 -0.149
0.254 0.172 -0.123
0.262 0.180 -0.128
0.258 0.182 -0.127
0.254 0.182 -0.125
0.252 0.184 -0.124
0.253 0.188 -0.125
0.262 0.198 -0.130
0.264 0.203 -0.132
0.251 0.196 -0.126
0.242 0.193 -0.122
0.237 0.192 -0.120
0.233 0.192 -0.118
0.224 0.188 -0.114
0.223 0.190 -0.114
0.221 0.192 -0.114
0.217 0.192 -0.112
0.216 0.194 -0.112
0.212 0.195 -0.111
0.215 0.201 -0.113
0.220 0.209 -0.116
0.222 0.214 -0.117
0.219 0.215 -0.116
0.223 0.223 -0.119
0.223 0.226 -0.120
0.223 0.242 -0.123
0.212 0.234 -0.117
0.211 0.237 -0.117
0.212 0.242 -0.118
0.203 0.235 -0.114
0.201 0.236 -0.113
0.203 0.243 -0.115
0.202 0.245 -0.115
0.198 0.244 -0.113
0.178 0.223 -0.102
0.178 0.226 -0.103
0.315 -0.288 -0.158
0.317 -0.284 -0.158
0.321 -0.284 -0.159
0.325 -0.283 -0.161
0.329 -0.281 -0.162
0.323 -0.272 -0.159
0.324 -0.268 -0.159
0.330 -0.269 -0.161
0.332 -0.265 -0.161
0.329 -0.259 -0.159
0.326 -0.252 -0.157
0.322 -0.245 -0.154
0.321 -0.240 -0.154
0.320 -0.236 -0.153
0.317 -0.229 -0.151
0.318 -0.226 -0.151
0.319 -0.223 -0.151
0.317 -0.217 -0.149
0.211 -0.135 -0.098
0.208 -0.130 -0.097
0.208 -0.127 -0.096
0.212 -0.128 -0.098
0.307 -0.178 -0.141
0.305 -0.173 -0.140
0.306 -0.170 -0.140
0.305 -0.166 -0.139
0.307 -0.164 -0.140
0.310 -0.162 -0.141
0.312 -0.160 -0.141
0.314 -0.158 -0.142
0.316 -0.155 -0.143
0.320 -0.153 -0.144
0.325 -0.153 -0.146
0.330 -0.151 -0.148
0.333 -0.149 -0.149
0.338 -0.148 -0.151
0.360 -0.136 -0.159
0.364 -0.133 -0.161
0.369 -0.132 -0.163
0.370 -0.128 -0.163
0.371 -0.125 -0.163
0.380 -0.124 -0.167
1.317 -0.405 -0.578
1.315 -0.391 -0.576
1.318 -0.379 -0.577
1.335 -0.371 -0.584
1.331 -0.357 -0.581
1.306 -0.338 -0.570
0.316 -0.061 -0.137
0.321 -0.058 -0.139
0.303 -0.052 -0.131
0.298 -0.049 -0.129
0.298 -0.046 -0.129
0.291 -0.042 -0.126
0.285 -0.038 -0.123
0.281 -0.035 -0.121
0.284 -0.033 -0.123
0.296 -0.032 -0.128
0.306 -0.030 -0.132
0.295 -0.026 -0.127
0.292 -0.023 -0.126
0.299 -0.021 -0.129
0.301 -0.018 -0.130
0.301 -0.015 -0.130
0.294 -0.012 -0.127
0.297 -0.010 -0.128
0.304 -0.007 -0.131
0.318 -0.004 -0.137
0.318 -0.001 -0.137
0.318 0.002 -0.137
0.311 0.004 -0.134
0.310 0.007 -0.134
0.306 0.010 -0.132
0.301 0.013 -0.130
0.287 0.015 -0.124
0.298 0.018 -0.128
0.311 0.025 -0.135
0.305 0.033 -0.132
0.348 0.057 -0.151
0.330 0.060 -0.143
0.328 0.063 -0.143
0.331 0.067 -0.144
0.329 0.070 -0.143
0.322 0.071 -0.140
0.328 0.076 -0.143
0.316 0.076 -0.138
0.315 0.079 -0.138
0.314 0.082 -0.138
0.323 0.087 -0.142
0.328 0.092 -0.144
0.333 0.097 -0.146
0.331 0.099 -0.146
0.335 0.104 -0.148
0.317 0.101 -0.140
0.305 0.101 -0.135
0.329 0.119 -0.146
0.334 0.145 -0.150
0.344 0.153 -0.155
0.274 0.168 -0.128
0.276 0.173 -0.130
0.273 0.174 -0.128
0.274 0.178 -0.129
0.264 0.175 -0.125
0.258 0.174 -0.122
0.258 0.177 -0.123
0.256 0.179 -0.122
0.254 0.181 -0.122
0.252 0.183 -0.121
0.253 0.187 -0.122
0.265 0.200 -0.129
0.267 0.204 -0.130
0.260 0.203 -0.127
0.245 0.195 -0.120
0.243 0.196 -0.120
0.238 0.196 -0.118
0.224 0.188 -0.112
0.222 0.189 -0.111
0.220 0.191 -0.110
0.219 0.193 -0.110
0.216 0.194 -0.110
0.212 0.194 -0.108
0.223 0.207 -0.114
0.224 0.212 -0.115
0.221 0.213 -0.114
0.220 0.216 -0.114
0.217 0.216 -0.113
0.221 0.224 -0.116
0.222 0.228 -0.117
0.232 0.242 -0.123
0.228 0.243 -0.122
0.218 0.236 -0.117
0.214 0.236 -0.116
0.217 0.243 -0.118
0.213 0.246 -0.117
0.207 0.247 -0.115
0.205 0.252 -0.115
0.181 0.226 -0.102
0.185 0.234 -0.104
0.194 0.249 -0.110
0.316 -0.307 -0.157
0.319 -0.305 -0.158
0.327 -0.307 -0.161
0.327 -0.303 -0.161
0.324 -0.295 -0.158
0.327 -0.293 -0.159
0.327 -0.288 -0.158
0.327 -0.284 -0.158
0.327 -0.279 -0.157
0.328 -0.275 -0.157
0.326 -0.269 -0.156
0.325 -0.264 -0.155
0.324 -0.259 -0.154
0.324 -0.254 -0.153
0.322 -0.249 -0.152
0.322 -0.244 -0.151
0.320 -0.239 -0.150
0.319 -0.234 -0.149
0.320 -0.231 -0.149
0.319 -0.226 -0.147
0.315 -0.219 -0.145
0.313 -0.214 -0.144
0.212 -0.135 -0.096
0.207 -0.129 -0.094
0.208 -0.128 -0.094
0.209 -0.126 -0.094
0.299 -0.173 -0.134
0.302 -0.171 -0.135
0.304 -0.169 -0.136
0.305 -0.166 -0.136
0.309 -0.165 -0.138
0.308 -0.161 -0.136
0.311 -0.159 -0.138
0.314 -0.157 -0.138
0.316 -0.155 -0.139
0.320 -0.153 -0.141
0.324 -0.152 -0.142
0.329 -0.151 -0.144
0.331 -0.148 -0.145
0.331 -0.145 -0.144
0.358 -0.135 -0.155
0.364 -0.133 -0.157
0.366 -0.130 -0.158
0.371 -0.128 -0.160
0.376 -0.126 -0.162
0.378 -0.123 -0.162
0.379 -0.120 -0.163
1.305 -0.387 -0.558
1.316 -0.378 -0.563
1.327 -0.368 -0.567
1.329 -0.356 -0.567
1.295 -0.334 -0.552
0.336 -0.067 -0.143
0.326 -0.062 -0.138
0.304 -0.055 -0.129
0.304 -0.052 -0.129
0.294 -0.048 -0.124
0.289 -0.044 -0.122
0.288 -0.041 -0.122
0.286 -0.039 -0.121
0.288 -0.036 -0.122
0.290 -0.034 -0.122
0.296 -0.032 -0.125
0.298 -0.029 -0.126
0.296 -0.026 -0.125
0.294 -0.023 -0.124
0.296 -0.021 -0.125
0.298 -0.018 -0.126
0.291 -0.015 -0.123
0.294 -0.012 -0.124
0.298 -0.010 -0.126
0.313 -0.007 -0.132
0.320 -0.004 -0.135
0.315 -0.001 -0.133
0.312 0.002 -0.132
0.310 0.004 -0.131
0.310 0.007 -0.131
0.302 0.010 -0.127
0.300 0.013 -0.126
0.310 0.016 -0.131
0.330 0.023 -0.139
0.332 0.026 -0.140
0.297 0.032 -0.126
0.321 0.041 -0.136
0.309 0.045 -0.131
0.333 0.051 -0.141
0.342 0.056 -0.145
0.341 0.059 -0.145
0.331 0.064 -0.141
0.334 0.068 -0.142
0.323 0.068 -0.138
0.312 0.069 -0.133
0.304 0.070 -0.130
0.318 0.077 -0.136
0.307 0.077 -0.131
0.307 0.080 -0.131
0.327 0.088 -0.140
0.330 0.092 -0.142
0.329 0.095 -0.142
0.335 0.100 -0.144
0.328 0.102 -0.141
0.320 0.102 -0.138
0.310 0.105 -0.134
0.320 0.112 -0.139
0.333 0.120 -0.144
0.333 0.127 -0.145
0.329 0.142 -0.144
0.331 0.147 -0.146
0.282 0.163 -0.128
0.284 0.167 -0.129
0.278 0.167 -0.126
0.277 0.169 -0.126
0.273 0.170 -0.125
0.270 0.172 -0.124
0.262 0.170 -0.121
0.266 0.176 -0.123
0.263 0.177 -0.122
0.259 0.178 -0.121
0.258 0.180 -0.120
0.257 0.183 -0.120
0.255 0.185 -0.120
0.250 0.185 -0.118
0.267 0.200 -0.126
0.273 0.209 -0.130
0.270 0.210 -0.129
0.258 0.205 -0.124
0.250 0.202 -0.120
0.243 0.199 -0.117
0.226 0.189 -0.110
0.223 0.190 -0.109
0.222 0.192 -0.109
0.223 0.196 -0.110
0.225 0.201 -0.111
0.232 0.211 -0.115
0.230 0.213 -0.115
0.228 0.215 -0.114
0.222 0.213 -0.112
0.217 0.212 -0.110
0.218 0.217 -0.111
0.213 0.215 -0.109
0.230 0.236 -0.118
0.232 0.242 -0.120
0.233 0.247 -0.121
0.217 0.238 -0.114
0.220 0.246 -0.117
0.219 0.249 -0.117
0.221 0.254 -0.118
0.328 -0.333 -0.161
0.331 -0.331 -0.162
0.329 -0.323 -0.160
0.329 -0.319 -0.160
0.332 -0.316 -0.160
0.335 -0.315 -0.161
0.325 -0.300 -0.155
0.326 -0.297 -0.156
0.329 -0.294 -0.156
0.323 -0.284 -0.153
0.323 -0.280 -0.152
0.325 -0.277 -0.153
0.325 -0.272 -0.152
0.324 -0.267 -0.151
0.322 -0.261 -0.149
0.322 -0.257 -0.149
0.320 -0.251 -0.147
0.320 -0.246 -0.147
0.320 -0.243 -0.147
0.320 -0.238 -0.146
0.319 -0.234 -0.145
0.319 -0.229 -0.144
0.318 -0.225 -0.143
0.313 -0.217 -0.141
0.309 -0.211 -0.139
0.305 -0.205 -0.137
0.238 -0.154 -0.106
0.227 -0.144 -0.101
0.208 -0.129 -0.092
0.209 -0.128 -0.092
0.214 -0.128 -0.094
0.298 -0.172 -0.131
0.300 -0.170 -0.131
0.301 -0.167 -0.131
0.305 -0.166 -0.132
0.302 -0.161 -0.131
0.307 -0.160 -0.133
0.311 -0.159 -0.134
0.314 -0.157 -0.135
0.317 -0.155 -0.137
0.322 -0.154 -0.138
0.324 -0.152 -0.139
0.326 -0.149 -0.140
0.327 -0.146 -0.140
0.331 -0.144 -0.141
0.301 -0.125 -0.128
0.359 -0.135 -0.152
0.363 -0.133 -0.153
0.366 -0.130 -0.154
0.370 -0.128 -0.156
0.380 -0.127 -0.159
0.384 -0.125 -0.161
0.386 -0.122 -0.162
0.386 -0.118 -0.162
1.317 -0.377 -0.550
1.331 -0.369 -0.555
0.347 -0.070 -0.144
0.334 -0.064 -0.138
0.308 -0.056 -0.127
0.294 -0.051 -0.121
0.295 -0.048 -0.122
0.292 -0.045 -0.120
0.288 -0.041 -0.119
0.293 -0.039 -0.121
0.293 -0.037 -0.121
0.298 -0.035 -0.123
0.297 -0.032 -0.122
0.296 -0.029 -0.122
0.294 -0.026 -0.121
0.292 -0.023 -0.120
0.292 -0.020 -0.120
0.297 -0.018 -0.122
0.301 -0.015 -0.124
0.309 -0.013 -0.127
0.316 -0.010 -0.130
0.316 -0.007 -0.130
0.310 -0.004 -0.128
0.312 -0.001 -0.128
0.310 0.002 -0.127
0.308 0.004 -0.127
0.306 0.007 -0.126
0.299 0.010 -0.123
0.301 0.013 -0.124
0.308 0.016 -0.127
0.329 0.020 -0.135
0.330 0.023 -0.136
0.336 0.027 -0.139
0.317 0.028 -0.131
0.307 0.030 -0.127
0.300 0.032 -0.124
0.317 0.037 -0.131
0.322 0.041 -0.133
0.328 0.044 -0.136
0.324 0.047 -0.134
0.322 0.050 -0.133
0.321 0.059 -0.133
0.322 0.068 -0.134
0.305 0.067 -0.127
0.300 0.069 -0.125
0.309 0.074 -0.129
0.309 0.077 -0.129
0.312 0.081 -0.131
0.323 0.087 -0.135
0.326 0.091 -0.136
0.317 0.092 -0.133
0.327 0.101 -0.138
0.324 0.103 -0.136
0.327 0.107 -0.138
0.318 0.108 -0.134
0.328 0.114 -0.139
0.313 0.112 -0.133
0.311 0.115 -0.132
0.308 0.153 -0.134
0.312 0.158 -0.136
0.302 0.156 -0.132
0.299 0.158 -0.131
0.302 0.164 -0.133
0.298 0.165 -0.131
0.281 0.159 -0.124
0.282 0.162 -0.125
0.278 0.163 -0.123
0.278 0.167 -0.124
0.276 0.169 -0.123
0.273 0.170 -0.122
0.272 0.173 -0.122
0.272 0.176 -0.122
0.271 0.178 -0.122
0.266 0.179 -0.120
0.269 0.184 -0.122
0.261 0.182 -0.119
0.258 0.184 -0.118
0.257 0.186 -0.118
0.253 0.187 -0.117
0.257 0.193 -0.119
0.283 0.216 -0.131
0.284 0.221 -0.132
0.269 0.213 -0.126
0.261 0.210 -0.123
0.234 0.195 -0.111
0.225 0.191 -0.107
0.225 0.195 -0.108
0.229 0.201 -0.110
0.232 0.208 -0.112
0.230 0.209 -0.112
0.238 0.220 -0.116
0.230 0.217 -0.113
0.229 0.219 -0.112
0.224 0.218 -0.111
0.221 0.219 -0.110
0.228 0.230 -0.114
0.239 0.245 -0.120
0.242 0.252 -0.122
0.300 -0.333 -0.148
0.330 -0.361 -0.162
0.329 -0.354 -0.161
0.328 -0.348 -0.160
0.336 -0.351 -0.163
0.335 -0.344 -0.161
0.331 -0.335 -0.159
0.329 -0.328 -0.157
0.329 -0.323 -0.157
0.329 -0.318 -0.156
0.332 -0.316 -0.156
0.331 -0.310 -0.155
0.324 -0.299 -0.152
0.326 -0.295 -0.152
0.325 -0.290 -0.151
0.321 -0.282 -0.148
0.322 -0.278 -0.148
0.323 -0.274 -0.148
0.323 -0.270 -0.147
0.320 -0.263 -0.145
0.321 -0.259 -0.145
0.322 -0.256 -0.145
0.323 -0.253 -0.145
0.319 -0.245 -0.143
0.318 -0.241 -0.142
0.318 -0.236 -0.141
0.317 -0.232 -0.141
0.315 -0.226 -0.139
0.313 -0.221 -0.138
0.311 -0.216 -0.137
0.307 -0.209 -0.134
0.305 -0.204 -0.133
0.208 -0.129 -0.090
0.208 -0.127 -0.089
0.208 -0.125 -0.089
0.218 -0.128 -0.093
0.297 -0.171 -0.127
0.300 -0.169 -0.128
0.301 -0.166 -0.128
0.298 -0.162 -0.127
0.302 -0.160 -0.128
0.305 -0.159 -0.129
0.310 -0.158 -0.131
0.314 -0.157 -0.132
0.318 -0.156 -0.134
0.322 -0.154 -0.135
0.324 -0.151 -0.135
0.324 -0.148 -0.135
0.325 -0.145 -0.135
0.328 -0.143 -0.136
0.305 -0.127 -0.126
0.332 -0.128 -0.137
0.353 -0.132 -0.146
0.363 -0.132 -0.149
0.366 -0.130 -0.150
0.371 -0.128 -0.152
0.378 -0.127 -0.155
0.387 -0.126 -0.158
0.393 -0.124 -0.161
0.396 -0.121 -0.162
0.390 -0.115 -0.159
1.325 -0.366 -0.539
1.324 -0.353 -0.538
1.312 -0.337 -0.533
0.367 -0.073 -0.148
0.298 -0.054 -0.120
0.291 -0.050 -0.117
0.288 -0.047 -0.116
0.289 -0.044 -0.117
0.292 -0.042 -0.118
0.293 -0.039 -0.118
0.297 -0.037 -0.120
0.296 -0.034 -0.119
0.300 -0.032 -0.121
0.298 -0.029 -0.120
0.298 -0.026 -0.120
0.289 -0.023 -0.116
0.288 -0.020 -0.116
0.299 -0.018 -0.120
0.306 -0.015 -0.123
0.316 -0.013 -0.127
0.320 -0.010 -0.128
0.309 -0.007 -0.124
0.307 -0.004 -0.123
0.313 -0.001 -0.126
0.314 0.002 -0.126
0.303 0.004 -0.122
0.300 0.007 -0.121
0.306 0.010 -0.123
0.313 0.013 -0.126
0.316 0.016 -0.127
0.298 0.018 -0.120
0.317 0.025 -0.128
0.326 0.029 -0.131
0.314 0.031 -0.127
0.329 0.038 -0.132
0.343 0.043 -0.138
0.332 0.045 -0.134
0.317 0.046 -0.128
0.304 0.047 -0.123
0.296 0.048 -0.120
0.296 0.051 -0.120
0.308 0.056 -0.125
0.304 0.058 -0.123
0.319 0.064 -0.129
0.323 0.068 -0.131
0.316 0.070 -0.128
0.304 0.070 -0.124
0.305 0.073 -0.124
0.310 0.078 -0.126
0.321 0.083 -0.131
0.323 0.087 -0.132
0.311 0.087 -0.127
0.304 0.088 -0.125
0.314 0.094 -0.129
0.319 0.098 -0.131
0.331 0.109 -0.136
0.340 0.115 -0.140
0.329 0.114 -0.136
0.307 0.113 -0.127
0.301 0.114 -0.125
0.301 0.133 -0.126
0.300 0.136 -0.126
0.293 0.136 -0.124
0.302 0.143 -0.127
0.300 0.145 -0.127
0.300 0.149 -0.127
0.299 0.152 -0.127
0.298 0.154 -0.127
0.296 0.156 -0.126
0.292 0.158 -0.125
0.288 0.159 -0.123
0.290 0.163 -0.124
0.284 0.163 -0.122
0.281 0.165 -0.122
0.279 0.167 -0.121
0.279 0.170 -0.121
0.276 0.171 -0.120
0.276 0.175 -0.121
0.277 0.179 -0.121
0.275 0.181 -0.121
0.275 0.184 -0.121
0.270 0.184 -0.119
0.272 0.189 -0.121
0.273 0.194 -0.122
0.259 0.187 -0.116
0.257 0.189 -0.115
0.256 0.191 -0.115
0.281 0.222 -0.128
0.239 0.206 -0.111
0.235 0.206 -0.110
0.233 0.208 -0.110
0.237 0.215 -0.112
0.239 0.228 -0.115
0.231 0.232 -0.112
0.328 -0.391 -0.161
0.325 -0.382 -0.159
0.332 -0.384 -0.162
0.333 -0.380 -0.162
0.328 -0.369 -0.158
0.329 -0.365 -0.158
0.336 -0.367 -0.161
0.331 -0.355 -0.157
0.330 -0.350 -0.157
0.335 -0.349 -0.158
0.333 -0.342 -0.156
0.328 -0.332 -0.153
0.329 -0.327 -0.153
0.328 -0.321 -0.152
0.327 -0.315 -0.151
0.328 -0.311 -0.151
0.326 -0.305 -0.149
0.323 -0.297 -0.147
0.325 -0.294 -0.147
0.327 -0.291 -0.148
0.322 -0.282 -0.145
0.322 -0.277 -0.144
0.322 -0.273 -0.144
0.319 -0.266 -0.142
0.318 -0.261 -0.141
0.320 -0.258 -0.141
0.320 -0.254 -0.141
0.320 -0.250 -0.140
0.318 -0.244 -0.139
0.317 -0.239 -0.138
0.316 -0.234 -0.137
0.314 -0.229 -0.136
0.313 -0.224 -0.135
0.311 -0.219 -0.134
0.308 -0.213 -0.132
0.306 -0.208 -0.130
0.302 -0.202 -0.129
0.290 -0.190 -0.123
0.208 -0.129 -0.087
0.208 -0.127 -0.087
0.210 -0.125 -0.088
0.211 -0.124 -0.088
0.256 -0.142 -0.106
0.259 -0.140 -0.107
0.300 -0.159 -0.124
0.303 -0.157 -0.125
0.306 -0.156 -0.126
0.311 -0.155 -0.128
0.318 -0.155 -0.130
0.321 -0.153 -0.131
0.323 -0.151 -0.132
0.324 -0.148 -0.132
0.325 -0.145 -0.132
0.329 -0.143 -0.133
0.317 -0.132 -0.128
0.309 -0.122 -0.125
0.324 -0.125 -0.131
0.355 -0.133 -0.143
0.361 -0.132 -0.145
0.365 -0.129 -0.146
0.369 -0.127 -0.148
0.375 -0.126 -0.150
0.383 -0.124 -0.153
0.395 -0.124 -0.158
0.399 -0.122 -0.159
0.403 -0.119 -0.160
0.398 -0.114 -0.158
1.306 -0.361 -0.518
1.317 -0.351 -0.522
0.292 -0.053 -0.115
0.290 -0.050 -0.114
0.288 -0.047 -0.113
0.288 -0.044 -0.113
0.294 -0.042 -0.115
0.301 -0.040 -0.118
0.296 -0.037 -0.116
0.294 -0.034 -0.115
0.291 -0.031 -0.114
0.302 -0.029 -0.118
0.298 -0.026 -0.117
0.297 -0.023 -0.116
0.299 -0.021 -0.117
0.302 -0.018 -0.118
0.303 -0.015 -0.119
0.301 -0.012 -0.118
0.309 -0.010 -0.121
0.310 -0.007 -0.122
0.315 -0.004 -0.123
0.322 -0.001 -0.126
0.324 0.002 -0.127
0.306 0.004 -0.120
0.296 0.007 -0.116
0.321 0.010 -0.126
0.327 0.014 -0.128
0.296 0.015 -0.116
0.294 0.018 -0.115
0.290 0.020 -0.114
0.309 0.024 -0.121
0.320 0.028 -0.126
0.324 0.032 -0.127
0.325 0.035 -0.128
0.347 0.040 -0.137
0.347 0.044 -0.136
0.335 0.045 -0.132
0.310 0.045 -0.122
0.305 0.047 -0.120
0.301 0.049 -0.119
0.298 0.051 -0.118
0.301 0.055 -0.119
0.314 0.060 -0.124
0.317 0.064 -0.126
0.325 0.068 -0.129
0.317 0.070 -0.126
0.311 0.071 -0.123
0.311 0.074 -0.123
0.325 0.081 -0.129
0.331 0.086 -0.132
0.317 0.085 -0.126
0.299 0.083 -0.119
0.304 0.088 -0.121
0.308 0.092 -0.123
0.313 0.096 -0.125
0.311 0.099 -0.124
0.346 0.117 -0.139
0.341 0.119 -0.137
0.310 0.111 -0.125
0.307 0.113 -0.124
0.318 0.120 -0.129
0.336 0.130 -0.136
0.322 0.129 -0.131
0.321 0.131 -0.131
0.322 0.135 -0.131
0.314 0.135 -0.128
0.306 0.135 -0.125
0.297 0.134 -0.122
0.301 0.139 -0.124
0.299 0.141 -0.123
0.301 0.146 -0.124
0.300 0.148 -0.124
0.297 0.150 -0.123
0.298 0.154 -0.124
0.298 0.157 -0.124
0.293 0.158 -0.122
0.290 0.159 -0.121
0.289 0.162 -0.121
0.291 0.167 -0.122
0.288 0.168 -0.121
0.285 0.170 -0.120
0.284 0.173 -0.120
0.281 0.174 -0.120
0.277 0.175 -0.118
0.279 0.179 -0.119
0.287 0.203 -0.125
0.335 -0.416 -0.163
0.339 -0.415 -0.164
0.331 -0.400 -0.159
0.328 -0.390 -0.157
0.330 -0.387 -0.158
0.338 -0.390 -0.160
0.337 -0.383 -0.159
0.330 -0.371 -0.155
0.332 -0.368 -0.156
0.331 -0.361 -0.154
0.330 -0.354 -0.153
0.330 -0.349 -0.153
0.330 -0.343 -0.152
0.329 -0.337 -0.151
0.327 -0.330 -0.149
0.325 -0.322 -0.147
0.327 -0.320 -0.148
0.329 -0.316 -0.148
0.325 -0.308 -0.145
0.324 -0.302 -0.144
0.322 -0.295 -0.143
0.323 -0.292 -0.143
0.324 -0.288 -0.143
0.324 -0.283 -0.142
0.323 -0.277 -0.141
0.318 -0.269 -0.138
0.317 -0.264 -0.137
0.317 -0.260 -0.137
0.318 -0.256 -0.137
0.318 -0.252 -0.136
0.314 -0.244 -0.134
0.314 -0.241 -0.134
0.314 -0.237 -0.133
0.313 -0.231 -0.132
0.312 -0.227 -0.131
0.311 -0.222 -0.130
0.308 -0.216 -0.129
0.307 -0.212 -0.128
0.304 -0.206 -0.126
0.298 -0.199 -0.124
0.294 -0.192 -0.122
0.216 -0.134 -0.089
0.208 -0.127 -0.085
0.209 -0.124 -0.085
0.212 -0.124 -0.086
0.259 -0.146 -0.105
0.246 -0.135 -0.099
0.247 -0.134 -0.100
0.253 -0.134 -0.102
0.302 -0.157 -0.121
0.305 -0.155 -0.122
0.310 -0.154 -0.124
0.315 -0.154 -0.126
0.320 -0.152 -0.127
0.323 -0.150 -0.128
0.326 -0.148 -0.129
0.331 -0.147 -0.131
0.330 -0.143 -0.130
0.318 -0.122 -0.125
0.352 -0.131 -0.138
0.359 -0.131 -0.141
0.363 -0.128 -0.142
0.365 -0.126 -0.142
0.372 -0.124 -0.145
0.380 -0.123 -0.148
0.388 -0.122 -0.151
0.401 -0.122 -0.156
0.405 -0.120 -0.157
0.407 -0.116 -0.158
1.289 -0.343 -0.498
1.291 -0.331 -0.499
0.370 -0.077 -0.142
0.364 -0.073 -0.140
0.295 -0.053 -0.113
0.289 -0.049 -0.111
0.287 -0.047 -0.110
0.290 -0.044 -0.111
0.298 -0.043 -0.114
0.300 -0.040 -0.115
0.299 -0.037 -0.114
0.294 -0.034 -0.112
0.293 -0.031 -0.112
0.291 -0.028 -0.111
0.297 -0.026 -0.114
0.302 -0.024 -0.115
0.309 -0.021 -0.118
0.303 -0.018 -0.116
0.292 -0.015 -0.112
0.305 -0.013 -0.116
0.303 -0.010 -0.116
0.324 -0.007 -0.124
0.321 -0.004 -0.123
0.319 -0.001 -0.122
0.317 0.002 -0.121
0.310 0.004 -0.118
0.293 0.007 -0.112
0.289 0.009 -0.110
0.289 0.012 -0.110
0.295 0.015 -0.113
0.293 0.018 -0.112
0.300 0.021 -0.115
0.305 0.024 -0.117
0.308 0.027 -0.118
0.324 0.032 -0.124
0.329 0.035 -0.126
0.334 0.039 -0.128
0.324 0.044 -0.124
0.323 0.047 -0.124
0.325 0.050 -0.125
0.311 0.051 -0.120
0.315 0.054 -0.121
0.305 0.056 -0.117
0.311 0.060 -0.120
0.320 0.067 -0.124
0.321 0.071 -0.124
0.312 0.072 -0.121
0.323 0.077 -0.125
0.329 0.082 -0.127
0.324 0.084 -0.126
0.308 0.082 -0.119
0.305 0.085 -0.119
0.306 0.088 -0.119
0.307 0.091 -0.120
0.304 0.093 -0.119
0.301 0.096 -0.118
0.320 0.111 -0.126
0.302 0.108 -0.119
0.302 0.111 -0.119
0.328 0.124 -0.129
0.339 0.131 -0.134
0.334 0.133 -0.132
0.328 0.134 -0.130
0.326 0.137 -0.130
0.320 0.137 -0.127
0.314 0.138 -0.125
0.308 0.139 -0.123
0.307 0.141 -0.123
0.304 0.143 -0.122
0.305 0.147 -0.122
0.305 0.151 -0.123
0.299 0.151 -0.121
0.298 0.154 -0.120
0.300 0.158 -0.121
0.300 0.161 -0.122
0.297 0.163 -0.121
0.297 0.166 -0.121
0.295 0.169 -0.121
0.299 0.175 -0.123
0.287 0.181 -0.119
0.322 -0.410 -0.154
0.333 -0.418 -0.158
0.339 -0.419 -0.160
0.341 -0.417 -0.161
0.335 -0.404 -0.157
0.332 -0.394 -0.155
0.336 -0.393 -0.156
0.337 -0.388 -0.156
0.331 -0.377 -0.153
0.327 -0.367 -0.150
0.328 -0.361 -0.149
0.330 -0.359 -0.150
0.328 -0.351 -0.148
0.329 -0.347 -0.148
0.329 -0.341 -0.147
0.327 -0.334 -0.146
0.323 -0.326 -0.143
0.323 -0.320 -0.143
0.325 -0.317 -0.143
0.326 -0.313 -0.143
0.324 -0.306 -0.141
0.321 -0.299 -0.139
0.321 -0.294 -0.139
0.320 -0.288 -0.138
0.321 -0.285 -0.138
0.322 -0.281 -0.138
0.317 -0.273 -0.135
0.318 -0.268 -0.134
0.316 -0.263 -0.133
0.315 -0.257 -0.132
0.316 -0.254 -0.132
0.315 -0.249 -0.131
0.315 -0.245 -0.131
0.311 -0.238 -0.129
0.311 -0.233 -0.128
0.311 -0.230 -0.128
0.310 -0.225 -0.127
0.307 -0.219 -0.125
0.304 -0.213 -0.124
0.303 -0.209 -0.123
0.302 -0.205 -0.122
0.297 -0.198 -0.120
0.294 -0.192 -0.118
0.255 -0.164 -0.103
0.244 -0.154 -0.098
0.217 -0.134 -0.087
0.208 -0.126 -0.083
0.208 -0.124 -0.083
0.209 -0.122 -0.083
0.214 -0.123 -0.085
0.252 -0.141 -0.099
0.246 -0.135 -0.097
0.245 -0.132 -0.096
0.247 -0.131 -0.097
0.306 -0.155 -0.119
0.309 -0.154 -0.120
0.314 -0.152 -0.122
0.318 -0.151 -0.123
0.322 -0.150 -0.125
0.325 -0.148 -0.126
0.327 -0.145 -0.126
0.335 -0.146 -0.129
0.299 -0.123 -0.115
0.352 -0.131 -0.134
0.358 -0.130 -0.136
0.363 -0.128 -0.138
0.366 -0.126 -0.139
0.369 -0.123 -0.140
0.376 -0.122 -0.143
0.385 -0.121 -0.146
0.396 -0.120 -0.150
0.408 -0.120 -0.154
0.412 -0.117 -0.156
0.414 -0.114 -0.156
1.282 -0.328 -0.483
0.369 -0.077 -0.138
0.362 -0.072 -0.136
0.301 -0.054 -0.113
0.293 -0.050 -0.109
0.289 -0.047 -0.108
0.292 -0.044 -0.109
0.295 -0.042 -0.110
0.298 -0.040 -0.111
0.300 -0.037 -0.112
0.300 -0.035 -0.112
0.295 -0.031 -0.110
0.292 -0.028 -0.109
0.297 -0.026 -0.111
0.305 -0.024 -0.113
0.305 -0.021 -0.113
0.309 -0.018 -0.115
0.317 -0.016 -0.118
0.310 -0.013 -0.115
0.324 -0.007 -0.121
0.316 -0.004 -0.118
0.307 -0.001 -0.114
0.311 0.001 -0.116
0.307 0.004 -0.114
0.297 0.007 -0.111
0.289 0.009 -0.108
0.290 0.012 -0.108
0.296 0.015 -0.110
0.311 0.019 -0.116
0.314 0.022 -0.117
0.310 0.024 -0.115
0.310 0.027 -0.115
0.315 0.031 -0.118
0.326 0.035 -0.122
0.323 0.037 -0.120
0.313 0.039 -0.117
0.325 0.044 -0.121
0.329 0.047 -0.123
0.324 0.050 -0.121
0.332 0.054 -0.124
0.315 0.054 -0.118
0.310 0.056 -0.116
0.318 0.061 -0.119
0.321 0.064 -0.121
0.321 0.067 -0.121
0.331 0.073 -0.125
0.334 0.077 -0.126
0.331 0.082 -0.125
0.324 0.084 -0.122
0.313 0.084 -0.118
0.315 0.087 -0.119
0.320 0.092 -0.121
0.303 0.090 -0.115
0.309 0.095 -0.117
0.305 0.097 -0.116
0.304 0.099 -0.116
0.312 0.105 -0.119
0.308 0.107 -0.118
0.296 0.105 -0.113
0.303 0.111 -0.116
0.322 0.121 -0.124
0.332 0.129 -0.128
0.330 0.131 -0.127
0.329 0.134 -0.127
0.329 0.137 -0.127
0.326 0.140 -0.126
0.319 0.140 -0.124
0.314 0.141 -0.122
0.311 0.143 -0.121
0.316 0.149 -0.124
0.313 0.151 -0.122
0.309 0.152 -0.121
0.304 0.153 -0.120
0.304 0.157 -0.120
0.312 0.164 -0.123
0.316 0.169 -0.125
0.312 0.175 -0.124
0.323 -0.433 -0.152
0.328 -0.433 -0.154
0.331 -0.432 -0.155
0.332 -0.428 -0.155
0.332 -0.422 -0.154
0.335 -0.420 -0.155
0.339 -0.420 -0.156
0.339 -0.413 -0.155
0.333 -0.401 -0.152
0.333 -0.395 -0.151
0.335 -0.391 -0.152
0.335 -0.386 -0.151
0.327 -0.371 -0.146
0.325 -0.363 -0.145
0.326 -0.359 -0.145
0.326 -0.354 -0.144
0.326 -0.348 -0.143
0.327 -0.344 -0.143
0.326 -0.338 -0.142
0.323 -0.330 -0.140
0.322 -0.324 -0.139
0.321 -0.318 -0.138
0.322 -0.314 -0.138
0.323 -0.310 -0.138
0.323 -0.305 -0.137
0.321 -0.298 -0.135
0.319 -0.292 -0.134
0.319 -0.287 -0.134
0.317 -0.281 -0.132
0.318 -0.277 -0.132
0.317 -0.272 -0.131
0.315 -0.266 -0.130
0.313 -0.259 -0.128
0.316 -0.257 -0.129
0.313 -0.251 -0.128
0.315 -0.249 -0.128
0.315 -0.245 -0.128
0.307 -0.234 -0.124
0.308 -0.231 -0.124
0.309 -0.228 -0.124
0.309 -0.224 -0.123
0.307 -0.219 -0.122
0.303 -0.212 -0.120
0.300 -0.206 -0.119
0.297 -0.201 -0.117
0.295 -0.196 -0.116
0.297 -0.194 -0.117
0.217 -0.134 -0.085
0.208 -0.126 -0.081
0.208 -0.124 -0.081
0.209 -0.122 -0.081
0.214 -0.122 -0.082
0.251 -0.141 -0.096
0.245 -0.135 -0.094
0.244 -0.131 -0.093
0.244 -0.129 -0.093
0.256 -0.133 -0.098
0.307 -0.155 -0.117
0.310 -0.154 -0.117
0.312 -0.152 -0.118
0.317 -0.150 -0.120
0.320 -0.149 -0.121
0.323 -0.147 -0.122
0.326 -0.145 -0.122
0.326 -0.141 -0.122
0.316 -0.134 -0.118
0.309 -0.121 -0.115
0.352 -0.131 -0.131
0.358 -0.130 -0.133
0.363 -0.128 -0.135
0.366 -0.125 -0.135
0.369 -0.123 -0.136
0.375 -0.121 -0.139
0.383 -0.120 -0.141
0.395 -0.120 -0.146
0.406 -0.120 -0.150
0.414 -0.118 -0.152
0.422 -0.116 -0.155
0.433 -0.115 -0.159
0.377 -0.079 -0.138
0.369 -0.073 -0.135
0.356 -0.067 -0.130
0.304 -0.055 -0.111
0.296 -0.051 -0.108
0.292 -0.047 -0.106
0.290 -0.044 -0.105
0.292 -0.042 -0.106
0.297 -0.040 -0.108
0.300 -0.037 -0.109
0.301 -0.035 -0.109
0.298 -0.032 -0.108
0.295 -0.028 -0.107
0.303 -0.027 -0.110
0.303 -0.024 -0.110
0.290 -0.020 -0.105
0.303 -0.015 -0.110
0.313 -0.013 -0.113
0.309 -0.010 -0.112
0.306 -0.007 -0.111
0.303 -0.004 -0.110
0.307 -0.001 -0.111
0.306 0.001 -0.111
0.313 0.004 -0.113
0.307 0.007 -0.111
0.303 0.010 -0.110
0.303 0.013 -0.110
0.317 0.016 -0.115
0.320 0.019 -0.116
0.326 0.023 -0.118
0.318 0.025 -0.115
0.310 0.027 -0.112
0.307 0.030 -0.111
0.308 0.033 -0.112
0.310 0.036 -0.113
0.320 0.040 -0.117
0.336 0.045 -0.122
0.323 0.046 -0.118
0.325 0.050 -0.118
0.327 0.053 -0.119
0.324 0.056 -0.118
0.315 0.057 -0.115
0.322 0.061 -0.118
0.329 0.066 -0.120
0.335 0.070 -0.123
0.325 0.071 -0.119
0.333 0.076 -0.122
0.340 0.081 -0.125
0.333 0.082 -0.122
0.321 0.083 -0.118
0.317 0.085 -0.117
0.321 0.089 -0.118
0.308 0.088 -0.114
0.309 0.092 -0.114
0.318 0.097 -0.118
0.328 0.104 -0.121
0.323 0.105 -0.120
0.321 0.108 -0.119
0.316 0.109 -0.118
0.312 0.111 -0.116
0.317 0.116 -0.119
0.317 0.119 -0.118
0.315 0.122 -0.118
0.321 0.127 -0.120
0.319 0.130 -0.120
0.316 0.132 -0.119
0.331 0.142 -0.125
0.335 0.147 -0.127
0.313 0.140 -0.118
0.313 0.144 -0.119
0.323 0.152 -0.123
0.323 0.156 -0.123
0.317 0.156 -0.121
0.325 0.164 -0.125
0.348 0.182 -0.134
0.329 -0.440 -0.151
0.331 -0.437 -0.151
0.335 -0.437 -0.153
0.340 -0.437 -0.154
0.337 -0.428 -0.152
0.331 -0.414 -0.149
0.337 -0.416 -0.151
0.334 -0.407 -0.149
0.332 -0.398 -0.147
0.333 -0.394 -0.147
0.333 -0.389 -0.147
0.331 -0.381 -0.145
0.326 -0.369 -0.142
0.325 -0.363 -0.141
0.324 -0.356 -0.140
0.324 -0.350 -0.139
0.324 -0.345 -0.138
0.324 -0.340 -0.138
0.322 -0.333 -0.136
0.322 -0.328 -0.136
0.320 -0.321 -0.134
0.321 -0.316 -0.134
0.321 -0.312 -0.134
0.321 -0.307 -0.133
0.321 -0.302 -0.132
0.321 -0.297 -0.132
0.321 -0.292 -0.131
0.316 -0.284 -0.129
0.316 -0.279 -0.128
0.316 -0.275 -0.128
0.316 -0.270 -0.127
0.313 -0.264 -0.126
0.313 -0.259 -0.125
0.310 -0.253 -0.123
0.311 -0.249 -0.123
0.314 -0.247 -0.124
0.313 -0.242 -0.123
0.309 -0.236 -0.121
0.305 -0.228 -0.119
0.307 -0.226 -0.120
0.308 -0.223 -0.119
0.306 -0.218 -0.119
0.298 -0.208 -0.115
0.299 -0.205 -0.115
0.297 -0.200 -0.114
0.297 -0.197 -0.113
0.286 -0.186 -0.109
0.274 -0.175 -0.104
0.208 -0.126 -0.078
0.208 -0.123 -0.078
0.209 -0.121 -0.078
0.213 -0.122 -0.080
0.249 -0.139 -0.093
0.244 -0.134 -0.091
0.243 -0.131 -0.090
0.244 -0.129 -0.091
0.247 -0.127 -0.091
0.307 -0.155 -0.113
0.310 -0.153 -0.114
0.313 -0.152 -0.115
0.315 -0.149 -0.116
0.318 -0.148 -0.117
0.322 -0.146 -0.118
0.325 -0.144 -0.119
0.323 -0.140 -0.118
0.308 -0.130 -0.112
0.298 -0.123 -0.108
0.349 -0.130 -0.126
0.357 -0.129 -0.129
0.362 -0.128 -0.131
0.366 -0.125 -0.132
0.369 -0.123 -0.133
0.374 -0.121 -0.134
0.388 -0.121 -0.139
0.397 -0.120 -0.142
0.407 -0.120 -0.146
0.417 -0.118 -0.149
0.423 -0.116 -0.151
0.430 -0.114 -0.154
0.438 -0.112 -0.156
0.385 -0.084 -0.137
0.383 -0.080 -0.136
0.376 -0.075 -0.134
0.362 -0.069 -0.128
0.294 -0.053 -0.104
0.293 -0.050 -0.104
0.292 -0.047 -0.103
0.291 -0.044 -0.103
0.291 -0.042 -0.103
0.298 -0.040 -0.105
0.304 -0.038 -0.107
0.299 -0.034 -0.106
0.292 -0.031 -0.103
0.300 -0.029 -0.106
0.302 -0.026 -0.107
0.307 -0.024 -0.108
0.302 -0.021 -0.107
0.313 -0.019 -0.110
0.307 -0.015 -0.108
0.305 -0.013 -0.107
0.299 -0.010 -0.105
0.295 -0.007 -0.104
0.293 -0.004 -0.103
0.300 -0.001 -0.106
0.303 0.001 -0.107
0.314 0.004 -0.111
0.318 0.007 -0.112
0.307 0.010 -0.108
0.321 0.013 -0.113
0.327 0.017 -0.115
0.325 0.019 -0.115
0.329 0.023 -0.116
0.322 0.025 -0.114
0.307 0.027 -0.108
0.300 0.029 -0.106
0.300 0.032 -0.106
0.306 0.035 -0.108
0.325 0.041 -0.115
0.339 0.045 -0.120
0.344 0.049 -0.122
0.332 0.051 -0.118
0.327 0.053 -0.116
0.328 0.056 -0.116
0.332 0.060 -0.118
0.327 0.062 -0.116
0.332 0.066 -0.118
0.322 0.067 -0.115
0.317 0.069 -0.113
0.319 0.073 -0.114
0.341 0.081 -0.122
0.326 0.081 -0.117
0.324 0.086 -0.116
0.312 0.086 -0.112
0.317 0.091 -0.114
0.312 0.092 -0.112
0.313 0.096 -0.113
0.324 0.102 -0.117
0.339 0.110 -0.122
0.334 0.112 -0.121
0.327 0.113 -0.119
0.329 0.117 -0.119
0.318 0.116 -0.116
0.312 0.117 -0.113
0.304 0.117 -0.111
0.339 0.148 -0.125
0.336 0.151 -0.124
0.353 0.185 -0.132
0.337 0.263 -0.135
0.326 -0.441 -0.146
0.330 -0.441 -0.147
0.330 -0.435 -0.147
0.333 -0.433 -0.147
0.334 -0.430 -0.147
0.331 -0.419 -0.145
0.330 -0.413 -0.144
0.330 -0.407 -0.144
0.329 -0.400 -0.143
0.327 -0.392 -0.141
0.327 -0.386 -0.141
0.327 -0.381 -0.140
0.326 -0.374 -0.139
0.325 -0.368 -0.138
0.327 -0.364 -0.138
0.325 -0.357 -0.136
0.323 -0.349 -0.135
0.322 -0.342 -0.134
0.321 -0.336 -0.133
0.320 -0.330 -0.132
0.317 -0.322 -0.130
0.317 -0.317 -0.129
0.318 -0.313 -0.129
0.318 -0.309 -0.129
0.318 -0.303 -0.128
0.317 -0.298 -0.127
0.320 -0.296 -0.128
0.321 -0.292 -0.128
0.315 -0.282 -0.125
0.314 -0.277 -0.124
0.315 -0.273 -0.124
0.314 -0.268 -0.123
0.313 -0.263 -0.122
0.312 -0.258 -0.121
0.310 -0.252 -0.120
0.309 -0.247 -0.119
0.308 -0.242 -0.118
0.311 -0.240 -0.119
0.302 -0.230 -0.115
0.304 -0.228 -0.116
0.303 -0.223 -0.115
0.302 -0.218 -0.114
0.302 -0.214 -0.113
0.299 -0.209 -0.112
0.295 -0.202 -0.110
0.291 -0.196 -0.108
0.290 -0.192 -0.108
0.283 -0.184 -0.105
0.275 -0.176 -0.102
0.208 -0.126 -0.076
0.208 -0.123 -0.076
0.208 -0.121 -0.076
0.209 -0.119 -0.076
0.247 -0.138 -0.090
0.243 -0.133 -0.088
0.244 -0.131 -0.088
0.245 -0.129 -0.089
0.247 -0.127 -0.089
0.305 -0.154 -0.110
0.309 -0.153 -0.111
0.313 -0.151 -0.112
0.316 -0.150 -0.113
0.319 -0.148 -0.114
0.321 -0.145 -0.114
0.322 -0.143 -0.115
0.320 -0.138 -0.114
0.289 -0.119 -0.102
0.348 -0.129 -0.123
0.356 -0.129 -0.125
0.361 -0.127 -0.127
0.365 -0.125 -0.128
0.369 -0.122 -0.129
0.374 -0.121 -0.131
0.388 -0.121 -0.135
0.398 -0.121 -0.139
0.407 -0.120 -0.142
0.416 -0.118 -0.145
0.427 -0.117 -0.149
0.430 -0.114 -0.149
0.429 -0.110 -0.149
0.422 -0.104 -0.146
0.380 -0.083 -0.131
0.383 -0.080 -0.132
0.368 -0.073 -0.127
0.358 -0.068 -0.124
0.293 -0.053 -0.101
0.287 -0.049 -0.099
0.288 -0.046 -0.099
0.289 -0.044 -0.100
0.291 -0.042 -0.100
0.297 -0.040 -0.102
0.298 -0.037 -0.103
0.291 -0.033 -0.100
0.291 -0.031 -0.100
0.295 -0.028 -0.101
0.302 -0.026 -0.104
0.308 -0.024 -0.106
0.322 -0.022 -0.111
0.327 -0.020 -0.112
0.318 -0.016 -0.109
0.308 -0.013 -0.106
0.314 -0.010 -0.108
0.311 -0.007 -0.107
0.303 -0.004 -0.104
0.310 -0.001 -0.106
0.307 0.001 -0.105
0.317 0.004 -0.109
0.316 0.007 -0.109
0.322 0.010 -0.110
0.320 0.013 -0.110
0.325 0.016 -0.112
0.317 0.019 -0.109
0.317 0.022 -0.109
0.317 0.025 -0.109
0.313 0.027 -0.107
0.304 0.029 -0.104
0.300 0.032 -0.103
0.302 0.035 -0.104
0.315 0.039 -0.108
0.336 0.045 -0.116
0.342 0.049 -0.118
0.324 0.049 -0.112
0.313 0.051 -0.108
0.337 0.058 -0.116
0.340 0.062 -0.118
0.332 0.063 -0.115
0.330 0.066 -0.114
0.325 0.068 -0.113
0.316 0.069 -0.110
0.312 0.071 -0.108
0.314 0.075 -0.109
0.314 0.081 -0.109
0.322 0.086 -0.112
0.334 0.092 -0.117
0.327 0.093 -0.114
0.316 0.093 -0.111
0.311 0.095 -0.109
0.312 0.098 -0.110
0.326 0.106 -0.115
0.341 0.114 -0.120
0.329 0.114 -0.116
0.331 0.118 -0.117
0.325 0.118 -0.115
0.303 0.114 -0.107
0.298 0.115 -0.106
0.338 0.147 -0.121
0.348 0.156 -0.125
0.346 0.177 -0.126
0.348 0.182 -0.127
0.342 0.183 -0.125
0.380 0.216 -0.139
0.364 0.215 -0.135
0.327 -0.442 -0.142
0.327 -0.436 -0.142
0.334 -0.440 -0.144
0.327 -0.425 -0.141
0.322 -0.413 -0.138
0.325 -0.412 -0.139
0.329 -0.410 -0.140
0.329 -0.405 -0.139
0.327 -0.397 -0.138
0.325 -0.389 -0.136
0.324 -0.382 -0.135
0.323 -0.375 -0.134
0.321 -0.367 -0.133
0.322 -0.363 -0.132
0.326 -0.362 -0.134
0.328 -0.359 -0.134
0.320 -0.346 -0.130
0.320 -0.340 -0.129
0.320 -0.334 -0.128
0.317 -0.327 -0.127
0.311 -0.315 -0.124
0.313 -0.313 -0.124
0.315 -0.310 -0.124
0.316 -0.306 -0.124
0.316 -0.301 -0.123
0.315 -0.296 -0.123
0.316 -0.292 -0.123
0.316 -0.287 -0.122
0.313 -0.280 -0.120
0.312 -0.274 -0.119
0.311 -0.269 -0.119
0.312 -0.266 -0.119
0.313 -0.263 -0.119
0.313 -0.258 -0.118
0.309 -0.251 -0.116
0.307 -0.245 -0.115
0.305 -0.239 -0.114
0.302 -0.233 -0.112
0.303 -0.230 -0.112
0.303 -0.226 -0.112
0.301 -0.221 -0.111
0.300 -0.216 -0.110
0.295 -0.209 -0.108
0.292 -0.203 -0.106
0.228 -0.145 -0.082
0.227 -0.142 -0.081
0.229 -0.141 -0.082
0.211 -0.127 -0.075
0.208 -0.123 -0.074
0.208 -0.121 -0.074
0.209 -0.119 -0.074
0.232 -0.129 -0.082
0.244 -0.134 -0.086
0.245 -0.131 -0.086
0.246 -0.129 -0.086
0.247 -0.127 -0.086
0.309 -0.153 -0.108
0.312 -0.151 -0.108
0.316 -0.149 -0.110
0.320 -0.148 -0.111
0.321 -0.145 -0.111
0.323 -0.143 -0.112
0.315 -0.136 -0.109
0.282 -0.116 -0.097
0.273 -0.110 -0.094
0.269 -0.103 -0.092
0.355 -0.128 -0.121
0.360 -0.126 -0.123
0.362 -0.124 -0.123
0.368 -0.122 -0.125
0.378 -0.122 -0.129
0.390 -0.122 -0.132
0.398 -0.121 -0.135
0.406 -0.119 -0.138
0.420 -0.119 -0.142
0.428 -0.117 -0.145
0.435 -0.115 -0.147
0.435 -0.111 -0.147
0.384 -0.083 -0.129
0.385 -0.080 -0.129
0.295 -0.053 -0.099
0.288 -0.049 -0.096
0.288 -0.046 -0.096
0.288 -0.044 -0.096
0.292 -0.042 -0.097
0.298 -0.040 -0.100
0.299 -0.037 -0.100
0.290 -0.033 -0.097
0.288 -0.030 -0.096
0.294 -0.028 -0.098
0.296 -0.026 -0.099
0.307 -0.024 -0.102
0.322 -0.022 -0.108
0.325 -0.019 -0.108
0.312 -0.016 -0.104
0.313 -0.013 -0.104
0.308 -0.010 -0.103
0.319 -0.007 -0.106
0.323 -0.004 -0.108
0.320 -0.001 -0.107
0.316 0.001 -0.106
0.322 0.004 -0.107
0.326 0.007 -0.109
0.327 0.011 -0.109
0.326 0.013 -0.109
0.321 0.016 -0.107
0.315 0.019 -0.105
0.307 0.021 -0.102
0.311 0.024 -0.104
0.314 0.027 -0.105
0.315 0.030 -0.105
0.311 0.033 -0.104
0.311 0.036 -0.104
0.318 0.040 -0.106
0.334 0.045 -0.112
0.331 0.047 -0.111
0.317 0.048 -0.106
0.312 0.050 -0.105
0.322 0.055 -0.108
0.346 0.062 -0.116
0.338 0.064 -0.114
0.327 0.065 -0.110
0.325 0.068 -0.109
0.320 0.070 -0.108
0.307 0.070 -0.104
0.309 0.076 -0.105
0.308 0.079 -0.104
0.329 0.087 -0.111
0.337 0.093 -0.114
0.320 0.091 -0.109
0.313 0.092 -0.106
0.309 0.094 -0.105
0.310 0.098 -0.106
0.320 0.104 -0.109
0.322 0.108 -0.110
0.335 0.115 -0.115
0.331 0.117 -0.113
0.326 0.119 -0.112
0.310 0.116 -0.107
0.347 0.177 -0.122
0.370 0.206 -0.132
0.325 -0.438 -0.137
0.328 -0.438 -0.138
0.322 -0.424 -0.135
0.326 -0.423 -0.136
0.321 -0.412 -0.134
0.321 -0.406 -0.133
0.326 -0.407 -0.135
0.327 -0.402 -0.134
0.325 -0.394 -0.133
0.325 -0.388 -0.132
0.324 -0.381 -0.131
0.323 -0.374 -0.130
0.320 -0.366 -0.129
0.321 -0.362 -0.128
0.322 -0.357 -0.128
0.319 -0.349 -0.126
0.318 -0.343 -0.125
0.319 -0.338 -0.125
0.318 -0.332 -0.124
0.317 -0.326 -0.123
0.317 -0.321 -0.123
0.310 -0.309 -0.119
0.313 -0.308 -0.120
0.316 -0.306 -0.121
0.316 -0.300 -0.120
0.314 -0.294 -0.119
0.312 -0.287 -0.117
0.312 -0.283 -0.117
0.311 -0.278 -0.116
0.309 -0.272 -0.115
0.309 -0.267 -0.114
0.310 -0.264 -0.114
0.313 -0.262 -0.115
0.312 -0.257 -0.114
0.309 -0.250 -0.113
0.306 -0.244 -0.111
0.303 -0.237 -0.110
0.303 -0.234 -0.109
0.303 -0.230 -0.109
0.303 -0.226 -0.109
0.299 -0.219 -0.107
0.295 -0.212 -0.105
0.288 -0.204 -0.102
0.210 -0.144 -0.074
0.207 -0.139 -0.073
0.208 -0.138 -0.073
0.211 -0.137 -0.074
0.223 -0.142 -0.078
0.225 -0.141 -0.078
0.225 -0.138 -0.078
0.217 -0.131 -0.075
0.207 -0.122 -0.072
0.208 -0.120 -0.072
0.209 -0.119 -0.072
0.246 -0.134 -0.084
0.246 -0.132 -0.084
0.245 -0.128 -0.083
0.245 -0.126 -0.083
0.250 -0.126 -0.085
0.309 -0.152 -0.105
0.312 -0.151 -0.105
0.314 -0.148 -0.106
0.318 -0.147 -0.107
0.321 -0.145 -0.108
0.322 -0.142 -0.108
0.318 -0.137 -0.106
0.294 -0.121 -0.098
0.266 -0.104 -0.089
0.278 -0.106 -0.092
0.355 -0.128 -0.118
0.358 -0.126 -0.118
0.364 -0.124 -0.120
0.370 -0.123 -0.122
0.383 -0.123 -0.126
0.391 -0.122 -0.129
0.402 -0.122 -0.132
0.408 -0.119 -0.134
0.415 -0.118 -0.136
0.428 -0.117 -0.140
0.434 -0.115 -0.142
0.446 -0.114 -0.146
0.443 -0.109 -0.145
0.395 -0.086 -0.129
0.303 -0.054 -0.099
0.291 -0.049 -0.095
0.288 -0.046 -0.094
0.290 -0.044 -0.094
0.290 -0.041 -0.094
0.295 -0.039 -0.096
0.296 -0.037 -0.096
0.293 -0.034 -0.095
0.291 -0.031 -0.094
0.296 -0.028 -0.096
0.296 -0.026 -0.096
0.311 -0.024 -0.101
0.313 -0.022 -0.102
0.309 -0.018 -0.100
0.301 -0.015 -0.098
0.289 -0.012 -0.094
0.301 -0.010 -0.097
0.314 -0.007 -0.102
0.328 -0.004 -0.106
0.332 -0.002 -0.108
0.323 0.001 -0.105
0.323 0.004 -0.105
0.330 0.008 -0.107
0.332 0.011 -0.108
0.329 0.014 -0.107
0.322 0.016 -0.104
0.317 0.019 -0.103
0.310 0.021 -0.101
0.309 0.024 -0.100
0.310 0.027 -0.101
0.316 0.031 -0.103
0.318 0.034 -0.103
0.319 0.037 -0.104
0.320 0.040 -0.104
0.325 0.043 -0.106
0.320 0.046 -0.104
0.314 0.048 -0.102
0.314 0.051 -0.102
0.331 0.056 -0.108
0.335 0.060 -0.109
0.330 0.063 -0.108
0.322 0.064 -0.105
0.322 0.067 -0.106
0.319 0.070 -0.105
0.316 0.072 -0.104
0.309 0.073 -0.101
0.303 0.075 -0.099
0.307 0.079 -0.101
0.313 0.083 -0.103
0.314 0.086 -0.103
0.317 0.090 -0.105
0.302 0.089 -0.100
0.299 0.091 -0.099
0.310 0.097 -0.103
0.324 0.105 -0.107
0.334 0.112 -0.111
0.321 0.110 -0.107
0.332 0.117 -0.110
0.331 0.120 -0.110
0.317 0.118 -0.106
0.301 0.116 -0.101
0.326 0.146 -0.110
0.371 0.193 -0.127
0.364 0.198 -0.126
0.368 0.204 -0.127
0.378 0.214 -0.131
0.372 0.223 -0.130
0.320 -0.437 -0.132
0.324 -0.437 -0.133
0.326 -0.434 -0.133
0.322 -0.424 -0.131
0.324 -0.420 -0.131
0.324 -0.415 -0.131
0.321 -0.406 -0.129
0.323 -0.402 -0.129
0.320 -0.393 -0.128
0.323 -0.391 -0.128
0.325 -0.388 -0.128
0.325 -0.382 -0.128
0.323 -0.375 -0.126
0.323 -0.368 -0.126
0.323 -0.363 -0.125
0.323 -0.358 -0.125
0.319 -0.348 -0.122
0.317 -0.341 -0.121
0.316 -0.334 -0.120
0.313 -0.327 -0.118
0.319 -0.327 -0.120
0.318 -0.322 -0.119
0.313 -0.311 -0.117
0.312 -0.306 -0.116
0.316 -0.305 -0.117
0.315 -0.299 -0.116
0.312 -0.291 -0.114
0.309 -0.284 -0.113
0.309 -0.280 -0.112
0.310 -0.276 -0.112
0.308 -0.270 -0.111
0.308 -0.266 -0.111
0.307 -0.261 -0.110
0.309 -0.258 -0.110
0.309 -0.254 -0.110
0.308 -0.249 -0.109
0.308 -0.245 -0.108
0.304 -0.237 -0.107
0.299 -0.230 -0.105
0.302 -0.228 -0.105
0.296 -0.220 -0.103
0.294 -0.215 -0.102
0.284 -0.204 -0.098
0.209 -0.143 -0.072
0.208 -0.140 -0.071
0.209 -0.137 -0.071
0.210 -0.136 -0.071
0.223 -0.142 -0.076
0.225 -0.140 -0.076
0.226 -0.138 -0.076
0.224 -0.135 -0.075
0.207 -0.122 -0.069
0.208 -0.120 -0.070
0.210 -0.119 -0.070
0.214 -0.119 -0.071
0.242 -0.132 -0.080
0.244 -0.131 -0.081
0.244 -0.128 -0.081
0.244 -0.125 -0.081
0.248 -0.125 -0.082
0.307 -0.151 -0.101
0.309 -0.149 -0.101
0.313 -0.148 -0.103
0.316 -0.146 -0.103
0.320 -0.144 -0.104
0.322 -0.142 -0.105
0.315 -0.135 -0.102
0.308 -0.129 -0.100
0.301 -0.124 -0.098
0.277 -0.105 -0.089
0.354 -0.128 -0.114
0.359 -0.126 -0.115
0.366 -0.125 -0.117
0.377 -0.125 -0.121
0.385 -0.124 -0.123
0.392 -0.122 -0.125
0.400 -0.121 -0.128
0.411 -0.120 -0.131
0.413 -0.117 -0.132
0.419 -0.114 -0.133
0.431 -0.114 -0.137
0.444 -0.113 -0.141
0.446 -0.109 -0.142
0.383 -0.090 -0.121
0.382 -0.083 -0.121
0.382 -0.079 -0.121
0.366 -0.072 -0.116
0.354 -0.067 -0.112
0.302 -0.054 -0.095
0.293 -0.050 -0.092
0.291 -0.047 -0.092
0.291 -0.044 -0.092
0.291 -0.041 -0.092
0.291 -0.039 -0.092
0.288 -0.036 -0.091
0.289 -0.033 -0.091
0.302 -0.032 -0.095
0.300 -0.029 -0.094
0.311 -0.027 -0.098
0.315 -0.024 -0.099
0.310 -0.021 -0.097
0.306 -0.018 -0.096
0.293 -0.015 -0.092
0.296 -0.012 -0.093
0.298 -0.010 -0.094
0.304 -0.007 -0.096
0.314 -0.004 -0.099
0.321 -0.001 -0.101
0.313 0.001 -0.099
0.316 0.004 -0.099
0.328 0.008 -0.103
0.327 0.010 -0.103
0.326 0.013 -0.103
0.320 0.016 -0.101
0.318 0.019 -0.100
0.314 0.022 -0.099
0.317 0.025 -0.100
0.310 0.027 -0.098
0.316 0.030 -0.099
0.321 0.034 -0.101
0.320 0.037 -0.101
0.326 0.040 -0.103
0.327 0.044 -0.103
0.313 0.045 -0.099
0.306 0.046 -0.097
0.318 0.051 -0.101
0.323 0.055 -0.102
0.325 0.058 -0.103
0.319 0.060 -0.101
0.317 0.063 -0.100
0.316 0.066 -0.100
0.315 0.069 -0.100
0.313 0.071 -0.100
0.312 0.074 -0.100
0.309 0.076 -0.098
0.309 0.079 -0.099
0.302 0.080 -0.096
0.312 0.086 -0.100
0.317 0.090 -0.101
0.301 0.089 -0.097
0.284 0.086 -0.091
0.326 0.105 -0.105
0.327 0.109 -0.105
0.317 0.109 -0.102
0.315 0.111 -0.102
0.330 0.120 -0.107
0.322 0.120 -0.104
0.320 0.123 -0.104
0.333 0.148 -0.109
0.321 0.146 -0.106
0.316 0.151 -0.104
0.385 0.201 -0.128
0.367 0.199 -0.123
0.390 0.220 -0.131
0.392 0.226 -0.132
0.386 0.227 -0.131
0.380 0.232 -0.129
0.316 -0.431 -0.126
0.318 -0.428 -0.126
0.317 -0.421 -0.125
0.321 -0.422 -0.127
0.321 -0.416 -0.126
0.320 -0.409 -0.125
0.322 -0.406 -0.125
0.324 -0.402 -0.125
0.321 -0.394 -0.124
0.320 -0.387 -0.123
0.323 -0.384 -0.123
0.322 -0.378 -0.123
0.320 -0.370 -0.121
0.321 -0.366 -0.121
0.323 -0.362 -0.121
0.324 -0.358 -0.121
0.322 -0.351 -0.120
0.317 -0.340 -0.117
0.315 -0.332 -0.116
0.315 -0.328 -0.116
0.316 -0.324 -0.115
0.316 -0.319 -0.115
0.314 -0.312 -0.113
0.312 -0.305 -0.112
0.312 -0.300 -0.112
0.310 -0.294 -0.111
0.309 -0.289 -0.110
0.310 -0.285 -0.110
0.308 -0.279 -0.109
0.308 -0.274 -0.108
0.307 -0.269 -0.107
0.306 -0.263 -0.106
0.306 -0.259 -0.106
0.306 -0.255 -0.106
0.307 -0.252 -0.106
0.308 -0.248 -0.105
0.306 -0.243 -0.105
0.301 -0.235 -0.102
0.300 -0.231 -0.102
0.297 -0.224 -0.100
0.295 -0.219 -0.100
0.293 -0.214 -0.099
0.273 -0.196 -0.091
0.262 -0.185 -0.087
0.210 -0.143 -0.070
0.208 -0.139 -0.069
0.208 -0.137 -0.069
0.210 -0.136 -0.069
0.223 -0.142 -0.073
0.225 -0.140 -0.074
0.227 -0.139 -0.074
0.229 -0.137 -0.075
0.208 -0.122 -0.067
0.208 -0.120 -0.067
0.210 -0.119 -0.068
0.213 -0.118 -0.069
0.240 -0.131 -0.077
0.243 -0.130 -0.078
0.243 -0.127 -0.078
0.246 -0.126 -0.079
0.249 -0.125 -0.079
0.308 -0.148 -0.098
0.312 -0.147 -0.099
0.317 -0.146 -0.100
0.319 -0.144 -0.101
0.322 -0.142 -0.102
0.314 -0.135 -0.099
0.310 -0.130 -0.097
0.304 -0.125 -0.096
0.270 -0.105 -0.085
0.283 -0.107 -0.088
0.287 -0.106 -0.090
0.353 -0.127 -0.110
0.355 -0.124 -0.111
0.368 -0.125 -0.115
0.377 -0.125 -0.117
0.384 -0.123 -0.119
0.388 -0.121 -0.120
0.400 -0.121 -0.124
0.407 -0.119 -0.126
0.414 -0.117 -0.128
0.420 -0.115 -0.130
0.428 -0.113 -0.132
0.437 -0.111 -0.135
0.439 -0.107 -0.135
0.361 -0.078 -0.111
0.381 -0.079 -0.117
0.379 -0.075 -0.116
0.293 -0.053 -0.090
0.291 -0.049 -0.089
0.289 -0.046 -0.088
0.289 -0.044 -0.088
0.291 -0.041 -0.089
0.291 -0.039 -0.089
0.289 -0.036 -0.088
0.288 -0.033 -0.088
0.288 -0.030 -0.088
0.326 -0.028 -0.099
0.311 -0.024 -0.095
0.308 -0.021 -0.094
0.315 -0.019 -0.096
0.301 -0.015 -0.092
0.296 -0.012 -0.090
0.303 -0.010 -0.092
0.308 -0.007 -0.094
0.299 -0.004 -0.091
0.303 -0.001 -0.092
0.313 0.001 -0.095
0.317 0.004 -0.097
0.319 0.007 -0.097
0.317 0.010 -0.097
0.321 0.013 -0.098
0.319 0.016 -0.097
0.319 0.019 -0.097
0.322 0.022 -0.098
0.323 0.025 -0.099
0.317 0.028 -0.097
0.315 0.030 -0.096
0.319 0.034 -0.097
0.323 0.037 -0.099
0.327 0.041 -0.100
0.330 0.044 -0.101
0.330 0.047 -0.101
0.322 0.049 -0.099
0.320 0.051 -0.098
0.320 0.054 -0.098
