VERSION .7
FIELDS x y z
SIZE 4 4 4
TYPE F F F
COUNT 1 1 1
WIDTH     2587
HEIGHT 1
VIEWPOINT 0 0 0 1 0 0 0
POINTS     2587
DATA ascii
0.277 0.085 0.040
0.301 0.096 0.043
0.294 0.096 0.042
0.309 0.105 0.045
0.317 0.110 0.046
0.312 0.112 0.045
0.301 0.111 0.044
0.302 0.114 0.044
0.300 0.116 0.044
0.304 0.121 0.044
0.319 0.130 0.047
0.336 0.140 0.049
0.347 0.148 0.051
0.392 0.176 0.058
0.391 0.179 0.058
0.386 0.181 0.057
0.376 0.180 0.056
0.368 0.180 0.055
0.363 0.182 0.054
0.356 0.182 0.053
0.345 0.180 0.052
0.339 0.180 0.051
0.333 0.181 0.050
0.328 0.182 0.050
0.322 0.182 0.049
0.316 0.182 0.048
0.313 0.184 0.048
0.310 0.186 0.047
0.303 0.185 0.046
0.297 0.185 0.046
0.294 0.186 0.045
0.290 0.187 0.045
0.285 0.188 0.044
0.279 0.187 0.043
0.272 0.186 0.043
0.268 0.186 0.042
0.265 0.187 0.042
0.262 0.189 0.041
0.261 0.191 0.041
0.261 0.194 0.042
0.260 0.197 0.042
0.259 0.200 0.042
0.259 0.203 0.042
0.260 0.207 0.042
0.259 0.210 0.042
0.259 0.214 0.042
0.259 0.218 0.042
0.257 0.220 0.042
0.256 0.222 0.042
0.256 0.227 0.043
0.256 0.230 0.043
0.255 0.233 0.043
0.256 0.238 0.043
0.255 0.241 0.043
0.254 0.245 0.044
0.254 0.248 0.044
0.253 0.252 0.044
0.255 0.258 0.044
0.269 0.277 0.047
0.275 0.287 0.048
0.278 0.295 0.049
0.287 0.310 0.051
0.284 0.312 0.051
0.278 0.310 0.050
0.275 0.312 0.050
0.277 0.320 0.051
0.288 0.337 0.053
0.289 0.344 0.054
0.289 0.350 0.054
0.306 0.377 0.058
0.301 0.376 0.057
0.298 0.379 0.057
0.297 0.383 0.057
0.295 0.387 0.057
0.174 -0.241 0.036
0.175 -0.240 0.036
0.179 -0.242 0.036
0.284 -0.363 0.057
0.284 -0.358 0.056
0.281 -0.350 0.055
0.282 -0.346 0.055
0.285 -0.344 0.055
0.286 -0.340 0.055
0.287 -0.336 0.055
0.287 -0.331 0.055
0.289 -0.329 0.055
0.289 -0.324 0.055
0.289 -0.319 0.054
0.290 -0.315 0.054
0.289 -0.310 0.054
0.290 -0.305 0.054
0.292 -0.303 0.054
0.290 -0.297 0.053
0.290 -0.292 0.053
0.291 -0.289 0.053
0.290 -0.283 0.052
0.290 -0.279 0.052
0.290 -0.275 0.052
0.290 -0.270 0.051
0.288 -0.264 0.051
0.289 -0.261 0.051
0.286 -0.254 0.050
0.286 -0.250 0.050
0.287 -0.247 0.050
0.285 -0.241 0.049
0.283 -0.236 0.049
0.282 -0.231 0.048
0.281 -0.227 0.048
0.222 -0.173 0.038
0.213 -0.164 0.036
0.215 -0.163 0.036
0.219 -0.163 0.037
0.203 -0.148 0.034
0.199 -0.143 0.033
0.201 -0.142 0.033
0.208 -0.144 0.034
0.212 -0.145 0.035
0.211 -0.142 0.035
0.206 -0.136 0.034
0.199 -0.129 0.033
0.208 -0.133 0.034
0.208 -0.130 0.034
0.206 -0.126 0.033
0.206 -0.124 0.033
0.209 -0.123 0.034
0.211 -0.123 0.034
0.208 -0.119 0.033
0.206 -0.115 0.033
0.207 -0.114 0.033
0.202 -0.109 0.032
0.207 -0.109 0.033
0.210 -0.109 0.033
0.211 -0.107 0.033
0.211 -0.105 0.033
0.214 -0.104 0.034
0.210 -0.099 0.033
0.208 -0.097 0.033
0.213 -0.097 0.033
0.203 -0.088 0.032
0.212 -0.090 0.033
0.208 -0.086 0.032
0.217 -0.088 0.034
0.218 -0.086 0.034
0.214 -0.082 0.033
0.214 -0.080 0.033
0.215 -0.079 0.033
0.220 -0.078 0.034
0.220 -0.076 0.034
0.224 -0.075 0.034
0.230 -0.075 0.035
0.237 -0.075 0.036
0.242 -0.074 0.037
0.252 -0.075 0.038
0.264 -0.076 0.040
0.277 -0.077 0.042
0.415 -0.108 0.063
0.413 -0.104 0.063
0.406 -0.098 0.062
0.399 -0.093 0.060
0.390 -0.087 0.059
0.389 -0.083 0.059
0.384 -0.078 0.058
0.361 -0.071 0.055
0.345 -0.064 0.052
0.277 -0.047 0.042
0.281 -0.045 0.042
0.285 -0.043 0.043
0.287 -0.040 0.043
0.285 -0.037 0.043
0.287 -0.035 0.043
0.288 -0.033 0.043
0.287 -0.030 0.043
0.285 -0.027 0.043
0.283 -0.024 0.043
0.285 -0.022 0.043
0.284 -0.019 0.043
0.285 -0.017 0.043
0.289 -0.014 0.043
0.290 -0.012 0.044
0.291 -0.009 0.044
0.291 -0.007 0.044
0.294 -0.004 0.044
0.294 -0.001 0.044
0.294 0.001 0.044
0.294 0.004 0.044
0.292 0.007 0.044
0.284 0.009 0.043
0.285 0.012 0.043
0.291 0.014 0.044
0.299 0.018 0.045
0.293 0.020 0.044
0.285 0.022 0.043
0.287 0.025 0.043
0.298 0.028 0.045
0.308 0.032 0.046
0.303 0.034 0.046
0.304 0.037 0.046
0.300 0.039 0.045
0.290 0.041 0.044
0.292 0.044 0.044
0.303 0.048 0.046
0.301 0.050 0.045
0.290 0.051 0.044
0.287 0.053 0.043
0.296 0.058 0.045
0.310 0.063 0.047
0.310 0.066 0.047
0.306 0.068 0.047
0.304 0.071 0.046
0.305 0.074 0.046
0.303 0.076 0.046
0.291 0.076 0.044
0.280 0.076 0.043
0.278 0.078 0.043
0.282 0.082 0.043
0.281 0.084 0.043
0.287 0.089 0.044
0.286 0.091 0.044
0.305 0.100 0.047
0.307 0.104 0.047
0.314 0.109 0.049
0.307 0.110 0.047
0.298 0.110 0.046
0.296 0.112 0.046
0.310 0.120 0.048
0.315 0.125 0.049
0.321 0.131 0.050
0.334 0.139 0.052
0.379 0.166 0.059
0.391 0.175 0.061
0.389 0.178 0.061
0.384 0.180 0.061
0.379 0.182 0.060
0.370 0.181 0.059
0.364 0.182 0.058
0.354 0.181 0.056
0.346 0.181 0.055
0.341 0.182 0.055
0.332 0.181 0.053
0.326 0.181 0.053
0.322 0.182 0.052
0.316 0.182 0.051
0.312 0.184 0.051
0.307 0.184 0.050
0.300 0.184 0.049
0.296 0.185 0.048
0.293 0.186 0.048
0.289 0.187 0.048
0.284 0.187 0.047
0.278 0.186 0.046
0.271 0.185 0.045
0.267 0.186 0.045
0.264 0.187 0.044
0.262 0.189 0.044
0.261 0.191 0.044
0.260 0.194 0.044
0.260 0.197 0.044
0.259 0.200 0.044
0.259 0.204 0.044
0.259 0.207 0.045
0.259 0.211 0.045
0.260 0.215 0.045
0.258 0.217 0.045
0.259 0.221 0.045
0.257 0.224 0.045
0.257 0.227 0.046
0.256 0.230 0.046
0.255 0.234 0.046
0.257 0.239 0.046
0.256 0.242 0.046
0.254 0.244 0.046
0.253 0.248 0.046
0.255 0.253 0.047
0.257 0.260 0.048
0.272 0.279 0.051
0.280 0.293 0.053
0.282 0.299 0.053
0.281 0.303 0.053
0.278 0.305 0.053
0.273 0.305 0.052
0.272 0.309 0.053
0.284 0.328 0.055
0.291 0.341 0.057
0.288 0.344 0.057
0.291 0.352 0.058
0.307 0.379 0.062
0.302 0.378 0.061
0.293 0.372 0.059
0.291 0.376 0.059
0.287 0.377 0.059
0.140 -0.195 0.031
0.169 -0.232 0.037
0.171 -0.231 0.037
0.277 -0.355 0.059
0.281 -0.355 0.059
0.282 -0.350 0.059
0.282 -0.346 0.059
0.285 -0.344 0.059
0.286 -0.340 0.059
0.287 -0.336 0.058
0.290 -0.335 0.059
0.293 -0.333 0.059
0.293 -0.329 0.059
0.290 -0.321 0.058
0.290 -0.316 0.058
0.291 -0.311 0.057
0.292 -0.308 0.057
0.290 -0.301 0.057
0.290 -0.297 0.056
0.291 -0.293 0.056
0.292 -0.289 0.056
0.292 -0.285 0.056
0.290 -0.279 0.055
0.290 -0.275 0.055
0.289 -0.270 0.054
0.288 -0.265 0.054
0.287 -0.259 0.054
0.288 -0.256 0.053
0.287 -0.252 0.053
0.285 -0.246 0.052
0.283 -0.240 0.052
0.282 -0.236 0.052
0.282 -0.231 0.051
0.281 -0.227 0.051
0.221 -0.170 0.040
0.220 -0.167 0.039
0.213 -0.158 0.038
0.206 -0.151 0.037
0.200 -0.144 0.035
0.200 -0.142 0.035
0.206 -0.143 0.036
0.211 -0.144 0.037
0.210 -0.141 0.037
0.203 -0.134 0.035
0.210 -0.136 0.036
0.212 -0.135 0.037
0.208 -0.130 0.036
0.206 -0.127 0.035
0.204 -0.123 0.035
0.205 -0.121 0.035
0.204 -0.119 0.035
0.207 -0.118 0.035
0.207 -0.116 0.035
0.207 -0.114 0.035
0.205 -0.110 0.035
0.210 -0.111 0.035
0.212 -0.110 0.036
0.216 -0.109 0.036
0.218 -0.108 0.036
0.212 -0.103 0.035
0.203 -0.096 0.034
0.205 -0.095 0.034
0.207 -0.094 0.034
0.208 -0.092 0.034
0.202 -0.088 0.033
0.214 -0.091 0.035
0.207 -0.086 0.034
0.212 -0.086 0.035
0.212 -0.084 0.035
0.208 -0.080 0.034
0.213 -0.080 0.035
0.208 -0.076 0.034
0.216 -0.077 0.035
0.222 -0.077 0.036
0.221 -0.074 0.036
0.234 -0.077 0.038
0.241 -0.076 0.039
0.247 -0.076 0.040
0.248 -0.074 0.040
0.256 -0.074 0.041
0.386 -0.100 0.062
0.402 -0.101 0.065
0.402 -0.097 0.065
0.397 -0.092 0.064
0.391 -0.087 0.063
0.383 -0.082 0.061
0.369 -0.076 0.059
0.357 -0.070 0.057
0.344 -0.064 0.055
0.281 -0.047 0.045
0.282 -0.045 0.045
0.286 -0.043 0.046
0.286 -0.040 0.046
0.285 -0.037 0.045
0.284 -0.035 0.045
0.287 -0.033 0.046
0.289 -0.030 0.046
0.287 -0.027 0.046
0.285 -0.025 0.045
0.285 -0.022 0.045
0.286 -0.019 0.046
0.290 -0.017 0.046
0.288 -0.014 0.046
0.288 -0.012 0.046
0.290 -0.009 0.046
0.296 -0.007 0.047
0.294 -0.004 0.047
0.296 -0.001 0.047
0.294 0.001 0.047
0.298 0.004 0.047
0.298 0.007 0.047
0.294 0.009 0.047
0.288 0.012 0.046
0.290 0.014 0.046
0.291 0.017 0.046
0.295 0.020 0.047
0.290 0.022 0.046
0.288 0.025 0.046
0.304 0.029 0.048
0.303 0.032 0.048
0.297 0.034 0.047
0.300 0.037 0.048
0.293 0.038 0.047
0.303 0.043 0.048
0.300 0.045 0.048
0.305 0.048 0.049
0.297 0.050 0.048
0.303 0.054 0.049
0.294 0.055 0.047
0.295 0.058 0.047
0.300 0.061 0.048
0.302 0.065 0.049
0.298 0.067 0.048
0.299 0.070 0.048
0.301 0.073 0.049
0.297 0.075 0.048
0.290 0.076 0.047
0.282 0.076 0.046
0.283 0.079 0.046
0.285 0.083 0.046
0.286 0.086 0.047
0.282 0.087 0.046
0.287 0.091 0.047
0.290 0.095 0.047
0.301 0.102 0.049
0.300 0.104 0.049
0.301 0.108 0.049
0.295 0.109 0.048
0.297 0.112 0.049
0.303 0.118 0.050
0.314 0.125 0.052
0.323 0.132 0.053
0.369 0.158 0.061
0.380 0.167 0.063
0.384 0.172 0.064
0.385 0.177 0.064
0.381 0.179 0.064
0.375 0.180 0.063
0.369 0.181 0.062
0.358 0.180 0.060
0.352 0.180 0.059
0.347 0.181 0.059
0.342 0.182 0.058
0.332 0.181 0.056
0.328 0.182 0.056
0.322 0.182 0.055
0.316 0.182 0.054
0.311 0.183 0.053
0.307 0.184 0.053
0.300 0.184 0.052
0.295 0.184 0.051
0.292 0.186 0.051
0.290 0.188 0.051
0.283 0.186 0.050
0.276 0.185 0.049
0.271 0.186 0.048
0.267 0.186 0.047
0.264 0.187 0.047
0.262 0.189 0.047
0.261 0.191 0.047
0.260 0.194 0.047
0.259 0.197 0.047
0.260 0.201 0.047
0.260 0.204 0.047
0.260 0.208 0.047
0.260 0.211 0.048
0.258 0.214 0.048
0.260 0.219 0.048
0.258 0.221 0.048
0.258 0.224 0.048
0.256 0.227 0.048
0.256 0.230 0.048
0.255 0.234 0.048
0.256 0.238 0.049
0.255 0.242 0.049
0.255 0.245 0.049
0.254 0.249 0.049
0.254 0.253 0.050
0.256 0.259 0.050
0.275 0.283 0.054
0.284 0.297 0.056
0.284 0.302 0.057
0.279 0.302 0.056
0.272 0.300 0.055
0.263 0.294 0.054
0.254 0.288 0.052
0.292 0.344 0.061
0.289 0.345 0.061
0.295 0.359 0.062
0.302 0.373 0.064
0.296 0.371 0.063
0.292 0.372 0.063
0.288 0.372 0.062
0.289 0.380 0.063
0.116 -0.161 0.027
0.119 -0.162 0.027
0.122 -0.166 0.028
0.275 -0.348 0.061
0.279 -0.347 0.062
0.282 -0.346 0.062
0.283 -0.343 0.062
0.284 -0.339 0.062
0.287 -0.337 0.062
0.291 -0.336 0.062
0.293 -0.334 0.062
0.293 -0.329 0.062
0.291 -0.322 0.061
0.290 -0.316 0.061
0.291 -0.313 0.061
0.294 -0.310 0.061
0.291 -0.303 0.060
0.290 -0.297 0.059
0.291 -0.294 0.059
0.292 -0.290 0.059
0.290 -0.284 0.059
0.289 -0.279 0.058
0.289 -0.274 0.058
0.290 -0.270 0.058
0.289 -0.266 0.057
0.289 -0.261 0.057
0.288 -0.256 0.057
0.287 -0.252 0.056
0.283 -0.244 0.055
0.284 -0.241 0.055
0.282 -0.235 0.054
0.281 -0.231 0.054
0.280 -0.226 0.054
0.269 -0.214 0.051
0.218 -0.168 0.041
0.211 -0.160 0.040
0.209 -0.156 0.039
0.203 -0.149 0.038
0.200 -0.144 0.037
0.202 -0.143 0.038
0.209 -0.145 0.039
0.209 -0.143 0.039
0.205 -0.138 0.038
0.209 -0.138 0.038
0.210 -0.136 0.038
0.215 -0.137 0.039
0.214 -0.134 0.039
0.208 -0.128 0.038
0.206 -0.124 0.037
0.205 -0.121 0.037
0.203 -0.118 0.037
0.198 -0.113 0.036
0.204 -0.114 0.036
0.202 -0.111 0.036
0.207 -0.111 0.037
0.201 -0.106 0.036
0.216 -0.112 0.038
0.219 -0.111 0.039
0.218 -0.108 0.038
0.213 -0.104 0.038
0.209 -0.099 0.037
0.201 -0.093 0.035
0.205 -0.093 0.036
0.204 -0.091 0.036
0.210 -0.091 0.037
0.198 -0.084 0.034
0.212 -0.088 0.037
0.207 -0.084 0.036
0.213 -0.084 0.037
0.214 -0.082 0.037
0.203 -0.076 0.035
0.204 -0.075 0.035
0.214 -0.076 0.037
0.219 -0.076 0.038
0.228 -0.077 0.039
0.230 -0.075 0.039
0.243 -0.077 0.042
0.248 -0.076 0.043
0.251 -0.075 0.043
0.255 -0.074 0.044
0.262 -0.073 0.045
0.390 -0.098 0.066
0.395 -0.096 0.067
0.394 -0.092 0.067
0.387 -0.086 0.066
0.381 -0.081 0.065
0.365 -0.075 0.062
0.352 -0.069 0.060
0.347 -0.065 0.059
0.332 -0.059 0.056
0.291 -0.049 0.049
0.283 -0.045 0.048
0.285 -0.043 0.048
0.285 -0.040 0.048
0.283 -0.037 0.048
0.283 -0.035 0.048
0.285 -0.032 0.048
0.290 -0.030 0.049
0.291 -0.028 0.049
0.287 -0.025 0.048
0.286 -0.022 0.048
0.290 -0.020 0.049
0.291 -0.017 0.049
0.286 -0.014 0.048
0.287 -0.012 0.048
0.291 -0.009 0.049
0.291 -0.007 0.049
0.291 -0.004 0.049
0.290 -0.001 0.049
0.289 0.001 0.049
0.291 0.004 0.049
0.297 0.007 0.050
0.297 0.009 0.050
0.293 0.012 0.049
0.290 0.014 0.049
0.292 0.017 0.049
0.297 0.020 0.050
0.295 0.023 0.050
0.289 0.025 0.049
0.292 0.028 0.049
0.297 0.031 0.050
0.297 0.034 0.050
0.296 0.036 0.050
0.308 0.040 0.052
0.303 0.043 0.051
0.303 0.045 0.051
0.297 0.047 0.050
0.297 0.050 0.050
0.301 0.053 0.051
0.306 0.057 0.052
0.299 0.059 0.051
0.301 0.062 0.051
0.303 0.065 0.052
0.298 0.067 0.051
0.294 0.069 0.050
0.295 0.072 0.050
0.295 0.074 0.050
0.296 0.078 0.051
0.303 0.082 0.052
0.299 0.084 0.051
0.290 0.084 0.050
0.289 0.087 0.050
0.296 0.092 0.051
0.289 0.092 0.050
0.280 0.092 0.048
0.277 0.094 0.048
0.290 0.104 0.050
0.296 0.109 0.051
0.294 0.111 0.051
0.295 0.115 0.051
0.301 0.120 0.053
0.354 0.148 0.062
0.358 0.153 0.063
0.368 0.161 0.065
0.372 0.167 0.066
0.377 0.173 0.067
0.372 0.175 0.066
0.370 0.178 0.066
0.364 0.178 0.065
0.353 0.177 0.063
0.349 0.179 0.062
0.345 0.180 0.062
0.340 0.181 0.061
0.333 0.182 0.060
0.328 0.183 0.059
0.323 0.183 0.058
0.315 0.182 0.057
0.311 0.184 0.057
0.306 0.184 0.056
0.302 0.185 0.055
0.295 0.184 0.054
0.292 0.186 0.054
0.288 0.186 0.053
0.281 0.186 0.052
0.277 0.186 0.051
0.272 0.186 0.051
0.268 0.187 0.050
0.264 0.187 0.050
0.262 0.189 0.049
0.261 0.192 0.049
0.260 0.194 0.049
0.259 0.197 0.049
0.259 0.201 0.050
0.260 0.205 0.050
0.260 0.208 0.050
0.259 0.211 0.050
0.258 0.214 0.050
0.257 0.217 0.050
0.258 0.221 0.051
0.257 0.224 0.051
0.256 0.227 0.051
0.256 0.231 0.051
0.255 0.234 0.051
0.256 0.239 0.052
0.255 0.242 0.052
0.255 0.246 0.052
0.255 0.250 0.052
0.254 0.253 0.052
0.257 0.260 0.053
0.272 0.280 0.057
0.274 0.287 0.058
0.274 0.292 0.058
0.268 0.290 0.057
0.264 0.291 0.057
0.256 0.286 0.055
0.256 0.291 0.056
0.291 0.342 0.064
0.285 0.341 0.063
0.293 0.356 0.065
0.294 0.363 0.066
0.294 0.369 0.067
0.289 0.369 0.066
0.285 0.369 0.065
0.277 0.364 0.064
0.112 -0.155 0.027
0.110 -0.150 0.026
0.117 -0.158 0.028
0.274 -0.331 0.063
0.283 -0.337 0.065
0.287 -0.337 0.065
0.289 -0.335 0.065
0.291 -0.332 0.065
0.291 -0.327 0.065
0.291 -0.322 0.065
0.291 -0.317 0.064
0.291 -0.313 0.064
0.291 -0.308 0.064
0.290 -0.302 0.063
0.291 -0.298 0.063
0.291 -0.294 0.063
0.292 -0.290 0.062
0.291 -0.285 0.062
0.289 -0.278 0.061
0.289 -0.274 0.061
0.289 -0.270 0.061
0.288 -0.265 0.060
0.289 -0.261 0.060
0.289 -0.257 0.060
0.288 -0.253 0.059
0.285 -0.246 0.059
0.283 -0.241 0.058
0.283 -0.237 0.058
0.282 -0.232 0.057
0.280 -0.227 0.056
0.270 -0.215 0.054
0.211 -0.160 0.042
0.204 -0.152 0.040
0.203 -0.149 0.040
0.199 -0.144 0.039
0.207 -0.147 0.041
0.207 -0.144 0.041
0.214 -0.146 0.042
0.212 -0.142 0.041
0.208 -0.138 0.040
0.212 -0.137 0.041
0.215 -0.137 0.041
0.216 -0.136 0.042
0.214 -0.132 0.041
0.209 -0.126 0.040
0.207 -0.123 0.039
0.204 -0.119 0.039
0.202 -0.115 0.038
0.202 -0.113 0.038
0.204 -0.112 0.038
0.201 -0.108 0.038
0.214 -0.113 0.040
0.211 -0.109 0.039
0.211 -0.107 0.039
0.211 -0.105 0.039
0.211 -0.103 0.039
0.210 -0.100 0.039
0.204 -0.095 0.038
0.213 -0.097 0.039
0.211 -0.094 0.039
0.210 -0.091 0.039
0.214 -0.091 0.039
0.208 -0.086 0.038
0.214 -0.087 0.039
0.214 -0.085 0.039
0.213 -0.082 0.039
0.215 -0.081 0.039
0.213 -0.078 0.039
0.216 -0.077 0.039
0.214 -0.074 0.039
0.223 -0.075 0.040
0.230 -0.075 0.042
0.242 -0.077 0.044
0.247 -0.076 0.045
0.253 -0.075 0.046
0.258 -0.074 0.046
0.262 -0.073 0.047
0.370 -0.097 0.067
0.382 -0.096 0.069
0.386 -0.093 0.069
0.385 -0.090 0.069
0.384 -0.086 0.069
0.377 -0.081 0.067
0.366 -0.075 0.065
0.348 -0.068 0.062
0.342 -0.064 0.061
0.336 -0.060 0.060
0.281 -0.047 0.050
0.280 -0.045 0.050
0.285 -0.043 0.051
0.287 -0.040 0.051
0.286 -0.038 0.051
0.285 -0.035 0.051
0.288 -0.033 0.051
0.290 -0.030 0.052
0.291 -0.028 0.052
0.286 -0.025 0.051
0.284 -0.022 0.050
0.286 -0.019 0.051
0.284 -0.017 0.050
0.289 -0.014 0.051
0.289 -0.012 0.051
0.288 -0.009 0.051
0.287 -0.007 0.051
0.286 -0.004 0.051
0.287 -0.001 0.051
0.287 0.001 0.051
0.286 0.004 0.051
0.291 0.007 0.052
0.299 0.009 0.053
0.295 0.012 0.052
0.292 0.014 0.052
0.293 0.017 0.052
0.296 0.020 0.053
0.293 0.022 0.052
0.288 0.025 0.051
0.288 0.027 0.051
0.292 0.030 0.052
0.296 0.033 0.053
0.295 0.036 0.052
0.301 0.040 0.054
0.301 0.042 0.054
0.299 0.045 0.053
0.297 0.047 0.053
0.295 0.050 0.053
0.301 0.053 0.054
0.308 0.057 0.055
0.307 0.060 0.055
0.301 0.062 0.054
0.299 0.064 0.054
0.296 0.066 0.053
0.295 0.069 0.053
0.291 0.071 0.052
0.297 0.075 0.053
0.305 0.080 0.055
0.316 0.086 0.057
0.309 0.087 0.056
0.290 0.084 0.052
0.285 0.086 0.052
0.297 0.092 0.054
0.297 0.095 0.054
0.292 0.096 0.053
0.280 0.095 0.051
0.278 0.099 0.051
0.283 0.104 0.052
0.282 0.107 0.052
0.286 0.111 0.053
0.297 0.118 0.055
0.311 0.127 0.057
0.326 0.137 0.060
0.330 0.141 0.061
0.352 0.154 0.065
0.363 0.163 0.067
0.357 0.164 0.066
0.360 0.169 0.067
0.364 0.175 0.068
0.358 0.176 0.067
0.348 0.175 0.065
0.345 0.177 0.065
0.343 0.180 0.065
0.338 0.181 0.064
0.333 0.182 0.063
0.328 0.183 0.062
0.320 0.182 0.061
0.315 0.183 0.060
0.310 0.183 0.059
0.306 0.184 0.059
0.302 0.185 0.058
0.297 0.186 0.057
0.292 0.186 0.057
0.286 0.186 0.056
0.281 0.186 0.055
0.276 0.186 0.054
0.271 0.185 0.053
0.266 0.186 0.053
0.264 0.187 0.052
0.262 0.189 0.052
0.261 0.192 0.052
0.260 0.195 0.052
0.259 0.198 0.052
0.260 0.201 0.052
0.260 0.205 0.053
0.260 0.208 0.053
0.259 0.211 0.053
0.258 0.214 0.053
0.258 0.217 0.053
0.258 0.221 0.053
0.257 0.225 0.054
0.257 0.229 0.054
0.256 0.231 0.054
0.257 0.236 0.054
0.256 0.239 0.055
0.255 0.243 0.055
0.254 0.245 0.055
0.254 0.250 0.055
0.255 0.254 0.056
0.266 0.275 0.059
0.262 0.275 0.058
0.256 0.273 0.057
0.254 0.275 0.057
0.255 0.281 0.058
0.257 0.288 0.058
0.259 0.295 0.059
0.281 0.331 0.065
0.280 0.336 0.066
0.283 0.344 0.067
0.289 0.357 0.068
0.286 0.359 0.068
0.283 0.362 0.068
0.279 0.362 0.068
0.279 0.368 0.068
0.108 -0.150 0.027
0.108 -0.148 0.027
0.107 -0.144 0.027
0.107 -0.143 0.027
0.110 -0.145 0.027
0.107 -0.139 0.027
0.111 -0.142 0.027
0.288 -0.334 0.068
0.288 -0.329 0.068
0.290 -0.326 0.068
0.290 -0.322 0.068
0.290 -0.316 0.067
0.290 -0.312 0.067
0.291 -0.308 0.067
0.291 -0.303 0.066
0.291 -0.299 0.066
0.293 -0.296 0.066
0.292 -0.290 0.066
0.291 -0.286 0.065
0.290 -0.280 0.065
0.289 -0.275 0.064
0.290 -0.271 0.064
0.289 -0.266 0.064
0.288 -0.261 0.063
0.288 -0.257 0.063
0.288 -0.252 0.062
0.286 -0.247 0.062
0.284 -0.242 0.061
0.284 -0.238 0.061
0.285 -0.234 0.061
0.283 -0.230 0.060
0.220 -0.169 0.046
0.207 -0.157 0.043
0.206 -0.153 0.043
0.197 -0.145 0.041
0.212 -0.153 0.044
0.201 -0.142 0.041
0.211 -0.147 0.043
0.217 -0.149 0.045
0.211 -0.142 0.043
0.206 -0.136 0.042
0.208 -0.135 0.042
0.213 -0.136 0.043
0.216 -0.135 0.044
0.214 -0.132 0.043
0.208 -0.126 0.042
0.205 -0.122 0.041
0.205 -0.120 0.041
0.206 -0.118 0.041
0.205 -0.115 0.041
0.204 -0.112 0.040
0.204 -0.110 0.040
0.206 -0.109 0.041
0.206 -0.107 0.041
0.207 -0.105 0.041
0.205 -0.102 0.040
0.208 -0.101 0.041
0.207 -0.098 0.040
0.202 -0.094 0.039
0.202 -0.092 0.039
0.207 -0.092 0.040
0.201 -0.087 0.039
0.212 -0.090 0.041
0.197 -0.082 0.038
0.212 -0.086 0.041
0.210 -0.083 0.040
0.214 -0.082 0.041
0.217 -0.082 0.042
0.223 -0.082 0.043
0.214 -0.076 0.041
0.218 -0.076 0.042
0.216 -0.073 0.041
0.245 -0.080 0.047
0.233 -0.074 0.044
0.241 -0.074 0.046
0.250 -0.075 0.047
0.258 -0.075 0.049
0.271 -0.076 0.051
0.372 -0.097 0.070
0.377 -0.095 0.071
0.378 -0.091 0.071
0.377 -0.088 0.071
0.377 -0.084 0.071
0.374 -0.080 0.070
0.359 -0.074 0.067
0.345 -0.068 0.065
0.333 -0.062 0.063
0.280 -0.047 0.053
0.278 -0.044 0.052
0.282 -0.042 0.053
0.287 -0.040 0.054
0.285 -0.038 0.053
0.287 -0.035 0.054
0.288 -0.033 0.054
0.290 -0.030 0.054
0.288 -0.027 0.054
0.289 -0.025 0.054
0.283 -0.022 0.053
0.279 -0.019 0.052
0.287 -0.017 0.054
0.290 -0.014 0.054
0.290 -0.012 0.054
0.288 -0.009 0.054
0.288 -0.007 0.054
0.286 -0.004 0.053
0.286 -0.001 0.053
0.293 0.001 0.055
0.295 0.004 0.055
0.296 0.007 0.055
0.296 0.009 0.055
0.296 0.012 0.055
0.294 0.015 0.055
0.293 0.017 0.055
0.293 0.020 0.055
0.292 0.022 0.055
0.290 0.025 0.054
0.288 0.027 0.054
0.294 0.031 0.055
0.298 0.034 0.056
0.299 0.037 0.056
0.297 0.039 0.056
0.300 0.042 0.056
0.295 0.044 0.055
0.296 0.047 0.056
0.295 0.050 0.055
0.299 0.053 0.056
0.304 0.057 0.057
0.305 0.060 0.057
0.290 0.060 0.055
0.288 0.062 0.054
0.290 0.065 0.055
0.294 0.069 0.056
0.292 0.071 0.055
0.298 0.075 0.056
0.307 0.081 0.058
0.306 0.083 0.058
0.302 0.085 0.057
0.282 0.082 0.054
0.277 0.083 0.053
0.286 0.089 0.055
0.298 0.095 0.057
0.297 0.098 0.057
0.293 0.099 0.056
0.289 0.101 0.056
0.275 0.099 0.053
0.271 0.100 0.052
0.273 0.103 0.053
0.279 0.108 0.054
0.300 0.120 0.058
0.315 0.129 0.061
0.318 0.133 0.062
0.319 0.137 0.062
0.319 0.140 0.062
0.329 0.148 0.064
0.344 0.158 0.067
0.346 0.163 0.068
0.347 0.167 0.068
0.348 0.171 0.069
0.346 0.174 0.068
0.339 0.174 0.067
0.338 0.177 0.067
0.336 0.180 0.067
0.331 0.181 0.066
0.324 0.181 0.065
0.319 0.181 0.064
0.313 0.181 0.063
0.309 0.182 0.062
0.305 0.184 0.062
0.300 0.184 0.061
0.296 0.185 0.060
0.292 0.186 0.060
0.287 0.186 0.059
0.281 0.186 0.058
0.277 0.186 0.057
0.268 0.184 0.056
0.266 0.185 0.055
0.264 0.187 0.055
0.262 0.190 0.055
0.261 0.192 0.055
0.260 0.195 0.055
0.260 0.198 0.055
0.260 0.202 0.055
0.260 0.205 0.055
0.259 0.208 0.056
0.258 0.211 0.056
0.259 0.215 0.056
0.258 0.218 0.056
0.257 0.221 0.056
0.258 0.225 0.057
0.257 0.229 0.057
0.257 0.232 0.057
0.256 0.236 0.057
0.256 0.239 0.057
0.255 0.243 0.057
0.254 0.246 0.058
0.253 0.249 0.058
0.254 0.253 0.058
0.255 0.259 0.059
0.253 0.262 0.059
0.251 0.263 0.058
0.250 0.267 0.059
0.254 0.276 0.060
0.254 0.281 0.061
0.258 0.290 0.062
0.262 0.299 0.063
0.268 0.311 0.065
0.278 0.328 0.068
0.278 0.334 0.068
0.275 0.335 0.068
0.279 0.346 0.070
0.280 0.352 0.070
0.245 0.323 0.063
0.104 -0.145 0.028
0.106 -0.145 0.028
0.107 -0.145 0.028
0.106 -0.142 0.028
0.106 -0.140 0.028
0.106 -0.138 0.028
0.105 -0.135 0.027
0.106 -0.134 0.027
0.110 -0.138 0.028
0.114 -0.140 0.029
0.124 -0.150 0.031
0.135 -0.162 0.034
0.141 -0.167 0.035
0.288 -0.325 0.071
0.289 -0.321 0.071
0.288 -0.315 0.070
0.289 -0.311 0.070
0.291 -0.308 0.070
0.290 -0.303 0.070
0.291 -0.299 0.069
0.293 -0.296 0.069
0.291 -0.290 0.069
0.291 -0.286 0.068
0.292 -0.282 0.068
0.292 -0.277 0.068
0.290 -0.272 0.067
0.289 -0.266 0.067
0.288 -0.261 0.066
0.288 -0.257 0.066
0.287 -0.252 0.065
0.288 -0.249 0.065
0.286 -0.244 0.064
0.286 -0.239 0.064
0.285 -0.235 0.064
0.285 -0.231 0.064
0.209 -0.162 0.046
0.206 -0.156 0.045
0.201 -0.150 0.044
0.203 -0.149 0.044
0.213 -0.154 0.046
0.202 -0.144 0.044
0.207 -0.144 0.045
0.210 -0.144 0.045
0.203 -0.137 0.044
0.203 -0.135 0.043
0.207 -0.135 0.044
0.214 -0.137 0.045
0.220 -0.138 0.047
0.215 -0.132 0.045
0.208 -0.126 0.044
0.204 -0.121 0.043
0.205 -0.119 0.043
0.206 -0.118 0.043
0.206 -0.115 0.043
0.203 -0.112 0.042
0.204 -0.110 0.042
0.200 -0.106 0.041
0.209 -0.108 0.043
0.202 -0.103 0.042
0.204 -0.102 0.042
0.207 -0.101 0.043
0.210 -0.100 0.043
0.202 -0.094 0.041
0.199 -0.091 0.041
0.202 -0.090 0.041
0.209 -0.091 0.042
0.197 -0.084 0.040
0.212 -0.088 0.043
0.213 -0.084 0.043
0.214 -0.083 0.043
0.210 -0.079 0.042
0.220 -0.078 0.044
0.215 -0.075 0.043
0.219 -0.072 0.044
0.228 -0.073 0.046
0.236 -0.073 0.047
0.246 -0.074 0.049
0.255 -0.074 0.051
0.265 -0.074 0.053
0.349 -0.094 0.069
0.360 -0.094 0.071
0.371 -0.093 0.073
0.368 -0.089 0.073
0.366 -0.085 0.072
0.356 -0.080 0.070
0.355 -0.076 0.070
0.361 -0.074 0.071
0.352 -0.069 0.069
0.278 -0.047 0.055
0.278 -0.044 0.055
0.283 -0.043 0.056
0.285 -0.040 0.056
0.286 -0.038 0.056
0.282 -0.035 0.055
0.287 -0.033 0.056
0.288 -0.030 0.056
0.285 -0.027 0.056
0.284 -0.025 0.056
0.287 -0.022 0.056
0.286 -0.019 0.056
0.287 -0.017 0.056
0.289 -0.014 0.057
0.289 -0.012 0.057
0.288 -0.009 0.056
0.288 -0.007 0.056
0.288 -0.004 0.056
0.292 -0.001 0.057
0.299 0.001 0.059
0.300 0.004 0.059
0.297 0.007 0.058
0.296 0.009 0.058
0.293 0.012 0.057
0.295 0.015 0.058
0.291 0.017 0.057
0.289 0.020 0.057
0.289 0.022 0.057
0.290 0.025 0.057
0.283 0.027 0.056
0.284 0.030 0.056
0.289 0.033 0.057
0.299 0.037 0.059
0.296 0.039 0.058
0.295 0.042 0.058
0.295 0.044 0.058
0.289 0.046 0.057
0.289 0.049 0.057
0.291 0.052 0.057
0.298 0.056 0.059
0.293 0.058 0.058
0.286 0.059 0.057
0.287 0.062 0.057
0.287 0.064 0.057
0.290 0.068 0.058
0.292 0.071 0.058
0.297 0.075 0.059
0.293 0.077 0.058
0.287 0.078 0.057
0.280 0.079 0.056
0.281 0.082 0.056
0.281 0.084 0.056
0.288 0.089 0.058
0.304 0.097 0.061
0.303 0.100 0.061
0.300 0.102 0.060
0.299 0.105 0.060
0.285 0.102 0.057
0.273 0.101 0.055
0.261 0.099 0.053
0.318 0.130 0.065
0.325 0.136 0.066
0.323 0.139 0.066
0.318 0.140 0.065
0.319 0.144 0.065
0.323 0.149 0.066
0.326 0.153 0.067
0.334 0.161 0.069
0.341 0.168 0.071
0.337 0.170 0.070
0.332 0.171 0.069
0.331 0.174 0.069
0.329 0.176 0.069
0.327 0.179 0.068
0.322 0.180 0.068
0.317 0.180 0.067
0.312 0.181 0.066
0.307 0.182 0.065
0.301 0.182 0.064
0.297 0.183 0.063
0.294 0.184 0.063
0.290 0.185 0.062
0.286 0.186 0.062
0.282 0.186 0.061
0.276 0.186 0.060
0.268 0.184 0.058
0.265 0.185 0.058
0.262 0.186 0.057
0.262 0.190 0.058
0.261 0.193 0.058
0.261 0.195 0.058
0.260 0.198 0.058
0.261 0.202 0.058
0.259 0.205 0.058
0.258 0.207 0.058
0.257 0.210 0.058
0.258 0.215 0.059
0.258 0.218 0.059
0.257 0.221 0.059
0.257 0.225 0.059
0.257 0.229 0.059
0.256 0.232 0.060
0.256 0.235 0.060
0.255 0.238 0.060
0.254 0.242 0.060
0.254 0.246 0.060
0.253 0.249 0.060
0.250 0.251 0.060
0.249 0.254 0.060
0.246 0.255 0.060
0.247 0.260 0.060
0.254 0.271 0.063
0.260 0.283 0.064
0.258 0.286 0.064
0.253 0.284 0.063
0.261 0.298 0.066
0.263 0.306 0.067
0.269 0.317 0.069
0.199 0.250 0.052
0.196 0.250 0.052
0.191 0.248 0.051
0.183 0.242 0.049
0.115 -0.160 0.032
0.110 -0.152 0.031
0.114 -0.155 0.032
0.112 -0.150 0.031
0.112 -0.148 0.031
0.112 -0.145 0.030
0.113 -0.145 0.031
0.115 -0.146 0.031
0.113 -0.142 0.030
0.116 -0.143 0.031
0.118 -0.143 0.031
0.130 -0.156 0.034
0.134 -0.158 0.035
0.135 -0.157 0.035
0.288 -0.315 0.073
0.288 -0.310 0.073
0.288 -0.306 0.073
0.289 -0.303 0.073
0.291 -0.300 0.073
0.293 -0.297 0.073
0.290 -0.289 0.072
0.291 -0.286 0.072
0.292 -0.282 0.071
0.292 -0.278 0.071
0.290 -0.272 0.070
0.289 -0.266 0.070
0.288 -0.262 0.069
0.288 -0.257 0.069
0.288 -0.253 0.069
0.288 -0.250 0.068
0.288 -0.246 0.068
0.286 -0.240 0.067
0.284 -0.235 0.067
0.284 -0.231 0.066
0.205 -0.156 0.047
0.200 -0.150 0.046
0.202 -0.149 0.046
0.199 -0.144 0.045
0.201 -0.143 0.046
0.202 -0.141 0.046
0.201 -0.138 0.045
0.203 -0.137 0.045
0.207 -0.137 0.046
0.210 -0.137 0.047
0.217 -0.139 0.048
0.219 -0.138 0.049
0.220 -0.136 0.049
0.209 -0.127 0.046
0.205 -0.122 0.045
0.206 -0.120 0.045
0.205 -0.117 0.045
0.204 -0.114 0.044
0.201 -0.111 0.044
0.201 -0.109 0.044
0.207 -0.109 0.045
0.206 -0.107 0.045
0.213 -0.108 0.046
0.207 -0.103 0.045
0.209 -0.102 0.045
0.212 -0.101 0.045
0.207 -0.096 0.044
0.210 -0.096 0.045
0.203 -0.090 0.043
0.207 -0.090 0.044
0.210 -0.089 0.045
0.210 -0.088 0.045
0.213 -0.086 0.045
0.206 -0.082 0.044
0.213 -0.082 0.045
0.216 -0.081 0.046
0.218 -0.080 0.046
0.217 -0.077 0.046
0.222 -0.077 0.047
0.218 -0.074 0.046
0.221 -0.072 0.046
0.225 -0.072 0.047
0.233 -0.072 0.049
0.240 -0.072 0.050
0.250 -0.072 0.052
0.259 -0.073 0.054
0.340 -0.092 0.071
0.356 -0.093 0.074
0.361 -0.091 0.075
0.363 -0.088 0.075
0.356 -0.083 0.074
0.348 -0.078 0.072
0.345 -0.074 0.071
0.348 -0.071 0.072
0.346 -0.068 0.071
0.333 -0.062 0.069
0.279 -0.047 0.057
0.281 -0.045 0.058
0.283 -0.043 0.058
0.284 -0.040 0.059
0.277 -0.037 0.057
0.282 -0.035 0.058
0.286 -0.032 0.059
0.288 -0.030 0.059
0.281 -0.027 0.058
0.282 -0.024 0.058
0.286 -0.022 0.059
0.290 -0.020 0.059
0.288 -0.017 0.059
0.288 -0.014 0.059
0.288 -0.012 0.059
0.290 -0.009 0.059
0.281 -0.006 0.058
0.288 -0.004 0.059
0.291 -0.001 0.060
0.294 0.001 0.060
0.293 0.004 0.060
0.291 0.007 0.060
0.291 0.009 0.060
0.293 0.012 0.060
0.294 0.015 0.060
0.295 0.017 0.060
0.293 0.020 0.060
0.295 0.023 0.061
0.290 0.025 0.059
0.286 0.027 0.059
0.279 0.029 0.057
0.274 0.031 0.056
0.278 0.034 0.057
0.298 0.039 0.061
0.292 0.041 0.060
0.294 0.044 0.061
0.284 0.045 0.059
0.277 0.047 0.057
0.283 0.050 0.059
0.291 0.054 0.060
0.289 0.057 0.060
0.272 0.056 0.056
0.297 0.064 0.062
0.296 0.067 0.062
0.290 0.068 0.060
0.294 0.072 0.061
0.292 0.074 0.061
0.290 0.076 0.060
0.284 0.077 0.059
0.277 0.078 0.058
0.280 0.082 0.059
0.285 0.086 0.060
0.302 0.094 0.063
0.314 0.101 0.066
0.309 0.102 0.065
0.299 0.102 0.063
0.293 0.102 0.062
0.287 0.103 0.061
0.282 0.104 0.060
0.285 0.108 0.060
0.266 0.104 0.057
0.269 0.107 0.057
0.321 0.131 0.068
0.321 0.135 0.069
0.323 0.139 0.069
0.324 0.143 0.069
0.323 0.145 0.069
0.317 0.146 0.068
0.311 0.147 0.067
0.319 0.154 0.069
0.322 0.159 0.070
0.319 0.160 0.069
0.326 0.168 0.071
0.324 0.170 0.071
0.320 0.172 0.070
0.322 0.176 0.071
0.318 0.178 0.070
0.314 0.179 0.069
0.310 0.180 0.068
0.305 0.180 0.068
0.299 0.181 0.067
0.296 0.182 0.066
0.293 0.184 0.065
0.288 0.184 0.065
0.284 0.185 0.064
0.278 0.184 0.063
0.274 0.185 0.062
0.268 0.184 0.061
0.265 0.185 0.060
0.261 0.186 0.060
0.261 0.189 0.060
0.261 0.193 0.060
0.261 0.196 0.060
0.260 0.199 0.060
0.260 0.202 0.061
0.259 0.205 0.061
0.258 0.208 0.061
0.258 0.211 0.061
0.257 0.214 0.061
0.258 0.218 0.062
0.257 0.221 0.062
0.257 0.225 0.062
0.256 0.228 0.062
0.255 0.231 0.062
0.254 0.234 0.062
0.254 0.238 0.062
0.253 0.241 0.063
0.253 0.245 0.063
0.253 0.249 0.063
0.248 0.248 0.062
0.245 0.250 0.062
0.241 0.250 0.061
0.240 0.253 0.062
0.256 0.274 0.066
0.259 0.282 0.067
0.195 0.238 0.053
0.194 0.241 0.053
0.194 0.244 0.053
0.193 0.247 0.053
0.190 0.247 0.053
0.176 0.233 0.049
0.111 -0.154 0.032
0.111 -0.153 0.032
0.111 -0.151 0.032
0.110 -0.147 0.032
0.108 -0.143 0.031
0.111 -0.144 0.031
0.111 -0.143 0.032
0.113 -0.143 0.032
0.114 -0.143 0.032
0.115 -0.142 0.032
0.117 -0.142 0.032
0.127 -0.148 0.035
0.131 -0.151 0.036
0.135 -0.152 0.036
0.285 -0.303 0.075
0.287 -0.300 0.075
0.290 -0.299 0.076
0.293 -0.297 0.076
0.293 -0.293 0.076
0.287 -0.283 0.074
0.289 -0.280 0.074
0.290 -0.277 0.074
0.290 -0.272 0.073
0.287 -0.266 0.072
0.288 -0.262 0.072
0.288 -0.258 0.072
0.288 -0.254 0.072
0.288 -0.250 0.071
0.287 -0.245 0.071
0.286 -0.240 0.070
0.285 -0.236 0.070
0.284 -0.231 0.069
0.208 -0.158 0.050
0.202 -0.151 0.048
0.197 -0.145 0.047
0.197 -0.143 0.047
0.201 -0.143 0.048
0.203 -0.142 0.048
0.206 -0.141 0.048
0.208 -0.140 0.049
0.210 -0.139 0.049
0.214 -0.139 0.050
0.214 -0.137 0.050
0.214 -0.135 0.050
0.210 -0.130 0.049
0.207 -0.126 0.048
0.208 -0.124 0.048
0.207 -0.121 0.047
0.205 -0.117 0.047
0.203 -0.114 0.046
0.201 -0.111 0.046
0.204 -0.111 0.046
0.207 -0.110 0.047
0.211 -0.110 0.048
0.208 -0.106 0.047
0.208 -0.104 0.047
0.210 -0.102 0.047
0.209 -0.100 0.047
0.202 -0.094 0.045
0.199 -0.091 0.045
0.200 -0.089 0.045
0.205 -0.089 0.046
0.206 -0.088 0.046
0.201 -0.084 0.045
0.207 -0.084 0.046
0.203 -0.081 0.045
0.208 -0.080 0.046
0.206 -0.077 0.045
0.210 -0.077 0.046
0.212 -0.076 0.047
0.222 -0.077 0.049
0.222 -0.075 0.049
0.219 -0.072 0.048
0.225 -0.072 0.049
0.235 -0.073 0.051
0.243 -0.073 0.053
0.247 -0.072 0.054
0.255 -0.072 0.055
0.346 -0.090 0.075
0.357 -0.090 0.077
0.354 -0.086 0.077
0.350 -0.082 0.076
0.343 -0.077 0.074
0.335 -0.072 0.072
0.336 -0.069 0.073
0.339 -0.066 0.073
0.334 -0.062 0.072
0.286 -0.048 0.062
0.283 -0.045 0.061
0.282 -0.042 0.061
0.279 -0.039 0.060
0.277 -0.037 0.060
0.277 -0.034 0.060
0.285 -0.032 0.061
0.287 -0.030 0.062
0.283 -0.027 0.061
0.280 -0.024 0.060
0.283 -0.022 0.061
0.288 -0.020 0.062
0.292 -0.017 0.063
0.289 -0.014 0.062
0.284 -0.012 0.061
0.278 -0.009 0.060
0.289 -0.007 0.062
0.283 -0.004 0.061
0.289 -0.001 0.062
0.291 0.001 0.062
0.286 0.004 0.061
0.283 0.006 0.061
0.290 0.009 0.062
0.295 0.012 0.063
0.294 0.015 0.063
0.295 0.017 0.063
0.301 0.020 0.065
0.297 0.023 0.064
0.289 0.025 0.062
0.286 0.027 0.062
0.284 0.030 0.061
0.271 0.031 0.058
0.277 0.034 0.060
0.286 0.038 0.062
0.296 0.042 0.064
0.291 0.044 0.063
0.288 0.046 0.062
0.285 0.048 0.061
0.290 0.052 0.063
0.291 0.055 0.063
0.280 0.055 0.061
0.271 0.056 0.059
0.277 0.060 0.060
0.289 0.065 0.063
0.291 0.068 0.063
0.287 0.070 0.062
0.281 0.071 0.061
0.286 0.075 0.062
0.289 0.079 0.063
0.283 0.080 0.062
0.284 0.083 0.062
0.290 0.087 0.063
0.304 0.094 0.067
0.310 0.099 0.068
0.302 0.100 0.066
0.294 0.100 0.065
0.291 0.102 0.064
0.292 0.105 0.064
0.298 0.110 0.066
0.293 0.111 0.065
0.289 0.112 0.064
0.261 0.104 0.058
0.255 0.104 0.057
0.311 0.131 0.069
0.315 0.135 0.070
0.320 0.141 0.072
0.324 0.146 0.073
0.324 0.150 0.073
0.319 0.151 0.072
0.311 0.150 0.070
0.309 0.153 0.070
0.308 0.155 0.070
0.314 0.161 0.071
0.316 0.166 0.072
0.313 0.168 0.072
0.312 0.171 0.071
0.313 0.175 0.072
0.310 0.177 0.071
0.304 0.177 0.070
0.300 0.178 0.070
0.298 0.180 0.069
0.295 0.181 0.069
0.291 0.183 0.068
0.286 0.183 0.067
0.281 0.183 0.066
0.276 0.183 0.065
0.273 0.184 0.065
0.269 0.185 0.064
0.264 0.185 0.063
0.262 0.187 0.063
0.261 0.189 0.063
0.261 0.193 0.063
0.260 0.196 0.063
0.260 0.199 0.063
0.259 0.202 0.063
0.259 0.205 0.063
0.259 0.208 0.064
0.258 0.212 0.064
0.258 0.215 0.064
0.257 0.218 0.064
0.256 0.221 0.064
0.256 0.224 0.064
0.255 0.228 0.065
0.254 0.230 0.065
0.252 0.233 0.065
0.252 0.236 0.065
0.253 0.241 0.065
0.251 0.244 0.065
0.249 0.245 0.065
0.243 0.244 0.064
0.238 0.243 0.063
0.231 0.240 0.062
0.214 0.242 0.059
0.204 0.234 0.056
0.191 0.223 0.053
0.188 0.223 0.053
0.188 0.227 0.053
0.189 0.232 0.054
0.191 0.238 0.055
0.193 0.243 0.055
0.192 0.246 0.056
0.193 0.251 0.056
0.236 0.313 0.069
0.101 -0.141 0.031
0.100 -0.138 0.030
0.101 -0.137 0.030
0.101 -0.135 0.030
0.099 -0.131 0.029
0.100 -0.131 0.030
0.101 -0.130 0.030
0.101 -0.129 0.030
0.101 -0.126 0.029
0.101 -0.125 0.029
0.102 -0.124 0.029
0.102 -0.122 0.029
0.103 -0.121 0.029
0.108 -0.126 0.031
0.127 -0.145 0.036
0.125 -0.141 0.035
0.123 -0.137 0.034
0.124 -0.136 0.035
0.132 -0.143 0.037
0.280 -0.289 0.076
0.283 -0.287 0.077
0.281 -0.281 0.076
0.283 -0.279 0.076
0.285 -0.276 0.076
0.285 -0.272 0.076
0.284 -0.266 0.075
0.285 -0.264 0.075
0.287 -0.261 0.075
0.288 -0.258 0.075
0.286 -0.253 0.074
0.289 -0.251 0.075
0.286 -0.244 0.073
0.286 -0.241 0.073
0.288 -0.238 0.073
0.284 -0.231 0.072
0.277 -0.222 0.070
0.207 -0.158 0.052
0.197 -0.148 0.049
0.196 -0.145 0.049
0.198 -0.144 0.049
0.205 -0.146 0.051
0.206 -0.144 0.051
0.207 -0.142 0.051
0.206 -0.139 0.050
0.205 -0.136 0.050
0.208 -0.135 0.050
0.211 -0.135 0.051
0.205 -0.129 0.049
0.205 -0.127 0.049
0.207 -0.126 0.050
0.207 -0.123 0.050
0.202 -0.118 0.048
0.203 -0.116 0.048
0.199 -0.112 0.047
0.200 -0.111 0.048
0.203 -0.110 0.048
0.209 -0.111 0.049
0.175 -0.089 0.041
0.173 -0.086 0.041
0.173 -0.084 0.040
0.172 -0.082 0.040
0.172 -0.081 0.040
0.174 -0.079 0.040
0.175 -0.078 0.041
0.176 -0.077 0.041
0.177 -0.076 0.041
0.179 -0.075 0.041
0.182 -0.074 0.042
0.184 -0.073 0.042
0.196 -0.076 0.045
0.207 -0.078 0.048
0.210 -0.077 0.048
0.213 -0.076 0.049
0.222 -0.077 0.051
0.223 -0.075 0.051
0.219 -0.072 0.050
0.224 -0.071 0.051
0.238 -0.074 0.054
0.244 -0.073 0.056
0.245 -0.071 0.056
0.252 -0.071 0.057
0.344 -0.090 0.078
0.338 -0.085 0.076
0.342 -0.083 0.077
0.342 -0.080 0.077
0.331 -0.074 0.075
0.328 -0.071 0.074
0.328 -0.068 0.074
0.329 -0.065 0.074
0.329 -0.062 0.074
0.320 -0.057 0.072
0.276 -0.044 0.062
0.276 -0.042 0.062
0.277 -0.039 0.062
0.277 -0.037 0.062
0.277 -0.034 0.062
0.280 -0.032 0.063
0.286 -0.030 0.064
0.284 -0.027 0.063
0.281 -0.024 0.063
0.281 -0.022 0.063
0.289 -0.020 0.065
0.288 -0.017 0.064
0.287 -0.014 0.064
0.286 -0.012 0.064
0.284 -0.009 0.063
0.280 -0.006 0.063
0.284 -0.004 0.063
0.288 -0.001 0.064
0.288 0.001 0.064
0.282 0.004 0.063
0.281 0.006 0.063
0.285 0.009 0.064
0.290 0.012 0.065
0.287 0.014 0.064
0.299 0.020 0.067
0.290 0.022 0.065
0.287 0.025 0.064
0.285 0.027 0.064
0.284 0.030 0.064
0.284 0.032 0.064
0.277 0.034 0.062
0.285 0.038 0.064
0.289 0.041 0.065
0.293 0.044 0.066
0.288 0.046 0.065
0.287 0.049 0.065
0.291 0.052 0.065
0.288 0.054 0.065
0.278 0.055 0.063
0.271 0.056 0.061
0.275 0.059 0.062
0.276 0.062 0.063
0.278 0.065 0.063
0.271 0.066 0.061
0.261 0.066 0.059
0.275 0.072 0.063
0.285 0.078 0.065
0.280 0.079 0.064
0.282 0.082 0.064
0.285 0.086 0.065
0.295 0.092 0.067
0.295 0.095 0.068
0.298 0.098 0.068
0.293 0.100 0.067
0.295 0.103 0.068
0.302 0.109 0.070
0.301 0.112 0.070
0.299 0.114 0.069
0.300 0.117 0.070
0.297 0.119 0.069
0.270 0.111 0.063
0.307 0.135 0.072
0.312 0.141 0.073
0.321 0.148 0.075
0.318 0.150 0.075
0.313 0.151 0.074
0.305 0.151 0.072
0.306 0.154 0.072
0.306 0.157 0.073
0.308 0.162 0.073
0.307 0.165 0.073
0.306 0.168 0.073
0.307 0.172 0.074
0.306 0.175 0.074
0.300 0.175 0.072
0.297 0.176 0.072
0.294 0.178 0.071
0.290 0.179 0.071
0.287 0.181 0.070
0.284 0.182 0.069
0.279 0.182 0.069
0.276 0.183 0.068
0.272 0.184 0.067
0.268 0.185 0.066
0.265 0.186 0.066
0.262 0.187 0.065
0.261 0.190 0.065
0.260 0.192 0.065
0.260 0.196 0.066
0.259 0.199 0.066
0.258 0.201 0.066
0.259 0.205 0.066
0.258 0.208 0.066
0.257 0.211 0.066
0.257 0.214 0.067
0.254 0.216 0.066
0.253 0.218 0.066
0.253 0.222 0.066
0.253 0.226 0.067
0.254 0.231 0.067
0.250 0.231 0.067
0.247 0.232 0.066
0.244 0.233 0.066
0.236 0.230 0.064
0.234 0.231 0.064
0.234 0.235 0.064
0.222 0.227 0.061
0.210 0.219 0.058
0.209 0.220 0.058
0.208 0.223 0.058
0.206 0.225 0.058
0.204 0.226 0.058
0.203 0.229 0.058
0.197 0.226 0.057
0.191 0.223 0.056
0.187 0.222 0.055
0.191 0.230 0.056
0.192 0.235 0.057
0.222 0.277 0.066
0.225 0.285 0.068
0.245 0.325 0.075
0.100 -0.137 0.031
0.100 -0.136 0.031
0.101 -0.135 0.032
0.099 -0.132 0.031
0.101 -0.132 0.031
0.101 -0.131 0.031
0.100 -0.128 0.031
0.101 -0.126 0.031
0.102 -0.126 0.031
0.102 -0.125 0.031
0.102 -0.123 0.031
0.102 -0.121 0.031
0.102 -0.120 0.030
0.101 -0.116 0.030
0.102 -0.116 0.030
0.121 -0.135 0.035
0.122 -0.134 0.035
0.125 -0.135 0.036
0.269 -0.278 0.076
0.274 -0.279 0.077
0.276 -0.276 0.077
0.278 -0.274 0.078
0.279 -0.271 0.078
0.279 -0.267 0.077
0.278 -0.262 0.077
0.279 -0.258 0.076
0.282 -0.257 0.077
0.281 -0.253 0.076
0.285 -0.251 0.077
0.285 -0.248 0.077
0.285 -0.244 0.076
0.285 -0.240 0.076
0.281 -0.233 0.075
0.280 -0.228 0.074
0.269 -0.216 0.071
0.198 -0.151 0.052
0.196 -0.147 0.051
0.197 -0.146 0.051
0.203 -0.147 0.052
0.205 -0.146 0.053
0.204 -0.143 0.052
0.200 -0.138 0.051
0.200 -0.135 0.051
0.202 -0.134 0.051
0.203 -0.133 0.051
0.201 -0.129 0.051
0.197 -0.124 0.050
0.205 -0.127 0.051
0.210 -0.128 0.053
0.208 -0.124 0.052
0.201 -0.118 0.050
0.195 -0.112 0.048
0.197 -0.111 0.049
0.194 -0.107 0.048
0.171 -0.092 0.042
0.169 -0.090 0.042
0.169 -0.088 0.042
0.171 -0.087 0.042
0.171 -0.082 0.042
0.172 -0.081 0.042
0.173 -0.079 0.042
0.175 -0.078 0.042
0.176 -0.077 0.042
0.177 -0.075 0.043
0.178 -0.074 0.043
0.180 -0.073 0.043
0.180 -0.071 0.043
0.181 -0.070 0.043
0.182 -0.069 0.044
0.186 -0.069 0.045
0.189 -0.068 0.045
0.215 -0.075 0.051
0.221 -0.075 0.053
0.219 -0.072 0.052
0.226 -0.072 0.054
0.235 -0.073 0.056
0.240 -0.072 0.057
0.241 -0.070 0.057
0.253 -0.071 0.060
0.318 -0.083 0.075
0.324 -0.082 0.076
0.335 -0.081 0.079
0.333 -0.078 0.078
0.324 -0.073 0.076
0.320 -0.069 0.075
0.320 -0.066 0.075
0.323 -0.063 0.076
0.326 -0.061 0.076
0.323 -0.057 0.076
0.275 -0.044 0.064
0.272 -0.041 0.064
0.276 -0.039 0.065
0.278 -0.037 0.065
0.280 -0.034 0.065
0.282 -0.032 0.066
0.283 -0.030 0.066
0.281 -0.027 0.065
0.281 -0.024 0.066
0.283 -0.022 0.066
0.278 -0.019 0.065
0.280 -0.017 0.065
0.286 -0.014 0.067
0.288 -0.012 0.067
0.284 -0.009 0.066
0.283 -0.006 0.066
0.284 -0.004 0.066
0.286 -0.001 0.067
0.285 0.001 0.066
0.285 0.004 0.066
0.284 0.006 0.066
0.281 0.009 0.066
0.273 0.011 0.064
0.269 0.013 0.063
0.276 0.016 0.064
0.287 0.020 0.067
0.278 0.021 0.065
0.273 0.024 0.064
0.279 0.027 0.065
0.284 0.030 0.066
0.282 0.032 0.066
0.291 0.036 0.068
0.286 0.038 0.067
0.293 0.041 0.068
0.292 0.044 0.068
0.290 0.046 0.068
0.277 0.047 0.065
0.278 0.050 0.065
0.286 0.054 0.067
0.272 0.054 0.064
0.271 0.056 0.064
0.284 0.061 0.067
0.282 0.064 0.067
0.283 0.066 0.067
0.285 0.070 0.067
0.277 0.070 0.065
0.280 0.074 0.066
0.275 0.075 0.065
0.270 0.076 0.064
0.275 0.080 0.065
0.283 0.085 0.067
0.289 0.090 0.069
0.295 0.095 0.070
0.300 0.099 0.072
0.299 0.102 0.071
0.298 0.105 0.071
0.301 0.109 0.072
0.302 0.112 0.072
0.302 0.115 0.073
0.298 0.116 0.072
0.297 0.119 0.072
0.293 0.121 0.071
0.288 0.121 0.070
0.301 0.136 0.073
0.308 0.142 0.075
0.311 0.147 0.076
0.308 0.149 0.076
0.305 0.151 0.075
0.297 0.150 0.073
0.300 0.155 0.074
0.303 0.159 0.075
0.302 0.162 0.075
0.301 0.165 0.075
0.301 0.169 0.075
0.300 0.171 0.075
0.297 0.173 0.075
0.292 0.174 0.074
0.289 0.175 0.073
0.287 0.177 0.073
0.284 0.179 0.072
0.280 0.180 0.071
0.277 0.181 0.071
0.274 0.182 0.070
0.271 0.184 0.070
0.268 0.185 0.069
0.264 0.185 0.068
0.261 0.187 0.068
0.260 0.190 0.068
0.260 0.193 0.068
0.259 0.195 0.068
0.258 0.198 0.068
0.258 0.201 0.068
0.259 0.206 0.069
0.258 0.208 0.069
0.257 0.211 0.069
0.255 0.213 0.069
0.253 0.216 0.069
0.252 0.218 0.069
0.251 0.220 0.069
0.247 0.221 0.068
0.240 0.219 0.067
0.245 0.227 0.068
0.234 0.221 0.066
0.232 0.222 0.065
0.230 0.224 0.065
0.226 0.224 0.064
0.219 0.221 0.063
0.210 0.215 0.060
0.204 0.212 0.059
0.201 0.213 0.059
0.201 0.216 0.059
0.201 0.220 0.059
0.201 0.224 0.060
0.200 0.227 0.060
0.197 0.227 0.059
0.196 0.230 0.060
0.221 0.276 0.069
0.220 0.279 0.069
0.215 0.277 0.068
0.216 0.287 0.069
0.099 -0.137 0.032
0.100 -0.137 0.033
0.101 -0.136 0.033
0.101 -0.135 0.033
0.101 -0.133 0.033
0.102 -0.131 0.033
0.102 -0.130 0.032
0.101 -0.128 0.032
0.102 -0.126 0.032
0.103 -0.125 0.032
0.103 -0.124 0.032
0.102 -0.121 0.032
0.103 -0.120 0.032
0.102 -0.118 0.031
0.101 -0.115 0.031
0.103 -0.115 0.031
0.118 -0.130 0.036
0.109 -0.118 0.033
0.109 -0.116 0.032
0.265 -0.270 0.078
0.272 -0.273 0.079
0.275 -0.272 0.080
0.277 -0.270 0.080
0.277 -0.265 0.080
0.278 -0.262 0.080
0.278 -0.258 0.079
0.276 -0.252 0.078
0.278 -0.250 0.079
0.279 -0.247 0.079
0.280 -0.243 0.078
0.281 -0.241 0.078
0.280 -0.236 0.078
0.277 -0.230 0.077
0.271 -0.221 0.075
0.216 -0.168 0.059
0.205 -0.156 0.056
0.196 -0.147 0.053
0.200 -0.148 0.054
0.202 -0.146 0.054
0.201 -0.143 0.054
0.196 -0.138 0.052
0.197 -0.136 0.053
0.202 -0.137 0.054
0.204 -0.136 0.054
0.200 -0.131 0.053
0.198 -0.127 0.052
0.199 -0.126 0.052
0.207 -0.128 0.054
0.211 -0.128 0.055
0.213 -0.127 0.055
0.212 -0.124 0.055
0.169 -0.095 0.043
0.169 -0.093 0.043
0.168 -0.091 0.043
0.169 -0.090 0.043
0.170 -0.088 0.043
0.170 -0.087 0.043
0.172 -0.086 0.044
0.174 -0.085 0.044
0.177 -0.085 0.045
0.181 -0.085 0.046
0.184 -0.084 0.046
0.192 -0.084 0.048
0.189 -0.081 0.047
0.184 -0.077 0.046
0.181 -0.074 0.045
0.180 -0.072 0.045
0.181 -0.070 0.045
0.182 -0.069 0.045
0.184 -0.068 0.046
0.186 -0.067 0.046
0.186 -0.065 0.046
0.190 -0.064 0.047
0.195 -0.064 0.048
0.225 -0.072 0.056
0.230 -0.071 0.057
0.232 -0.070 0.057
0.237 -0.069 0.058
0.247 -0.069 0.061
0.313 -0.082 0.077
0.316 -0.080 0.077
0.316 -0.077 0.077
0.321 -0.075 0.079
0.318 -0.071 0.078
0.312 -0.067 0.076
0.315 -0.065 0.077
0.318 -0.062 0.077
0.322 -0.060 0.079
0.319 -0.057 0.078
0.289 -0.049 0.070
0.275 -0.044 0.067
0.270 -0.041 0.066
0.275 -0.039 0.067
0.277 -0.037 0.067
0.282 -0.035 0.068
0.284 -0.032 0.069
0.280 -0.029 0.068
0.281 -0.027 0.068
0.281 -0.024 0.068
0.277 -0.021 0.067
0.277 -0.019 0.067
0.286 -0.017 0.069
0.285 -0.014 0.069
0.285 -0.012 0.069
0.287 -0.009 0.069
0.284 -0.006 0.069
0.282 -0.004 0.068
0.279 -0.001 0.068
0.280 0.001 0.068
0.283 0.004 0.069
0.280 0.006 0.068
0.275 0.009 0.067
0.272 0.011 0.066
0.271 0.014 0.066
0.277 0.016 0.067
0.272 0.019 0.066
0.273 0.021 0.066
0.278 0.024 0.067
0.283 0.027 0.069
0.279 0.029 0.068
0.281 0.032 0.068
0.292 0.036 0.071
0.296 0.039 0.072
0.293 0.041 0.071
0.291 0.044 0.071
0.287 0.046 0.070
0.281 0.048 0.069
0.278 0.050 0.068
0.281 0.053 0.069
0.286 0.056 0.070
0.286 0.059 0.070
0.287 0.062 0.070
0.288 0.065 0.071
0.288 0.068 0.071
0.284 0.069 0.070
0.284 0.072 0.070
0.277 0.073 0.068
0.266 0.073 0.066
0.257 0.073 0.063
0.261 0.076 0.064
0.276 0.083 0.068
0.290 0.090 0.072
0.293 0.094 0.073
0.295 0.098 0.073
0.296 0.101 0.074
0.295 0.103 0.073
0.293 0.106 0.073
0.302 0.112 0.076
0.298 0.114 0.075
0.292 0.114 0.073
0.288 0.116 0.072
0.291 0.120 0.073
0.292 0.123 0.074
0.288 0.124 0.073
0.277 0.122 0.070
0.298 0.141 0.076
0.302 0.146 0.077
0.297 0.147 0.076
0.291 0.147 0.075
0.284 0.147 0.073
0.296 0.156 0.076
0.297 0.160 0.077
0.295 0.162 0.077
0.296 0.166 0.077
0.295 0.169 0.077
0.292 0.170 0.076
0.287 0.171 0.075
0.285 0.173 0.075
0.283 0.175 0.075
0.280 0.176 0.074
0.277 0.178 0.074
0.273 0.179 0.073
0.270 0.180 0.072
0.269 0.183 0.072
0.267 0.184 0.072
0.263 0.185 0.071
0.261 0.187 0.071
0.260 0.189 0.071
0.260 0.193 0.071
0.259 0.196 0.071
0.259 0.199 0.071
0.259 0.203 0.072
0.259 0.206 0.072
0.257 0.208 0.072
0.256 0.210 0.072
0.256 0.214 0.072
0.257 0.219 0.073
0.253 0.220 0.072
0.249 0.220 0.071
0.242 0.217 0.069
0.240 0.219 0.069
0.231 0.214 0.067
0.229 0.216 0.067
0.228 0.218 0.067
0.224 0.218 0.066
0.221 0.219 0.065
0.213 0.215 0.063
0.207 0.212 0.062
0.201 0.209 0.061
0.199 0.211 0.060
0.200 0.216 0.061
0.205 0.225 0.063
0.208 0.232 0.064
0.206 0.233 0.064
0.200 0.230 0.063
0.201 0.235 0.063
0.205 0.244 0.065
0.206 0.250 0.066
0.205 0.252 0.066
0.207 0.263 0.068
0.205 0.264 0.067
0.202 0.264 0.067
0.185 0.246 0.061
0.100 -0.138 0.034
0.100 -0.137 0.034
0.101 -0.136 0.034
0.102 -0.136 0.034
0.103 -0.135 0.034
0.102 -0.131 0.034
0.102 -0.130 0.034
0.103 -0.129 0.034
0.101 -0.126 0.033
0.103 -0.126 0.033
0.104 -0.125 0.034
0.103 -0.123 0.033
0.103 -0.120 0.033
0.103 -0.119 0.033
0.103 -0.117 0.033
0.102 -0.114 0.032
0.104 -0.115 0.033
0.106 -0.115 0.033
0.106 -0.113 0.033
0.108 -0.114 0.033
0.269 -0.270 0.082
0.274 -0.271 0.083
0.273 -0.266 0.082
0.275 -0.264 0.082
0.277 -0.262 0.083
0.278 -0.259 0.083
0.276 -0.252 0.081
0.276 -0.248 0.081
0.276 -0.244 0.081
0.276 -0.241 0.080
0.277 -0.238 0.080
0.276 -0.233 0.080
0.273 -0.227 0.079
0.270 -0.220 0.077
0.243 -0.195 0.069
0.232 -0.183 0.066
0.213 -0.166 0.060
0.204 -0.156 0.058
0.205 -0.154 0.058
0.204 -0.151 0.057
0.205 -0.149 0.057
0.197 -0.141 0.055
0.198 -0.139 0.055
0.200 -0.138 0.055
0.206 -0.140 0.057
0.209 -0.140 0.058
0.203 -0.133 0.055
0.196 -0.126 0.054
0.203 -0.128 0.055
0.209 -0.129 0.057
0.212 -0.129 0.058
0.170 -0.100 0.046
0.169 -0.097 0.045
0.168 -0.095 0.045
0.169 -0.094 0.045
0.170 -0.092 0.045
0.169 -0.090 0.045
0.170 -0.089 0.045
0.208 -0.104 0.055
0.205 -0.100 0.054
0.206 -0.099 0.054
0.208 -0.098 0.055
0.210 -0.096 0.055
0.209 -0.094 0.055
0.198 -0.087 0.052
0.212 -0.091 0.055
0.210 -0.088 0.055
0.216 -0.088 0.056
0.217 -0.086 0.056
0.209 -0.081 0.054
0.194 -0.073 0.050
0.187 -0.069 0.048
0.185 -0.066 0.048
0.185 -0.065 0.048
0.187 -0.063 0.048
0.189 -0.062 0.048
0.190 -0.061 0.049
0.200 -0.062 0.051
0.204 -0.061 0.052
0.236 -0.069 0.060
0.251 -0.071 0.064
0.303 -0.080 0.077
0.308 -0.078 0.078
0.309 -0.075 0.079
0.311 -0.073 0.079
0.310 -0.070 0.079
0.308 -0.066 0.078
0.306 -0.063 0.077
0.312 -0.061 0.079
0.311 -0.058 0.079
0.294 -0.052 0.074
0.283 -0.048 0.072
0.274 -0.044 0.069
0.271 -0.041 0.069
0.270 -0.038 0.068
0.275 -0.036 0.069
0.279 -0.034 0.070
0.279 -0.032 0.070
0.280 -0.029 0.070
0.279 -0.027 0.070
0.278 -0.024 0.070
0.277 -0.021 0.070
0.286 -0.020 0.072
0.287 -0.017 0.072
0.284 -0.014 0.071
0.283 -0.012 0.071
0.283 -0.009 0.071
0.282 -0.006 0.071
0.277 -0.004 0.070
0.276 -0.001 0.069
0.278 0.001 0.070
0.282 0.004 0.071
0.278 0.006 0.070
0.269 0.009 0.068
0.270 0.011 0.068
0.275 0.014 0.069
0.271 0.016 0.068
0.275 0.019 0.069
0.303 0.026 0.076
0.266 0.028 0.067
0.271 0.031 0.068
0.282 0.035 0.071
0.283 0.037 0.071
0.287 0.041 0.073
0.286 0.043 0.072
0.284 0.046 0.072
0.280 0.047 0.071
0.279 0.050 0.071
0.286 0.054 0.072
0.289 0.057 0.073
0.289 0.060 0.073
0.285 0.062 0.072
0.285 0.064 0.073
0.284 0.067 0.072
0.279 0.068 0.071
0.272 0.069 0.069
0.266 0.070 0.068
0.254 0.069 0.065
0.245 0.069 0.063
0.252 0.074 0.065
0.263 0.080 0.068
0.283 0.088 0.073
0.289 0.093 0.075
0.290 0.096 0.075
0.288 0.098 0.074
0.289 0.102 0.075
0.287 0.104 0.075
0.286 0.106 0.074
0.285 0.109 0.074
0.284 0.111 0.074
0.282 0.113 0.074
0.282 0.116 0.074
0.284 0.120 0.074
0.287 0.124 0.075
0.282 0.125 0.074
0.270 0.122 0.071
0.260 0.124 0.069
0.285 0.141 0.076
0.283 0.143 0.075
0.279 0.144 0.075
0.281 0.149 0.075
0.284 0.153 0.076
0.290 0.159 0.078
0.290 0.163 0.078
0.290 0.166 0.078
0.284 0.166 0.077
0.281 0.167 0.076
0.281 0.170 0.077
0.280 0.173 0.077
0.277 0.175 0.076
0.273 0.176 0.075
0.269 0.176 0.074
0.266 0.178 0.074
0.264 0.180 0.074
0.263 0.182 0.074
0.263 0.185 0.074
0.261 0.187 0.073
0.259 0.189 0.073
0.258 0.192 0.073
0.258 0.195 0.073
0.258 0.199 0.074
