VERSION .7
FIELDS x y z
SIZE 4 4 4
TYPE F F F
COUNT 1 1 1
WIDTH     2433
HEIGHT 1
VIEWPOINT 0 0 0 1 0 0 0
POINTS     2433
DATA ascii
0.313 0.013 -0.095
0.311 0.016 -0.095
0.315 0.019 -0.096
0.320 0.022 -0.098
0.316 0.025 -0.096
0.315 0.027 -0.096
0.320 0.031 -0.098
0.316 0.033 -0.097
0.314 0.036 -0.096
0.314 0.039 -0.096
0.316 0.042 -0.097
0.318 0.045 -0.097
0.316 0.048 -0.097
0.312 0.050 -0.096
0.310 0.053 -0.095
0.311 0.056 -0.096
0.312 0.059 -0.096
0.302 0.060 -0.093
0.307 0.064 -0.095
0.315 0.069 -0.097
0.320 0.073 -0.099
0.316 0.075 -0.097
0.320 0.079 -0.099
0.318 0.081 -0.098
0.316 0.084 -0.098
0.312 0.086 -0.097
0.312 0.089 -0.097
0.327 0.096 -0.102
0.318 0.097 -0.099
0.302 0.095 -0.094
0.300 0.097 -0.094
0.307 0.102 -0.096
0.317 0.109 -0.099
0.326 0.115 -0.102
0.320 0.116 -0.101
0.306 0.114 -0.096
0.310 0.119 -0.098
0.308 0.140 -0.098
0.316 0.168 -0.102
0.385 0.239 -0.127
0.317 -0.432 -0.123
0.320 -0.430 -0.123
0.319 -0.424 -0.122
0.317 -0.416 -0.121
0.317 -0.410 -0.121
0.321 -0.409 -0.121
0.323 -0.406 -0.122
0.320 -0.398 -0.120
0.318 -0.389 -0.119
0.317 -0.382 -0.118
0.317 -0.377 -0.117
0.320 -0.375 -0.118
0.317 -0.367 -0.117
0.312 -0.355 -0.114
0.311 -0.349 -0.113
0.316 -0.349 -0.114
0.318 -0.345 -0.114
0.315 -0.338 -0.113
0.315 -0.333 -0.112
0.314 -0.327 -0.112
0.315 -0.322 -0.111
0.314 -0.317 -0.111
0.312 -0.310 -0.109
0.313 -0.305 -0.109
0.311 -0.299 -0.108
0.311 -0.294 -0.107
0.310 -0.288 -0.106
0.307 -0.282 -0.105
0.305 -0.275 -0.104
0.306 -0.272 -0.104
0.306 -0.268 -0.104
0.306 -0.263 -0.103
0.305 -0.259 -0.103
0.306 -0.255 -0.103
0.304 -0.249 -0.101
0.303 -0.244 -0.100
0.301 -0.239 -0.100
0.301 -0.235 -0.099
0.298 -0.228 -0.098
0.298 -0.225 -0.098
0.296 -0.220 -0.097
0.296 -0.216 -0.096
0.288 -0.207 -0.093
0.222 -0.154 -0.072
0.212 -0.144 -0.068
0.209 -0.140 -0.067
0.209 -0.137 -0.067
0.211 -0.136 -0.067
0.222 -0.141 -0.070
0.225 -0.140 -0.071
0.226 -0.138 -0.072
0.227 -0.136 -0.072
0.208 -0.123 -0.066
0.208 -0.120 -0.065
0.208 -0.118 -0.065
0.212 -0.118 -0.066
0.234 -0.128 -0.073
0.241 -0.129 -0.075
0.242 -0.127 -0.075
0.244 -0.125 -0.076
0.246 -0.123 -0.076
0.253 -0.124 -0.078
0.307 -0.148 -0.095
0.311 -0.146 -0.096
0.315 -0.145 -0.097
0.317 -0.143 -0.097
0.317 -0.139 -0.097
0.308 -0.132 -0.094
0.272 -0.111 -0.083
0.277 -0.105 -0.084
0.281 -0.104 -0.085
0.350 -0.126 -0.106
0.355 -0.124 -0.107
0.364 -0.124 -0.110
0.380 -0.126 -0.114
0.383 -0.123 -0.115
0.389 -0.121 -0.117
0.396 -0.119 -0.119
0.403 -0.118 -0.121
0.411 -0.116 -0.123
0.418 -0.114 -0.125
0.433 -0.114 -0.129
0.440 -0.112 -0.131
0.443 -0.108 -0.132
0.388 -0.084 -0.115
0.383 -0.079 -0.114
0.373 -0.074 -0.111
0.360 -0.068 -0.107
0.282 -0.050 -0.084
0.285 -0.048 -0.084
0.285 -0.046 -0.085
0.284 -0.043 -0.084
0.284 -0.040 -0.084
0.288 -0.038 -0.085
0.293 -0.036 -0.087
0.296 -0.034 -0.088
0.298 -0.031 -0.088
0.298 -0.029 -0.088
0.310 -0.027 -0.092
0.303 -0.024 -0.090
0.297 -0.020 -0.088
0.298 -0.018 -0.088
0.302 -0.015 -0.089
0.321 -0.013 -0.095
0.324 -0.010 -0.096
0.310 -0.007 -0.092
0.305 -0.004 -0.090
0.306 -0.001 -0.090
0.299 0.001 -0.088
0.300 0.004 -0.089
0.309 0.007 -0.091
0.317 0.010 -0.094
0.312 0.013 -0.092
0.312 0.016 -0.092
0.315 0.019 -0.093
0.317 0.022 -0.094
0.316 0.025 -0.093
0.305 0.027 -0.090
0.303 0.029 -0.090
0.306 0.032 -0.091
0.305 0.035 -0.091
0.306 0.038 -0.091
0.307 0.041 -0.091
0.310 0.044 -0.092
0.315 0.048 -0.094
0.316 0.051 -0.094
0.318 0.054 -0.094
0.318 0.057 -0.095
0.317 0.060 -0.094
0.305 0.060 -0.091
0.303 0.063 -0.090
0.314 0.068 -0.094
0.316 0.072 -0.095
0.319 0.075 -0.096
0.323 0.079 -0.097
0.320 0.082 -0.096
0.319 0.084 -0.096
0.312 0.086 -0.094
0.317 0.090 -0.095
0.316 0.093 -0.095
0.318 0.096 -0.096
0.308 0.097 -0.093
0.306 0.099 -0.092
0.309 0.103 -0.094
0.321 0.110 -0.097
0.322 0.114 -0.098
0.313 0.113 -0.095
0.337 0.150 -0.104
0.327 0.149 -0.101
0.306 0.155 -0.095
0.318 0.165 -0.099
0.322 0.171 -0.101
0.340 0.184 -0.107
0.389 0.228 -0.124
0.317 -0.432 -0.119
0.319 -0.429 -0.119
0.319 -0.423 -0.118
0.317 -0.415 -0.117
0.316 -0.409 -0.117
0.319 -0.407 -0.117
0.323 -0.406 -0.118
0.324 -0.402 -0.118
0.316 -0.387 -0.114
0.315 -0.379 -0.113
0.315 -0.374 -0.113
0.316 -0.370 -0.113
0.319 -0.368 -0.113
0.312 -0.355 -0.110
0.311 -0.348 -0.109
0.311 -0.343 -0.109
0.313 -0.340 -0.109
0.314 -0.336 -0.109
0.313 -0.329 -0.108
0.311 -0.322 -0.107
0.311 -0.318 -0.106
0.310 -0.312 -0.105
0.309 -0.306 -0.105
0.309 -0.301 -0.104
0.307 -0.294 -0.103
0.307 -0.290 -0.103
0.307 -0.286 -0.102
0.306 -0.280 -0.101
0.304 -0.274 -0.100
0.305 -0.271 -0.100
0.306 -0.268 -0.100
0.304 -0.261 -0.099
0.305 -0.257 -0.099
0.303 -0.252 -0.098
0.302 -0.247 -0.097
0.301 -0.242 -0.097
0.301 -0.238 -0.096
0.299 -0.233 -0.095
0.295 -0.226 -0.094
0.294 -0.221 -0.093
0.294 -0.218 -0.093
0.292 -0.213 -0.092
0.283 -0.203 -0.089
0.213 -0.145 -0.066
0.207 -0.138 -0.064
0.209 -0.137 -0.065
0.212 -0.136 -0.065
0.217 -0.137 -0.067
0.225 -0.140 -0.069
0.225 -0.137 -0.069
0.226 -0.136 -0.069
0.214 -0.126 -0.065
0.208 -0.120 -0.063
0.209 -0.118 -0.063
0.209 -0.116 -0.063
0.233 -0.127 -0.070
0.241 -0.128 -0.073
0.243 -0.127 -0.073
0.243 -0.125 -0.073
0.245 -0.123 -0.073
0.252 -0.124 -0.075
0.303 -0.145 -0.090
0.312 -0.147 -0.093
0.314 -0.144 -0.093
0.316 -0.142 -0.094
0.318 -0.140 -0.094
0.319 -0.137 -0.094
0.285 -0.116 -0.084
0.288 -0.115 -0.085
0.276 -0.107 -0.081
0.277 -0.105 -0.081
0.273 -0.101 -0.080
0.348 -0.125 -0.102
0.354 -0.124 -0.104
0.365 -0.124 -0.107
0.374 -0.123 -0.109
0.379 -0.121 -0.110
0.386 -0.120 -0.112
0.396 -0.119 -0.115
0.404 -0.118 -0.117
0.411 -0.116 -0.119
0.424 -0.116 -0.123
0.427 -0.112 -0.124
0.439 -0.111 -0.127
0.448 -0.109 -0.129
0.381 -0.082 -0.110
0.384 -0.079 -0.111
0.374 -0.074 -0.108
0.359 -0.067 -0.103
0.285 -0.051 -0.082
0.286 -0.048 -0.082
0.289 -0.046 -0.083
0.287 -0.043 -0.082
0.284 -0.040 -0.082
0.291 -0.039 -0.083
0.295 -0.036 -0.085
0.302 -0.034 -0.086
0.297 -0.031 -0.085
0.299 -0.029 -0.086
0.299 -0.026 -0.086
0.302 -0.023 -0.087
0.297 -0.020 -0.085
0.305 -0.018 -0.087
0.316 -0.016 -0.090
0.318 -0.013 -0.091
0.329 -0.010 -0.094
0.309 -0.007 -0.088
0.306 -0.004 -0.088
0.306 -0.001 -0.087
0.300 0.001 -0.086
0.307 0.004 -0.088
0.316 0.007 -0.090
0.316 0.010 -0.090
0.314 0.013 -0.090
0.309 0.015 -0.088
0.305 0.018 -0.087
0.303 0.021 -0.087
0.306 0.024 -0.088
0.307 0.027 -0.088
0.307 0.029 -0.088
0.307 0.032 -0.088
0.308 0.035 -0.088
0.310 0.038 -0.089
0.309 0.041 -0.089
0.308 0.044 -0.089
0.308 0.047 -0.088
0.307 0.049 -0.088
0.308 0.052 -0.089
0.318 0.057 -0.092
0.319 0.060 -0.092
0.314 0.062 -0.091
0.310 0.064 -0.089
0.309 0.067 -0.089
0.320 0.072 -0.093
0.321 0.076 -0.093
0.320 0.079 -0.093
0.318 0.081 -0.092
0.317 0.084 -0.092
0.313 0.086 -0.091
0.317 0.090 -0.092
0.319 0.094 -0.093
0.317 0.096 -0.093
0.312 0.098 -0.091
0.312 0.101 -0.091
0.325 0.108 -0.095
0.328 0.112 -0.096
0.314 0.111 -0.092
0.303 0.110 -0.089
0.294 0.109 -0.087
0.294 0.112 -0.087
0.341 0.151 -0.102
0.338 0.154 -0.101
0.352 0.190 -0.107
0.353 0.194 -0.108
0.370 0.213 -0.114
0.313 -0.431 -0.114
0.316 -0.430 -0.114
0.318 -0.427 -0.115
0.316 -0.419 -0.114
0.316 -0.413 -0.113
0.312 -0.403 -0.111
0.315 -0.402 -0.112
0.320 -0.402 -0.113
0.318 -0.394 -0.112
0.315 -0.385 -0.110
0.314 -0.378 -0.109
0.315 -0.373 -0.109
0.316 -0.370 -0.109
0.315 -0.363 -0.108
0.312 -0.354 -0.107
0.313 -0.350 -0.106
0.312 -0.343 -0.105
0.312 -0.338 -0.105
0.313 -0.334 -0.105
0.312 -0.328 -0.104
0.308 -0.319 -0.102
0.307 -0.313 -0.101
0.307 -0.308 -0.101
0.308 -0.305 -0.101
0.308 -0.300 -0.101
0.306 -0.293 -0.099
0.305 -0.288 -0.098
0.305 -0.284 -0.098
0.304 -0.278 -0.098
0.304 -0.274 -0.097
0.306 -0.271 -0.097
0.306 -0.267 -0.097
0.302 -0.259 -0.095
0.300 -0.254 -0.094
0.299 -0.248 -0.094
0.299 -0.244 -0.093
0.300 -0.241 -0.093
0.297 -0.235 -0.092
0.295 -0.230 -0.091
0.292 -0.223 -0.090
0.289 -0.218 -0.089
0.288 -0.213 -0.088
0.280 -0.204 -0.085
0.234 -0.164 -0.071
0.236 -0.163 -0.071
0.213 -0.144 -0.064
0.207 -0.138 -0.062
0.208 -0.136 -0.062
0.210 -0.135 -0.063
0.213 -0.135 -0.063
0.223 -0.138 -0.066
0.224 -0.136 -0.066
0.225 -0.135 -0.066
0.221 -0.130 -0.065
0.208 -0.120 -0.061
0.209 -0.118 -0.061
0.209 -0.116 -0.061
0.218 -0.119 -0.064
0.242 -0.129 -0.070
0.243 -0.127 -0.071
0.243 -0.124 -0.070
0.243 -0.122 -0.070
0.245 -0.120 -0.071
0.300 -0.144 -0.087
0.310 -0.145 -0.089
0.313 -0.144 -0.090
0.317 -0.142 -0.091
0.321 -0.141 -0.092
0.328 -0.140 -0.094
0.306 -0.125 -0.087
0.280 -0.112 -0.080
0.277 -0.108 -0.079
0.270 -0.102 -0.077
0.269 -0.099 -0.076
0.348 -0.125 -0.098
0.357 -0.124 -0.101
0.363 -0.123 -0.103
0.371 -0.122 -0.105
0.376 -0.120 -0.106
0.381 -0.118 -0.107
0.391 -0.118 -0.110
0.402 -0.117 -0.113
0.412 -0.116 -0.116
0.423 -0.115 -0.118
0.428 -0.112 -0.120
0.425 -0.108 -0.119
0.390 -0.088 -0.109
0.382 -0.082 -0.106
0.387 -0.080 -0.108
0.373 -0.074 -0.104
0.288 -0.051 -0.080
0.286 -0.048 -0.079
0.286 -0.046 -0.079
0.286 -0.043 -0.079
0.287 -0.041 -0.080
0.290 -0.038 -0.080
0.297 -0.037 -0.082
0.305 -0.035 -0.085
0.300 -0.031 -0.083
0.295 -0.028 -0.082
0.296 -0.026 -0.082
0.294 -0.023 -0.081
0.284 -0.019 -0.079
0.299 -0.018 -0.083
0.318 -0.016 -0.088
0.310 -0.013 -0.086
0.301 -0.010 -0.083
0.310 -0.007 -0.086
0.307 -0.004 -0.085
0.291 -0.001 -0.080
0.306 0.001 -0.085
0.314 0.004 -0.087
0.314 0.007 -0.087
0.311 0.010 -0.086
0.303 0.012 -0.084
0.304 0.015 -0.084
0.305 0.018 -0.084
0.306 0.021 -0.085
0.307 0.024 -0.085
0.309 0.027 -0.086
0.309 0.030 -0.086
0.309 0.032 -0.086
0.310 0.035 -0.086
0.311 0.038 -0.086
0.311 0.041 -0.086
0.310 0.044 -0.086
0.309 0.047 -0.086
0.310 0.050 -0.086
0.309 0.053 -0.086
0.309 0.055 -0.086
0.310 0.058 -0.086
0.317 0.063 -0.089
0.315 0.065 -0.088
0.316 0.068 -0.088
0.316 0.071 -0.088
0.315 0.074 -0.088
0.309 0.076 -0.087
0.304 0.077 -0.085
0.308 0.081 -0.087
0.313 0.086 -0.088
0.321 0.091 -0.090
0.319 0.093 -0.090
0.313 0.095 -0.088
0.306 0.096 -0.087
0.314 0.101 -0.089
0.330 0.110 -0.094
0.336 0.115 -0.095
0.317 0.111 -0.090
0.303 0.110 -0.086
0.299 0.111 -0.085
0.302 0.115 -0.086
0.331 0.147 -0.096
0.340 0.154 -0.098
0.334 0.173 -0.098
0.353 0.187 -0.104
0.363 0.196 -0.107
0.349 0.192 -0.103
0.361 0.207 -0.107
0.311 -0.428 -0.109
0.313 -0.425 -0.109
0.315 -0.423 -0.110
0.316 -0.419 -0.110
0.312 -0.407 -0.108
0.310 -0.400 -0.107
0.313 -0.398 -0.107
0.315 -0.394 -0.107
0.316 -0.390 -0.107
0.313 -0.381 -0.106
0.315 -0.378 -0.106
0.313 -0.371 -0.105
0.314 -0.366 -0.104
0.311 -0.358 -0.103
0.312 -0.354 -0.103
0.313 -0.349 -0.103
0.310 -0.341 -0.101
0.311 -0.337 -0.101
0.312 -0.333 -0.101
0.310 -0.326 -0.100
0.309 -0.319 -0.099
0.307 -0.313 -0.098
0.306 -0.307 -0.097
0.307 -0.303 -0.097
0.307 -0.299 -0.097
0.304 -0.291 -0.095
0.305 -0.287 -0.095
0.305 -0.282 -0.095
0.304 -0.278 -0.094
0.306 -0.275 -0.094
0.306 -0.271 -0.094
0.303 -0.264 -0.093
0.299 -0.256 -0.091
0.299 -0.252 -0.091
0.298 -0.247 -0.090
0.296 -0.241 -0.089
0.291 -0.234 -0.087
0.292 -0.231 -0.087
0.294 -0.228 -0.088
0.286 -0.218 -0.085
0.287 -0.215 -0.085
0.282 -0.209 -0.083
0.235 -0.168 -0.069
0.235 -0.165 -0.069
0.214 -0.148 -0.062
0.213 -0.144 -0.062
0.209 -0.139 -0.061
0.209 -0.137 -0.060
0.210 -0.135 -0.061
0.214 -0.135 -0.062
0.219 -0.136 -0.063
0.218 -0.133 -0.062
0.220 -0.132 -0.063
0.223 -0.131 -0.063
0.208 -0.120 -0.059
0.208 -0.118 -0.059
0.210 -0.116 -0.059
0.216 -0.117 -0.061
0.240 -0.128 -0.068
0.242 -0.126 -0.068
0.243 -0.124 -0.068
0.243 -0.122 -0.068
0.245 -0.120 -0.068
0.308 -0.144 -0.086
0.313 -0.143 -0.087
0.318 -0.143 -0.088
0.321 -0.141 -0.089
0.328 -0.140 -0.091
0.323 -0.135 -0.089
0.270 -0.102 -0.074
0.261 -0.096 -0.071
0.350 -0.125 -0.096
0.357 -0.125 -0.098
0.364 -0.123 -0.099
0.371 -0.122 -0.101
0.374 -0.120 -0.102
0.383 -0.119 -0.104
0.388 -0.116 -0.105
0.395 -0.115 -0.107
0.404 -0.114 -0.109
0.422 -0.115 -0.114
0.424 -0.111 -0.115
0.426 -0.108 -0.115
0.444 -0.108 -0.120
0.448 -0.105 -0.121
0.403 -0.091 -0.109
0.390 -0.084 -0.105
0.388 -0.080 -0.105
0.382 -0.075 -0.103
0.288 -0.051 -0.077
0.285 -0.048 -0.077
0.283 -0.045 -0.076
0.284 -0.043 -0.076
0.288 -0.041 -0.077
0.291 -0.038 -0.078
0.301 -0.037 -0.081
0.307 -0.035 -0.082
0.296 -0.031 -0.079
0.292 -0.028 -0.078
0.292 -0.025 -0.078
0.286 -0.022 -0.076
0.282 -0.019 -0.075
0.295 -0.017 -0.079
0.308 -0.015 -0.082
0.311 -0.013 -0.083
0.304 -0.010 -0.081
0.301 -0.007 -0.081
0.302 -0.004 -0.081
0.315 -0.001 -0.084
0.321 0.001 -0.086
0.317 0.004 -0.085
0.300 0.007 -0.080
0.303 0.010 -0.081
0.304 0.012 -0.081
0.305 0.015 -0.082
0.307 0.018 -0.082
0.308 0.021 -0.082
0.308 0.024 -0.083
0.310 0.027 -0.083
0.312 0.030 -0.083
0.311 0.033 -0.083
0.311 0.036 -0.083
0.312 0.038 -0.084
0.312 0.041 -0.084
0.312 0.044 -0.084
0.312 0.047 -0.084
0.312 0.050 -0.084
0.312 0.053 -0.084
0.312 0.056 -0.084
0.312 0.059 -0.084
0.311 0.061 -0.084
0.313 0.065 -0.085
0.318 0.069 -0.086
0.319 0.072 -0.086
0.310 0.073 -0.084
0.307 0.075 -0.083
0.306 0.078 -0.083
0.312 0.082 -0.085
0.321 0.088 -0.087
0.325 0.092 -0.088
0.305 0.089 -0.083
0.307 0.093 -0.084
0.308 0.096 -0.084
0.308 0.099 -0.084
0.320 0.106 -0.088
0.327 0.112 -0.090
0.325 0.114 -0.089
0.311 0.112 -0.085
0.308 0.114 -0.085
0.310 0.118 -0.086
0.343 0.156 -0.096
0.330 0.160 -0.093
0.347 0.183 -0.098
0.361 0.195 -0.103
0.361 0.199 -0.103
0.350 0.197 -0.100
0.354 0.203 -0.101
0.361 0.211 -0.103
0.344 0.209 -0.099
0.308 -0.423 -0.104
0.309 -0.419 -0.104
0.311 -0.417 -0.104
0.313 -0.414 -0.105
0.312 -0.407 -0.104
0.309 -0.398 -0.102
0.309 -0.392 -0.102
0.312 -0.391 -0.103
0.313 -0.386 -0.102
0.314 -0.382 -0.102
0.310 -0.372 -0.100
0.310 -0.367 -0.100
0.313 -0.365 -0.101
0.309 -0.355 -0.099
0.310 -0.351 -0.099
0.311 -0.347 -0.099
0.309 -0.339 -0.097
0.310 -0.335 -0.097
0.311 -0.331 -0.097
0.310 -0.325 -0.096
0.310 -0.320 -0.096
0.310 -0.315 -0.095
0.306 -0.307 -0.094
0.305 -0.301 -0.093
0.302 -0.293 -0.092
0.301 -0.288 -0.091
0.303 -0.285 -0.091
0.304 -0.282 -0.091
0.306 -0.279 -0.091
0.306 -0.274 -0.091
0.304 -0.268 -0.090
0.298 -0.259 -0.088
0.302 -0.258 -0.089
0.298 -0.251 -0.087
0.296 -0.245 -0.086
0.293 -0.239 -0.085
0.287 -0.230 -0.083
0.287 -0.226 -0.083
0.220 -0.168 -0.063
0.223 -0.167 -0.064
0.245 -0.181 -0.070
0.244 -0.177 -0.069
0.237 -0.169 -0.067
0.236 -0.166 -0.067
0.214 -0.147 -0.060
0.215 -0.145 -0.060
0.211 -0.140 -0.059
0.210 -0.137 -0.058
0.213 -0.137 -0.059
0.218 -0.137 -0.060
0.220 -0.136 -0.061
0.222 -0.135 -0.061
0.222 -0.132 -0.061
0.222 -0.130 -0.061
0.207 -0.119 -0.057
0.208 -0.117 -0.057
0.209 -0.116 -0.057
0.211 -0.114 -0.057
0.240 -0.128 -0.065
0.243 -0.126 -0.066
0.245 -0.125 -0.066
0.243 -0.121 -0.065
0.244 -0.120 -0.066
0.309 -0.145 -0.083
0.312 -0.143 -0.084
0.317 -0.142 -0.085
0.322 -0.141 -0.086
0.323 -0.138 -0.086
0.309 -0.129 -0.082
0.294 -0.120 -0.078
0.257 -0.099 -0.068
0.267 -0.101 -0.071
0.254 -0.093 -0.067
0.349 -0.125 -0.092
0.363 -0.126 -0.096
0.366 -0.124 -0.096
0.368 -0.121 -0.097
0.379 -0.121 -0.099
0.381 -0.118 -0.100
0.388 -0.117 -0.102
0.394 -0.114 -0.103
0.401 -0.113 -0.105
0.418 -0.113 -0.109
0.424 -0.111 -0.111
0.433 -0.109 -0.113
0.446 -0.109 -0.116
0.453 -0.106 -0.118
0.404 -0.091 -0.105
0.397 -0.085 -0.103
0.399 -0.082 -0.104
0.378 -0.074 -0.098
0.364 -0.068 -0.094
0.290 -0.052 -0.075
0.285 -0.048 -0.074
0.282 -0.045 -0.073
0.285 -0.043 -0.074
0.289 -0.041 -0.075
0.297 -0.039 -0.077
0.304 -0.037 -0.079
0.300 -0.034 -0.078
0.293 -0.031 -0.076
0.285 -0.027 -0.074
0.281 -0.024 -0.073
0.289 -0.022 -0.075
0.289 -0.020 -0.075
0.299 -0.018 -0.077
0.308 -0.015 -0.079
0.303 -0.012 -0.078
0.300 -0.010 -0.077
0.302 -0.007 -0.078
0.318 -0.004 -0.082
0.323 -0.001 -0.083
0.323 0.001 -0.083
0.299 0.004 -0.077
0.304 0.007 -0.078
0.305 0.010 -0.079
0.306 0.013 -0.079
0.307 0.015 -0.079
0.308 0.018 -0.080
0.310 0.021 -0.080
0.311 0.024 -0.080
0.312 0.027 -0.081
0.312 0.030 -0.081
0.313 0.033 -0.081
0.313 0.036 -0.081
0.313 0.039 -0.081
0.313 0.042 -0.081
0.313 0.044 -0.081
0.313 0.047 -0.081
0.314 0.050 -0.081
0.314 0.053 -0.082
0.314 0.056 -0.082
0.313 0.059 -0.081
0.312 0.062 -0.081
0.312 0.065 -0.081
0.311 0.067 -0.081
0.321 0.072 -0.084
0.317 0.074 -0.083
0.312 0.076 -0.081
0.312 0.079 -0.082
0.316 0.083 -0.083
0.318 0.087 -0.083
0.320 0.090 -0.084
0.317 0.093 -0.083
0.305 0.092 -0.080
0.310 0.096 -0.082
0.310 0.100 -0.082
0.301 0.100 -0.080
0.317 0.111 -0.084
0.320 0.115 -0.085
0.316 0.117 -0.084
0.337 0.152 -0.091
0.325 0.151 -0.088
0.331 0.171 -0.090
0.342 0.180 -0.093
0.361 0.194 -0.099
0.365 0.200 -0.100
0.352 0.197 -0.097
0.346 0.198 -0.095
0.352 0.205 -0.097
0.359 0.213 -0.100
0.336 0.204 -0.094
0.309 -0.425 -0.101
0.307 -0.417 -0.100
0.308 -0.413 -0.100
0.310 -0.410 -0.100
0.310 -0.404 -0.099
0.307 -0.395 -0.098
0.308 -0.391 -0.098
0.308 -0.385 -0.098
0.313 -0.386 -0.099
0.313 -0.380 -0.098
0.311 -0.373 -0.097
0.311 -0.368 -0.097
0.309 -0.360 -0.096
0.308 -0.353 -0.095
0.309 -0.350 -0.095
0.310 -0.345 -0.095
0.310 -0.339 -0.094
0.309 -0.334 -0.093
0.309 -0.329 -0.093
0.309 -0.324 -0.092
0.310 -0.319 -0.092
0.310 -0.315 -0.092
0.306 -0.306 -0.090
0.302 -0.297 -0.089
0.300 -0.290 -0.088
0.302 -0.288 -0.088
0.303 -0.285 -0.088
0.305 -0.282 -0.088
0.303 -0.276 -0.087
0.302 -0.271 -0.087
0.300 -0.264 -0.085
0.298 -0.259 -0.085
0.298 -0.254 -0.084
0.296 -0.249 -0.083
0.296 -0.245 -0.083
0.294 -0.240 -0.082
0.287 -0.230 -0.080
0.221 -0.172 -0.061
0.211 -0.161 -0.058
0.212 -0.159 -0.058
0.232 -0.171 -0.064
0.243 -0.176 -0.066
0.241 -0.172 -0.066
0.236 -0.165 -0.064
0.214 -0.147 -0.058
0.227 -0.154 -0.061
0.218 -0.145 -0.059
0.216 -0.139 -0.058
0.219 -0.138 -0.059
0.221 -0.137 -0.059
0.218 -0.132 -0.058
0.219 -0.131 -0.058
0.222 -0.130 -0.059
0.212 -0.122 -0.056
0.207 -0.117 -0.055
0.208 -0.115 -0.055
0.211 -0.114 -0.055
0.235 -0.125 -0.061
0.247 -0.128 -0.064
0.248 -0.126 -0.064
0.243 -0.121 -0.063
0.243 -0.119 -0.063
0.310 -0.145 -0.080
0.313 -0.143 -0.081
0.316 -0.141 -0.081
0.320 -0.140 -0.082
0.318 -0.136 -0.082
0.305 -0.127 -0.078
0.263 -0.102 -0.067
0.268 -0.101 -0.068
0.253 -0.093 -0.064
0.365 -0.127 -0.093
0.367 -0.124 -0.093
0.369 -0.121 -0.094
0.375 -0.120 -0.095
0.382 -0.118 -0.097
0.388 -0.116 -0.098
0.394 -0.114 -0.099
0.403 -0.113 -0.102
0.413 -0.112 -0.104
0.426 -0.112 -0.107
0.435 -0.110 -0.109
0.446 -0.108 -0.112
0.454 -0.106 -0.114
0.400 -0.090 -0.100
0.401 -0.086 -0.100
0.391 -0.081 -0.098
0.385 -0.076 -0.096
0.283 -0.048 -0.071
0.285 -0.045 -0.071
0.288 -0.043 -0.072
0.298 -0.042 -0.074
0.301 -0.040 -0.075
0.307 -0.038 -0.077
0.303 -0.035 -0.076
0.291 -0.030 -0.072
0.284 -0.027 -0.071
0.289 -0.025 -0.072
0.285 -0.022 -0.071
0.309 -0.021 -0.077
0.307 -0.018 -0.076
0.309 -0.015 -0.077
0.303 -0.012 -0.075
0.299 -0.010 -0.074
0.315 -0.007 -0.078
0.322 -0.004 -0.080
0.324 -0.001 -0.081
0.299 0.001 -0.074
0.302 0.004 -0.075
0.304 0.007 -0.076
0.307 0.010 -0.076
0.308 0.013 -0.076
0.308 0.015 -0.077
0.310 0.018 -0.077
0.311 0.021 -0.077
0.313 0.024 -0.078
0.313 0.027 -0.078
0.313 0.030 -0.078
0.314 0.033 -0.078
0.314 0.036 -0.078
0.314 0.039 -0.078
0.314 0.042 -0.078
0.314 0.044 -0.078
0.314 0.047 -0.079
0.315 0.050 -0.079
0.315 0.053 -0.079
0.315 0.056 -0.079
0.314 0.059 -0.079
0.314 0.062 -0.079
0.313 0.065 -0.079
0.312 0.067 -0.078
0.311 0.070 -0.078
0.323 0.076 -0.081
0.316 0.077 -0.080
0.310 0.079 -0.078
0.307 0.081 -0.078
0.309 0.084 -0.078
0.312 0.088 -0.079
0.317 0.093 -0.080
0.316 0.095 -0.080
0.310 0.096 -0.079
0.311 0.100 -0.079
0.305 0.101 -0.078
0.303 0.103 -0.077
0.314 0.110 -0.080
0.328 0.118 -0.084
0.328 0.121 -0.084
0.314 0.120 -0.081
0.336 0.152 -0.087
0.321 0.149 -0.084
0.330 0.160 -0.086
0.340 0.175 -0.089
0.343 0.181 -0.090
0.357 0.192 -0.094
0.368 0.202 -0.098
0.363 0.203 -0.096
0.342 0.195 -0.091
0.342 0.199 -0.091
0.354 0.210 -0.095
0.343 0.207 -0.092
0.347 0.218 -0.094
0.365 0.234 -0.099
0.354 0.239 -0.096
0.342 0.262 -0.096
0.303 -0.421 -0.095
0.310 -0.425 -0.097
0.311 -0.421 -0.097
0.308 -0.412 -0.096
0.309 -0.407 -0.096
0.307 -0.400 -0.095
0.305 -0.392 -0.094
0.303 -0.384 -0.093
0.310 -0.387 -0.094
0.311 -0.384 -0.094
0.311 -0.378 -0.094
0.310 -0.372 -0.093
0.311 -0.367 -0.093
0.310 -0.360 -0.092
0.307 -0.352 -0.091
0.308 -0.348 -0.091
0.309 -0.344 -0.091
0.310 -0.340 -0.090
0.310 -0.334 -0.090
0.307 -0.326 -0.089
0.305 -0.319 -0.088
0.307 -0.317 -0.088
0.306 -0.311 -0.087
0.305 -0.304 -0.086
0.305 -0.300 -0.086
0.302 -0.293 -0.085
0.301 -0.287 -0.084
0.303 -0.284 -0.084
0.301 -0.278 -0.083
0.300 -0.273 -0.083
0.299 -0.268 -0.082
0.298 -0.262 -0.082
0.298 -0.258 -0.081
0.298 -0.254 -0.081
0.296 -0.248 -0.080
0.297 -0.245 -0.080
0.296 -0.241 -0.080
0.210 -0.160 -0.056
0.205 -0.154 -0.054
0.208 -0.153 -0.055
0.237 -0.172 -0.062
0.247 -0.175 -0.065
0.215 -0.148 -0.056
0.226 -0.153 -0.059
0.227 -0.151 -0.059
0.211 -0.137 -0.054
0.216 -0.139 -0.056
0.220 -0.138 -0.056
0.220 -0.136 -0.057
0.220 -0.133 -0.056
0.219 -0.131 -0.056
0.221 -0.129 -0.056
0.214 -0.123 -0.054
0.207 -0.116 -0.052
0.208 -0.115 -0.053
0.209 -0.113 -0.053
0.227 -0.121 -0.057
0.244 -0.127 -0.061
0.247 -0.126 -0.062
0.241 -0.120 -0.060
0.242 -0.118 -0.061
0.259 -0.124 -0.065
0.312 -0.146 -0.078
0.313 -0.143 -0.078
0.315 -0.141 -0.078
0.319 -0.139 -0.079
0.322 -0.138 -0.080
0.313 -0.131 -0.077
0.265 -0.105 -0.065
0.279 -0.108 -0.069
0.265 -0.100 -0.065
0.252 -0.092 -0.062
0.364 -0.127 -0.089
0.365 -0.123 -0.089
0.369 -0.121 -0.090
0.374 -0.119 -0.091
0.379 -0.117 -0.092
0.384 -0.115 -0.093
0.393 -0.114 -0.096
0.402 -0.113 -0.098
0.411 -0.111 -0.100
0.419 -0.110 -0.101
0.436 -0.110 -0.106
0.439 -0.107 -0.106
0.452 -0.106 -0.109
0.402 -0.086 -0.097
0.391 -0.080 -0.094
0.375 -0.074 -0.090
0.369 -0.069 -0.089
0.284 -0.051 -0.068
0.284 -0.048 -0.068
0.283 -0.045 -0.068
0.287 -0.043 -0.069
0.292 -0.041 -0.070
0.300 -0.040 -0.072
0.304 -0.037 -0.073
0.299 -0.034 -0.072
0.289 -0.030 -0.069
0.283 -0.027 -0.068
0.308 -0.027 -0.074
0.319 -0.025 -0.076
0.305 -0.018 -0.073
0.307 -0.015 -0.073
0.311 -0.013 -0.074
0.312 -0.010 -0.075
0.318 -0.007 -0.076
0.321 -0.004 -0.077
0.299 -0.001 -0.072
0.302 0.001 -0.072
0.304 0.004 -0.073
0.306 0.007 -0.073
0.308 0.010 -0.074
0.309 0.013 -0.074
0.309 0.015 -0.074
0.312 0.018 -0.075
0.313 0.021 -0.075
0.315 0.024 -0.075
0.316 0.027 -0.076
0.316 0.030 -0.076
0.315 0.033 -0.076
0.315 0.036 -0.076
0.315 0.039 -0.076
0.315 0.042 -0.076
0.316 0.045 -0.076
0.317 0.048 -0.076
0.316 0.051 -0.076
0.316 0.053 -0.076
0.316 0.056 -0.076
0.316 0.059 -0.076
0.315 0.062 -0.076
0.315 0.065 -0.076
0.314 0.068 -0.076
0.313 0.070 -0.076
0.313 0.073 -0.076
0.326 0.080 -0.079
0.311 0.079 -0.076
0.308 0.081 -0.075
0.308 0.084 -0.075
0.313 0.088 -0.076
0.319 0.093 -0.078
0.319 0.096 -0.078
0.312 0.097 -0.076
0.309 0.099 -0.076
0.312 0.103 -0.076
0.314 0.107 -0.077
0.329 0.118 -0.081
0.324 0.120 -0.080
0.326 0.147 -0.082
0.318 0.147 -0.080
0.349 0.180 -0.088
0.366 0.193 -0.093
0.365 0.196 -0.093
0.370 0.203 -0.094
0.377 0.211 -0.096
0.335 0.195 -0.086
0.343 0.203 -0.088
0.337 0.207 -0.087
0.341 0.214 -0.088
0.366 0.248 -0.096
0.369 0.268 -0.098
0.363 0.268 -0.097
0.315 -0.437 -0.095
0.307 -0.421 -0.092
0.306 -0.414 -0.092
0.307 -0.410 -0.092
0.306 -0.404 -0.091
0.305 -0.397 -0.090
0.303 -0.388 -0.089
0.302 -0.382 -0.089
0.307 -0.383 -0.090
0.311 -0.383 -0.091
0.306 -0.371 -0.089
0.306 -0.366 -0.088
0.310 -0.365 -0.089
0.308 -0.358 -0.088
0.308 -0.353 -0.088
0.308 -0.347 -0.087
0.308 -0.342 -0.087
0.309 -0.338 -0.087
0.310 -0.334 -0.086
0.305 -0.323 -0.085
0.304 -0.317 -0.084
0.304 -0.313 -0.084
0.305 -0.309 -0.083
0.304 -0.304 -0.083
0.304 -0.298 -0.082
0.302 -0.292 -0.082
0.301 -0.287 -0.081
0.300 -0.281 -0.080
0.300 -0.276 -0.080
0.300 -0.272 -0.080
0.300 -0.268 -0.079
0.298 -0.262 -0.079
0.299 -0.259 -0.078
0.299 -0.255 -0.078
0.298 -0.250 -0.078
0.296 -0.245 -0.077
0.292 -0.237 -0.076
0.273 -0.218 -0.070
0.264 -0.208 -0.068
0.221 -0.163 -0.056
0.232 -0.167 -0.059
0.237 -0.168 -0.060
0.221 -0.155 -0.056
0.217 -0.149 -0.054
0.226 -0.153 -0.056
0.226 -0.150 -0.056
0.214 -0.140 -0.053
0.215 -0.138 -0.053
0.219 -0.138 -0.054
0.218 -0.134 -0.054
0.209 -0.127 -0.051
0.216 -0.129 -0.053
0.220 -0.129 -0.054
0.220 -0.126 -0.054
0.208 -0.117 -0.051
0.208 -0.115 -0.051
0.210 -0.113 -0.051
0.216 -0.114 -0.052
0.241 -0.125 -0.058
0.245 -0.125 -0.059
0.243 -0.121 -0.058
0.243 -0.119 -0.058
0.248 -0.118 -0.059
0.312 -0.146 -0.075
0.313 -0.143 -0.075
0.313 -0.140 -0.075
0.316 -0.138 -0.075
0.325 -0.139 -0.077
0.315 -0.131 -0.075
0.278 -0.113 -0.066
0.275 -0.109 -0.065
0.269 -0.104 -0.063
0.266 -0.100 -0.063
0.251 -0.092 -0.059
0.361 -0.125 -0.085
0.364 -0.123 -0.085
0.367 -0.120 -0.086
0.373 -0.119 -0.087
0.378 -0.117 -0.088
0.382 -0.114 -0.089
0.391 -0.113 -0.091
0.404 -0.113 -0.094
0.411 -0.111 -0.096
0.417 -0.109 -0.097
0.425 -0.107 -0.099
0.442 -0.107 -0.103
0.445 -0.104 -0.103
0.433 -0.097 -0.100
0.395 -0.085 -0.092
0.386 -0.079 -0.089
0.383 -0.075 -0.089
0.369 -0.069 -0.085
0.285 -0.051 -0.066
0.283 -0.048 -0.065
0.282 -0.045 -0.065
0.281 -0.042 -0.065
0.285 -0.040 -0.066
0.298 -0.039 -0.069
0.307 -0.038 -0.071
0.300 -0.034 -0.069
0.288 -0.030 -0.066
0.286 -0.027 -0.066
0.310 -0.027 -0.071
0.309 -0.024 -0.071
0.299 -0.020 -0.069
0.297 -0.018 -0.068
0.309 -0.015 -0.071
0.307 -0.013 -0.071
0.317 -0.010 -0.073
0.321 -0.007 -0.074
0.299 -0.004 -0.069
0.300 -0.001 -0.069
0.304 0.001 -0.070
0.306 0.004 -0.070
0.307 0.007 -0.071
0.309 0.010 -0.071
0.309 0.013 -0.071
0.313 0.016 -0.072
0.315 0.019 -0.073
0.316 0.021 -0.073
0.316 0.024 -0.073
0.317 0.027 -0.073
0.317 0.030 -0.073
0.316 0.033 -0.073
0.316 0.036 -0.073
0.316 0.039 -0.073
0.316 0.042 -0.073
0.318 0.045 -0.074
0.318 0.048 -0.074
0.318 0.051 -0.073
0.318 0.054 -0.074
0.317 0.057 -0.074
0.316 0.059 -0.073
0.316 0.062 -0.073
0.316 0.065 -0.073
0.315 0.068 -0.073
0.314 0.071 -0.073
0.314 0.073 -0.073
0.313 0.076 -0.073
0.324 0.082 -0.076
0.324 0.085 -0.076
0.320 0.087 -0.075
0.319 0.090 -0.075
0.323 0.094 -0.076
0.323 0.097 -0.076
0.316 0.098 -0.074
0.313 0.100 -0.074
0.312 0.103 -0.074
0.319 0.109 -0.075
0.324 0.113 -0.077
0.316 0.114 -0.075
0.291 0.108 -0.069
0.305 0.116 -0.072
0.321 0.145 -0.077
0.326 0.150 -0.078
0.338 0.167 -0.082
0.377 0.198 -0.092
0.372 0.199 -0.091
0.379 0.208 -0.093
0.367 0.205 -0.090
0.344 0.196 -0.085
0.334 0.198 -0.083
0.337 0.203 -0.084
0.337 0.208 -0.084
0.342 0.215 -0.085
0.354 0.231 -0.089
0.353 0.234 -0.089
0.362 0.245 -0.091
0.373 0.285 -0.096
0.310 -0.429 -0.090
0.303 -0.416 -0.088
0.304 -0.411 -0.087
0.305 -0.408 -0.088
0.307 -0.404 -0.088
0.304 -0.395 -0.086
0.304 -0.390 -0.086
0.306 -0.387 -0.086
0.307 -0.383 -0.086
0.308 -0.378 -0.086
0.304 -0.368 -0.084
0.306 -0.366 -0.085
0.307 -0.361 -0.084
0.308 -0.357 -0.084
0.307 -0.351 -0.084
0.307 -0.345 -0.083
0.307 -0.341 -0.083
0.308 -0.337 -0.083
0.307 -0.331 -0.082
0.303 -0.321 -0.081
0.304 -0.318 -0.081
0.305 -0.313 -0.080
0.303 -0.307 -0.080
0.303 -0.302 -0.079
0.303 -0.297 -0.079
0.302 -0.292 -0.078
0.300 -0.285 -0.077
0.299 -0.280 -0.077
0.300 -0.276 -0.077
0.301 -0.273 -0.077
0.303 -0.270 -0.077
0.301 -0.264 -0.076
0.298 -0.258 -0.075
0.299 -0.255 -0.075
0.299 -0.250 -0.075
0.296 -0.244 -0.074
0.293 -0.238 -0.073
0.291 -0.232 -0.072
0.224 -0.165 -0.055
0.229 -0.165 -0.055
0.232 -0.165 -0.056
0.229 -0.160 -0.055
0.221 -0.152 -0.053
0.228 -0.153 -0.055
0.229 -0.152 -0.055
0.217 -0.141 -0.052
0.220 -0.141 -0.052
0.218 -0.137 -0.052
0.210 -0.130 -0.050
0.207 -0.126 -0.049
0.213 -0.126 -0.050
0.218 -0.127 -0.051
0.222 -0.127 -0.052
0.208 -0.117 -0.049
0.208 -0.114 -0.048
0.208 -0.112 -0.048
0.215 -0.114 -0.050
0.240 -0.124 -0.056
0.243 -0.123 -0.056
0.245 -0.122 -0.057
0.245 -0.119 -0.056
0.245 -0.117 -0.056
0.310 -0.145 -0.071
0.312 -0.142 -0.072
0.314 -0.140 -0.072
0.312 -0.136 -0.071
0.309 -0.128 -0.070
0.261 -0.103 -0.059
0.268 -0.104 -0.061
0.264 -0.099 -0.060
0.250 -0.092 -0.057
0.359 -0.125 -0.081
0.362 -0.122 -0.082
0.366 -0.120 -0.082
0.371 -0.118 -0.083
0.376 -0.116 -0.084
0.382 -0.114 -0.086
0.390 -0.113 -0.087
0.403 -0.113 -0.090
0.412 -0.112 -0.092
0.418 -0.109 -0.093
0.427 -0.108 -0.095
0.438 -0.106 -0.098
0.444 -0.103 -0.099
0.435 -0.097 -0.097
0.395 -0.085 -0.088
0.389 -0.080 -0.087
0.387 -0.076 -0.086
0.289 -0.051 -0.064
0.286 -0.048 -0.063
0.282 -0.045 -0.063
0.281 -0.042 -0.062
0.287 -0.040 -0.064
0.294 -0.039 -0.065
0.301 -0.037 -0.067
0.301 -0.034 -0.067
0.294 -0.031 -0.065
0.297 -0.028 -0.066
0.298 -0.026 -0.066
0.295 -0.023 -0.065
0.291 -0.020 -0.064
0.292 -0.017 -0.064
0.290 -0.015 -0.064
0.304 -0.012 -0.067
0.315 -0.010 -0.070
0.320 -0.007 -0.071
0.299 -0.004 -0.066
0.302 -0.001 -0.067
0.306 0.001 -0.068
0.307 0.004 -0.068
0.308 0.007 -0.068
0.309 0.010 -0.068
0.312 0.013 -0.069
0.314 0.016 -0.069
0.316 0.019 -0.070
0.317 0.022 -0.070
0.317 0.024 -0.070
0.318 0.027 -0.070
0.317 0.030 -0.070
0.317 0.033 -0.070
0.318 0.036 -0.070
0.318 0.039 -0.070
0.320 0.042 -0.071
0.320 0.045 -0.071
0.320 0.048 -0.071
0.318 0.051 -0.071
0.318 0.054 -0.071
0.318 0.057 -0.071
0.317 0.059 -0.071
0.317 0.062 -0.071
0.317 0.065 -0.071
0.316 0.068 -0.070
0.314 0.071 -0.070
0.314 0.073 -0.070
0.313 0.076 -0.070
0.315 0.080 -0.070
0.325 0.085 -0.073
0.325 0.088 -0.073
0.316 0.089 -0.071
0.320 0.093 -0.072
0.324 0.097 -0.073
0.320 0.099 -0.072
0.310 0.099 -0.070
0.308 0.102 -0.070
0.312 0.106 -0.071
0.323 0.113 -0.073
0.311 0.112 -0.071
0.297 0.109 -0.067
0.298 0.113 -0.068
0.312 0.121 -0.071
0.325 0.146 -0.075
0.326 0.150 -0.075
0.323 0.156 -0.075
0.371 0.195 -0.087
0.366 0.196 -0.086
0.365 0.199 -0.086
0.347 0.193 -0.082
0.354 0.202 -0.084
0.341 0.198 -0.081
0.343 0.203 -0.081
0.341 0.206 -0.081
0.346 0.213 -0.083
0.365 0.260 -0.089
0.311 -0.432 -0.086
0.305 -0.417 -0.084
0.303 -0.410 -0.084
0.305 -0.408 -0.084
0.306 -0.402 -0.084
0.303 -0.394 -0.083
0.304 -0.389 -0.082
0.306 -0.386 -0.083
0.308 -0.383 -0.083
0.305 -0.374 -0.081
0.306 -0.370 -0.081
0.305 -0.364 -0.081
0.306 -0.359 -0.081
0.306 -0.354 -0.080
0.305 -0.348 -0.080
0.305 -0.343 -0.079
0.307 -0.340 -0.079
0.308 -0.336 -0.079
0.302 -0.325 -0.077
0.303 -0.321 -0.077
0.305 -0.318 -0.077
0.305 -0.313 -0.077
0.303 -0.306 -0.076
0.301 -0.300 -0.075
0.302 -0.296 -0.075
0.301 -0.291 -0.075
0.300 -0.285 -0.074
0.298 -0.279 -0.073
0.299 -0.275 -0.073
0.301 -0.273 -0.073
0.299 -0.266 -0.073
0.300 -0.263 -0.073
0.298 -0.258 -0.072
0.298 -0.254 -0.072
0.298 -0.250 -0.071
0.298 -0.246 -0.071
0.294 -0.238 -0.070
0.300 -0.239 -0.071
0.299 -0.235 -0.071
0.288 -0.222 -0.068
0.230 -0.172 -0.054
0.221 -0.162 -0.052
0.227 -0.164 -0.053
0.227 -0.161 -0.052
0.232 -0.162 -0.054
0.241 -0.165 -0.055
0.245 -0.165 -0.056
0.241 -0.160 -0.055
0.228 -0.149 -0.052
0.220 -0.141 -0.050
0.222 -0.139 -0.050
0.212 -0.130 -0.048
0.205 -0.124 -0.046
0.206 -0.122 -0.046
0.216 -0.126 -0.049
0.222 -0.127 -0.050
0.207 -0.116 -0.046
0.207 -0.114 -0.046
0.208 -0.112 -0.046
0.209 -0.111 -0.047
0.236 -0.122 -0.052
0.242 -0.123 -0.054
0.247 -0.123 -0.055
0.243 -0.118 -0.054
0.243 -0.116 -0.054
0.313 -0.143 -0.069
0.315 -0.140 -0.069
0.316 -0.138 -0.069
0.313 -0.133 -0.068
0.307 -0.127 -0.067
0.273 -0.111 -0.059
0.261 -0.101 -0.057
0.257 -0.096 -0.056
0.248 -0.091 -0.054
0.354 -0.123 -0.077
0.360 -0.121 -0.078
0.365 -0.120 -0.079
0.368 -0.117 -0.079
0.373 -0.115 -0.080
0.381 -0.114 -0.082
0.392 -0.113 -0.084
0.401 -0.112 -0.086
0.411 -0.111 -0.088
0.421 -0.110 -0.090
0.428 -0.108 -0.092
0.437 -0.106 -0.093
0.442 -0.103 -0.094
0.430 -0.096 -0.092
0.403 -0.086 -0.086
0.391 -0.080 -0.083
0.381 -0.075 -0.081
0.373 -0.070 -0.079
0.289 -0.051 -0.061
0.285 -0.048 -0.060
0.281 -0.045 -0.060
0.281 -0.042 -0.060
0.286 -0.040 -0.061
0.291 -0.038 -0.062
0.292 -0.036 -0.062
0.291 -0.033 -0.062
0.295 -0.031 -0.063
0.299 -0.028 -0.063
0.298 -0.026 -0.063
0.293 -0.023 -0.062
0.292 -0.020 -0.062
0.290 -0.017 -0.061
0.293 -0.015 -0.062
0.308 -0.013 -0.065
0.319 -0.010 -0.067
0.300 -0.007 -0.063
0.302 -0.004 -0.064
0.303 -0.001 -0.064
0.306 0.001 -0.065
0.309 0.004 -0.065
0.309 0.007 -0.065
0.311 0.010 -0.066
0.313 0.013 -0.066
0.315 0.016 -0.067
0.317 0.019 -0.067
0.318 0.022 -0.067
0.318 0.025 -0.067
0.320 0.028 -0.068
0.318 0.030 -0.067
0.319 0.033 -0.068
0.319 0.036 -0.068
0.320 0.039 -0.068
0.321 0.042 -0.068
0.321 0.045 -0.068
0.320 0.048 -0.068
0.319 0.051 -0.068
0.320 0.054 -0.068
0.319 0.057 -0.068
0.318 0.059 -0.068
0.318 0.062 -0.068
0.318 0.065 -0.068
0.316 0.068 -0.068
0.315 0.071 -0.067
0.314 0.073 -0.067
0.313 0.076 -0.067
0.312 0.079 -0.067
0.321 0.084 -0.069
0.318 0.087 -0.068
0.317 0.089 -0.068
0.313 0.091 -0.067
0.324 0.097 -0.070
0.321 0.100 -0.069
0.309 0.099 -0.067
0.309 0.102 -0.067
0.319 0.108 -0.069
0.330 0.115 -0.072
0.342 0.123 -0.074
0.304 0.112 -0.066
0.306 0.116 -0.067
0.315 0.122 -0.069
0.336 0.151 -0.074
0.330 0.152 -0.073
0.330 0.155 -0.073
0.357 0.187 -0.080
0.359 0.192 -0.081
0.354 0.194 -0.080
0.351 0.195 -0.079
0.343 0.195 -0.078
0.355 0.206 -0.080
0.345 0.204 -0.078
0.348 0.210 -0.079
0.352 0.220 -0.081
0.355 0.227 -0.082
0.357 0.236 -0.083
0.362 0.248 -0.084
0.366 0.255 -0.085
0.365 0.259 -0.085
0.304 -0.421 -0.081
0.304 -0.416 -0.080
0.302 -0.409 -0.080
0.305 -0.407 -0.080
0.300 -0.394 -0.078
0.299 -0.388 -0.078
0.303 -0.387 -0.078
0.306 -0.386 -0.079
0.305 -0.379 -0.078
0.306 -0.375 -0.078
0.306 -0.371 -0.078
0.306 -0.364 -0.077
0.305 -0.358 -0.077
0.303 -0.351 -0.076
0.302 -0.344 -0.075
0.302 -0.340 -0.075
0.305 -0.337 -0.075
0.305 -0.332 -0.075
0.302 -0.324 -0.074
0.303 -0.320 -0.074
0.304 -0.317 -0.074
0.304 -0.312 -0.073
0.302 -0.305 -0.073
0.300 -0.298 -0.072
0.300 -0.293 -0.071
0.300 -0.289 -0.071
0.299 -0.284 -0.071
0.299 -0.279 -0.070
0.300 -0.276 -0.070
0.298 -0.270 -0.070
0.301 -0.268 -0.070
0.301 -0.264 -0.070
0.302 -0.260 -0.069
0.301 -0.256 -0.069
0.300 -0.251 -0.069
0.301 -0.247 -0.069
0.302 -0.244 -0.069
0.302 -0.241 -0.068
0.304 -0.238 -0.069
0.300 -0.231 -0.067
0.235 -0.175 -0.053
0.226 -0.165 -0.050
0.223 -0.160 -0.049
0.226 -0.160 -0.050
0.231 -0.161 -0.051
0.241 -0.165 -0.053
0.246 -0.165 -0.054
0.244 -0.161 -0.053
0.236 -0.154 -0.052
0.223 -0.143 -0.049
0.224 -0.141 -0.049
0.209 -0.128 -0.045
0.206 -0.124 -0.044
0.205 -0.121 -0.044
0.209 -0.122 -0.045
0.217 -0.124 -0.047
0.209 -0.117 -0.045
0.207 -0.114 -0.044
0.207 -0.112 -0.044
0.208 -0.110 -0.044
0.227 -0.117 -0.048
0.242 -0.123 -0.051
0.243 -0.121 -0.051
0.243 -0.118 -0.051
0.243 -0.116 -0.051
0.250 -0.116 -0.052
0.310 -0.141 -0.065
0.315 -0.140 -0.066
0.314 -0.137 -0.066
0.308 -0.131 -0.064
0.266 -0.108 -0.056
0.254 -0.100 -0.053
0.257 -0.099 -0.053
0.257 -0.097 -0.053
0.246 -0.090 -0.051
0.354 -0.123 -0.073
0.360 -0.121 -0.074
0.365 -0.119 -0.075
0.369 -0.117 -0.076
0.373 -0.115 -0.077
0.381 -0.114 -0.078
0.392 -0.113 -0.080
0.402 -0.112 -0.082
0.406 -0.110 -0.083
0.418 -0.109 -0.086
0.425 -0.107 -0.087
0.430 -0.104 -0.088
0.437 -0.102 -0.089
0.423 -0.094 -0.086
0.381 -0.078 -0.078
0.373 -0.073 -0.076
0.372 -0.069 -0.076
0.286 -0.051 -0.058
0.284 -0.048 -0.058
0.282 -0.045 -0.057
0.282 -0.042 -0.057
0.284 -0.040 -0.058
0.288 -0.038 -0.058
0.287 -0.035 -0.058
0.284 -0.032 -0.058
0.289 -0.030 -0.058
0.301 -0.029 -0.061
0.300 -0.026 -0.061
0.295 -0.023 -0.060
0.305 -0.021 -0.062
0.296 -0.017 -0.060
0.304 -0.015 -0.061
0.317 -0.013 -0.064
0.310 -0.010 -0.063
0.301 -0.007 -0.061
0.302 -0.004 -0.061
0.304 -0.001 -0.062
0.306 0.001 -0.062
0.308 0.004 -0.062
0.311 0.007 -0.063
0.313 0.010 -0.063
0.315 0.013 -0.064
0.317 0.016 -0.064
0.319 0.019 -0.065
0.319 0.022 -0.065
0.319 0.025 -0.065
0.318 0.027 -0.064
0.319 0.030 -0.065
0.319 0.033 -0.065
0.320 0.036 -0.065
0.321 0.039 -0.065
0.321 0.042 -0.065
0.320 0.045 -0.065
0.320 0.048 -0.065
0.320 0.051 -0.065
0.320 0.054 -0.065
0.320 0.057 -0.065
0.319 0.060 -0.065
0.318 0.062 -0.065
0.317 0.065 -0.065
0.316 0.068 -0.065
0.316 0.071 -0.065
0.315 0.074 -0.065
0.314 0.076 -0.064
0.313 0.079 -0.064
0.312 0.082 -0.064
0.318 0.086 -0.065
0.316 0.089 -0.065
0.315 0.092 -0.065
0.317 0.095 -0.065
0.316 0.098 -0.065
0.311 0.099 -0.064
0.306 0.101 -0.063
0.318 0.108 -0.066
0.338 0.121 -0.070
0.311 0.118 -0.065
0.306 0.119 -0.064
0.341 0.157 -0.072
0.339 0.159 -0.072
0.346 0.170 -0.074
0.352 0.185 -0.075
0.349 0.187 -0.075
0.354 0.193 -0.076
0.349 0.194 -0.075
0.347 0.197 -0.075
0.356 0.206 -0.077
0.356 0.210 -0.077
0.350 0.210 -0.076
0.351 0.215 -0.077
0.353 0.221 -0.077
0.356 0.227 -0.078
0.349 0.226 -0.077
0.340 0.225 -0.075
0.351 0.236 -0.078
0.372 0.260 -0.083
0.350 0.253 -0.079
0.356 0.262 -0.080
0.347 0.264 -0.079
0.242 -0.336 -0.061
0.294 -0.382 -0.073
0.302 -0.386 -0.075
0.306 -0.386 -0.075
0.305 -0.380 -0.075
0.305 -0.374 -0.074
0.305 -0.369 -0.074
0.302 -0.360 -0.073
0.303 -0.356 -0.073
0.303 -0.350 -0.072
0.301 -0.343 -0.072
0.301 -0.338 -0.071
0.303 -0.335 -0.071
0.304 -0.331 -0.071
0.304 -0.326 -0.071
0.302 -0.319 -0.070
0.303 -0.315 -0.070
0.303 -0.311 -0.070
0.303 -0.305 -0.069
0.302 -0.300 -0.069
0.301 -0.294 -0.068
0.300 -0.289 -0.068
0.301 -0.286 -0.068
0.304 -0.283 -0.068
0.308 -0.282 -0.069
0.306 -0.277 -0.068
0.304 -0.271 -0.067
0.305 -0.268 -0.067
0.308 -0.266 -0.068
0.304 -0.258 -0.067
0.304 -0.254 -0.066
0.304 -0.250 -0.066
0.306 -0.247 -0.066
0.304 -0.242 -0.066
0.311 -0.243 -0.067
0.303 -0.234 -0.065
0.226 -0.165 -0.048
0.222 -0.160 -0.047
0.224 -0.159 -0.047
0.227 -0.158 -0.048
0.241 -0.165 -0.051
0.244 -0.164 -0.051
0.242 -0.160 -0.051
0.235 -0.153 -0.049
0.227 -0.145 -0.047
0.222 -0.139 -0.046
0.210 -0.129 -0.043
0.207 -0.125 -0.043
0.207 -0.123 -0.043
0.207 -0.120 -0.042
0.214 -0.122 -0.044
0.215 -0.120 -0.044
0.206 -0.113 -0.042
0.207 -0.111 -0.042
0.207 -0.109 -0.042
0.218 -0.113 -0.044
0.242 -0.123 -0.049
0.244 -0.121 -0.049
0.245 -0.119 -0.049
0.243 -0.116 -0.049
0.244 -0.114 -0.049
0.310 -0.141 -0.062
0.315 -0.140 -0.063
0.315 -0.137 -0.063
0.308 -0.131 -0.061
0.258 -0.105 -0.051
0.245 -0.097 -0.049
0.252 -0.097 -0.050
0.357 -0.124 -0.070
0.359 -0.121 -0.071
0.365 -0.119 -0.072
0.370 -0.117 -0.073
0.374 -0.115 -0.073
0.378 -0.113 -0.074
0.388 -0.112 -0.076
0.400 -0.112 -0.078
0.407 -0.110 -0.080
0.413 -0.108 -0.081
0.420 -0.106 -0.082
0.422 -0.102 -0.082
0.424 -0.099 -0.083
0.423 -0.095 -0.082
0.380 -0.078 -0.074
0.372 -0.073 -0.072
0.363 -0.068 -0.070
0.288 -0.051 -0.056
0.287 -0.048 -0.056
0.286 -0.045 -0.055
0.284 -0.042 -0.055
0.282 -0.040 -0.055
0.284 -0.037 -0.055
0.284 -0.035 -0.055
0.285 -0.032 -0.055
0.289 -0.030 -0.056
0.300 -0.029 -0.058
0.301 -0.026 -0.058
0.301 -0.023 -0.058
0.299 -0.020 -0.058
0.306 -0.018 -0.059
0.312 -0.016 -0.060
0.319 -0.013 -0.062
0.301 -0.010 -0.058
0.301 -0.007 -0.058
0.303 -0.004 -0.059
0.305 -0.001 -0.059
0.307 0.001 -0.059
0.310 0.004 -0.060
0.311 0.007 -0.060
0.315 0.010 -0.061
0.316 0.013 -0.061
0.319 0.016 -0.062
0.319 0.019 -0.062
0.319 0.022 -0.062
0.326 0.025 -0.063
0.328 0.028 -0.063
0.319 0.030 -0.062
0.320 0.033 -0.062
0.321 0.036 -0.062
0.325 0.040 -0.063
0.330 0.043 -0.064
0.322 0.045 -0.062
0.320 0.048 -0.062
0.321 0.051 -0.062
0.321 0.054 -0.062
0.321 0.057 -0.062
0.320 0.060 -0.062
0.319 0.063 -0.062
0.318 0.065 -0.062
0.318 0.068 -0.062
0.317 0.071 -0.062
0.317 0.074 -0.062
0.316 0.077 -0.062
0.314 0.079 -0.062
0.312 0.082 -0.061
0.317 0.086 -0.062
0.317 0.089 -0.062
0.313 0.091 -0.062
0.312 0.094 -0.062
0.317 0.098 -0.063
0.311 0.099 -0.062
0.303 0.100 -0.060
0.312 0.106 -0.062
0.311 0.108 -0.062
0.317 0.120 -0.063
0.317 0.123 -0.063
0.349 0.161 -0.071
0.355 0.167 -0.072
0.336 0.176 -0.069
0.339 0.181 -0.070
0.347 0.189 -0.071
0.347 0.193 -0.071
0.349 0.198 -0.072
0.351 0.203 -0.073
0.350 0.206 -0.073
0.351 0.211 -0.073
0.362 0.222 -0.075
0.351 0.219 -0.073
0.353 0.225 -0.074
0.351 0.254 -0.075
0.356 0.262 -0.077
0.375 0.295 -0.082
0.379 0.304 -0.083
0.358 0.333 -0.081
0.336 0.318 -0.077
0.249 -0.345 -0.060
0.251 -0.344 -0.060
0.256 -0.346 -0.061
0.259 -0.345 -0.062
0.260 -0.342 -0.062
0.265 -0.344 -0.063
0.270 -0.345 -0.064
0.269 -0.339 -0.063
0.276 -0.343 -0.064
0.298 -0.360 -0.069
0.298 -0.355 -0.069
0.300 -0.351 -0.069
0.301 -0.348 -0.069
0.299 -0.340 -0.068
0.300 -0.336 -0.068
0.302 -0.333 -0.068
0.301 -0.328 -0.067
0.304 -0.326 -0.068
0.302 -0.319 -0.067
0.304 -0.316 -0.067
0.305 -0.312 -0.067
0.305 -0.307 -0.067
0.304 -0.302 -0.066
0.304 -0.297 -0.066
0.305 -0.293 -0.066
0.308 -0.291 -0.066
0.309 -0.288 -0.066
0.309 -0.283 -0.066
0.310 -0.280 -0.066
0.308 -0.274 -0.065
0.308 -0.269 -0.065
0.309 -0.266 -0.065
0.307 -0.260 -0.064
0.307 -0.257 -0.064
0.308 -0.253 -0.064
0.307 -0.248 -0.063
0.311 -0.247 -0.064
0.313 -0.244 -0.064
0.310 -0.238 -0.063
0.298 -0.226 -0.061
0.236 -0.172 -0.048
0.223 -0.161 -0.045
0.221 -0.157 -0.044
0.216 -0.150 -0.043
0.243 -0.166 -0.049
0.243 -0.163 -0.048
0.237 -0.156 -0.047
0.229 -0.149 -0.045
0.221 -0.141 -0.044
0.215 -0.134 -0.042
0.204 -0.126 -0.040
0.206 -0.124 -0.040
0.206 -0.122 -0.040
0.206 -0.120 -0.040
0.208 -0.118 -0.040
0.217 -0.121 -0.042
0.207 -0.113 -0.040
0.207 -0.111 -0.040
0.206 -0.109 -0.040
0.215 -0.111 -0.042
0.240 -0.121 -0.046
0.243 -0.121 -0.047
0.245 -0.119 -0.047
0.243 -0.115 -0.047
0.242 -0.113 -0.046
0.300 -0.137 -0.057
0.309 -0.138 -0.059
0.320 -0.139 -0.061
0.232 -0.092 -0.044
0.239 -0.092 -0.045
0.357 -0.124 -0.067
0.359 -0.121 -0.067
0.364 -0.119 -0.068
0.370 -0.117 -0.069
0.374 -0.115 -0.070
0.380 -0.113 -0.071
0.387 -0.112 -0.072
0.396 -0.111 -0.074
0.407 -0.110 -0.076
0.413 -0.108 -0.077
0.419 -0.105 -0.078
0.421 -0.102 -0.078
0.426 -0.099 -0.079
0.428 -0.096 -0.079
0.408 -0.087 -0.076
0.392 -0.080 -0.073
0.377 -0.074 -0.070
0.371 -0.069 -0.069
0.288 -0.051 -0.053
0.288 -0.048 -0.053
0.286 -0.045 -0.053
0.285 -0.043 -0.053
0.285 -0.040 -0.053
0.284 -0.037 -0.052
0.283 -0.035 -0.052
0.286 -0.032 -0.053
0.299 -0.031 -0.055
0.302 -0.029 -0.056
0.308 -0.027 -0.057
0.308 -0.024 -0.057
0.315 -0.021 -0.058
0.297 -0.017 -0.055
0.313 -0.016 -0.058
0.316 -0.013 -0.058
0.300 -0.010 -0.055
0.303 -0.007 -0.056
0.305 -0.004 -0.056
0.307 -0.001 -0.056
0.310 0.001 -0.057
0.311 0.004 -0.057
0.314 0.007 -0.058
0.315 0.010 -0.058
0.317 0.013 -0.058
0.319 0.016 -0.059
0.320 0.019 -0.059
0.327 0.022 -0.060
0.317 0.024 -0.058
0.320 0.027 -0.059
0.320 0.030 -0.059
0.320 0.033 -0.059
0.322 0.036 -0.059
0.321 0.039 -0.059
0.322 0.042 -0.059
0.321 0.045 -0.059
0.328 0.049 -0.061
0.320 0.051 -0.059
0.322 0.054 -0.060
0.322 0.057 -0.060
0.321 0.060 -0.060
0.320 0.063 -0.059
0.319 0.066 -0.059
0.319 0.069 -0.059
0.318 0.071 -0.059
0.318 0.074 -0.059
0.318 0.077 -0.059
0.316 0.080 -0.059
0.313 0.082 -0.059
0.314 0.085 -0.059
0.317 0.089 -0.059
0.307 0.089 -0.057
0.314 0.094 -0.059
0.318 0.098 -0.060
0.325 0.104 -0.061
0.303 0.100 -0.057
0.305 0.103 -0.058
0.299 0.104 -0.056
0.295 0.106 -0.056
0.305 0.112 -0.058
0.338 0.131 -0.064
0.351 0.161 -0.068
0.346 0.162 -0.067
0.349 0.194 -0.068
0.362 0.205 -0.071
0.350 0.203 -0.069
0.338 0.199 -0.067
0.341 0.205 -0.068
0.336 0.206 -0.067
0.352 0.228 -0.070
0.336 0.222 -0.068
0.340 0.228 -0.068
0.351 0.240 -0.071
0.361 0.284 -0.075
0.362 0.290 -0.075
0.237 -0.328 -0.054
0.245 -0.334 -0.056
0.249 -0.336 -0.057
0.249 -0.331 -0.056
0.251 -0.330 -0.057
0.257 -0.333 -0.058
0.264 -0.337 -0.059
0.266 -0.335 -0.059
0.268 -0.332 -0.059
0.274 -0.336 -0.060
0.277 -0.334 -0.061
0.291 -0.346 -0.063
0.293 -0.343 -0.064
0.292 -0.332 -0.063
0.294 -0.329 -0.063
0.296 -0.326 -0.063
0.301 -0.327 -0.064
0.304 -0.326 -0.064
0.308 -0.324 -0.065
0.305 -0.317 -0.064
0.306 -0.313 -0.064
0.307 -0.309 -0.064
0.305 -0.303 -0.063
0.306 -0.298 -0.063
0.307 -0.295 -0.063
0.309 -0.292 -0.063
0.310 -0.289 -0.063
0.311 -0.285 -0.063
0.311 -0.281 -0.063
0.312 -0.277 -0.062
0.311 -0.272 -0.062
0.310 -0.266 -0.062
0.312 -0.265 -0.062
0.311 -0.259 -0.061
0.309 -0.253 -0.061
0.309 -0.250 -0.061
0.311 -0.247 -0.061
0.308 -0.240 -0.060
0.307 -0.236 -0.060
0.305 -0.231 -0.059
0.232 -0.167 -0.045
0.219 -0.155 -0.042
0.213 -0.148 -0.041
0.215 -0.147 -0.041
0.223 -0.150 -0.042
0.206 -0.136 -0.039
0.202 -0.131 -0.038
0.203 -0.129 -0.038
0.203 -0.127 -0.038
0.204 -0.125 -0.038
0.205 -0.124 -0.038
0.204 -0.121 -0.038
0.201 -0.117 -0.037
0.206 -0.117 -0.038
0.217 -0.121 -0.040
0.207 -0.113 -0.038
0.204 -0.110 -0.038
0.206 -0.108 -0.038
0.207 -0.107 -0.038
0.233 -0.118 -0.043
0.238 -0.118 -0.043
0.242 -0.118 -0.044
0.243 -0.115 -0.044
0.238 -0.111 -0.043
0.221 -0.089 -0.040
0.217 -0.086 -0.039
0.212 -0.081 -0.038
0.278 -0.099 -0.050
0.349 -0.121 -0.062
0.360 -0.121 -0.064
0.366 -0.119 -0.065
0.369 -0.117 -0.066
0.377 -0.116 -0.067
0.382 -0.114 -0.068
0.388 -0.112 -0.069
0.397 -0.111 -0.070
0.404 -0.109 -0.072
0.414 -0.108 -0.073
0.420 -0.105 -0.074
0.423 -0.102 -0.075
0.429 -0.100 -0.076
0.433 -0.097 -0.076
0.389 -0.080 -0.068
0.384 -0.075 -0.068
0.368 -0.068 -0.065
0.285 -0.050 -0.050
0.284 -0.048 -0.050
0.281 -0.045 -0.049
0.283 -0.042 -0.050
0.284 -0.040 -0.050
0.284 -0.037 -0.050
0.281 -0.034 -0.049
0.287 -0.032 -0.050
0.296 -0.031 -0.052
0.311 -0.027 -0.055
0.312 -0.024 -0.055
0.304 -0.021 -0.053
0.302 -0.018 -0.053
0.309 -0.015 -0.054
0.308 -0.013 -0.054
0.301 -0.010 -0.053
0.302 -0.007 -0.053
0.306 -0.004 -0.054
0.307 -0.001 -0.054
0.309 0.001 -0.054
0.313 0.004 -0.055
0.315 0.007 -0.055
0.316 0.010 -0.055
0.317 0.013 -0.055
0.320 0.016 -0.056
0.320 0.019 -0.056
0.317 0.021 -0.056
0.318 0.024 -0.056
0.319 0.027 -0.056
0.319 0.030 -0.056
0.319 0.033 -0.056
0.318 0.036 -0.056
0.321 0.039 -0.056
0.322 0.042 -0.057
0.323 0.045 -0.057
0.321 0.048 -0.056
0.330 0.052 -0.058
0.321 0.054 -0.057
0.322 0.057 -0.057
0.322 0.060 -0.057
0.320 0.063 -0.057
0.321 0.066 -0.057
0.320 0.069 -0.056
0.319 0.071 -0.056
0.318 0.074 -0.056
0.317 0.077 -0.056
0.315 0.079 -0.056
0.314 0.082 -0.056
0.314 0.085 -0.056
0.321 0.090 -0.057
0.314 0.091 -0.056
0.306 0.092 -0.055
0.328 0.101 -0.059
0.329 0.105 -0.059
0.321 0.106 -0.058
0.308 0.104 -0.055
0.305 0.106 -0.055
0.291 0.104 -0.052
0.324 0.122 -0.058
0.324 0.126 -0.059
0.338 0.155 -0.062
0.333 0.156 -0.061
0.340 0.181 -0.063
0.341 0.186 -0.063
0.345 0.192 -0.064
0.360 0.204 -0.067
0.350 0.202 -0.066
0.325 0.192 -0.061
0.323 0.194 -0.061
0.329 0.201 -0.062
0.330 0.214 -0.063
0.336 0.221 -0.064
0.334 0.224 -0.064
0.344 0.235 -0.066
0.344 0.239 -0.066
0.351 0.249 -0.068
0.349 0.252 -0.068
0.356 0.280 -0.070
0.239 -0.331 -0.052
0.245 -0.334 -0.053
0.248 -0.334 -0.053
0.250 -0.333 -0.054
0.249 -0.326 -0.053
0.262 -0.339 -0.056
0.268 -0.342 -0.057
0.265 -0.334 -0.056
0.267 -0.331 -0.056
0.270 -0.330 -0.056
0.277 -0.333 -0.057
0.282 -0.335 -0.058
0.283 -0.317 -0.057
0.288 -0.308 -0.058
0.293 -0.309 -0.058
0.297 -0.307 -0.059
0.301 -0.308 -0.059
0.305 -0.306 -0.060
0.307 -0.304 -0.060
0.306 -0.299 -0.060
0.308 -0.296 -0.060
0.310 -0.293 -0.060
0.311 -0.289 -0.060
0.312 -0.286 -0.060
0.313 -0.282 -0.060
0.313 -0.278 -0.059
0.314 -0.274 -0.059
0.315 -0.271 -0.059
0.316 -0.267 -0.059
0.316 -0.264 -0.059
0.312 -0.255 -0.058
0.311 -0.251 -0.058
0.309 -0.246 -0.057
0.308 -0.241 -0.057
0.299 -0.230 -0.055
0.294 -0.222 -0.054
0.233 -0.167 -0.042
0.223 -0.158 -0.040
0.210 -0.146 -0.038
0.213 -0.145 -0.038
0.215 -0.145 -0.039
0.216 -0.143 -0.039
0.203 -0.132 -0.036
0.203 -0.129 -0.036
0.204 -0.128 -0.036
0.205 -0.126 -0.036
0.216 -0.130 -0.038
0.214 -0.126 -0.038
0.214 -0.124 -0.038
0.217 -0.124 -0.038
0.219 -0.122 -0.038
0.221 -0.121 -0.039
0.223 -0.120 -0.039
0.223 -0.118 -0.039
0.224 -0.116 -0.039
0.227 -0.115 -0.039
0.226 -0.112 -0.039
0.225 -0.109 -0.039
0.226 -0.107 -0.039
0.225 -0.105 -0.039
0.216 -0.098 -0.037
0.215 -0.095 -0.037
0.226 -0.098 -0.039
0.217 -0.090 -0.037
0.213 -0.086 -0.036
0.209 -0.082 -0.036
0.207 -0.079 -0.035
0.218 -0.082 -0.037
0.353 -0.119 -0.060
0.365 -0.119 -0.062
0.370 -0.117 -0.062
0.376 -0.116 -0.063
0.383 -0.114 -0.065
0.391 -0.113 -0.066
0.398 -0.111 -0.067
0.402 -0.108 -0.067
0.412 -0.107 -0.069
0.419 -0.105 -0.070
0.426 -0.103 -0.071
0.434 -0.101 -0.073
0.421 -0.094 -0.070
0.403 -0.086 -0.067
0.388 -0.079 -0.065
0.374 -0.073 -0.062
0.285 -0.050 -0.048
0.278 -0.047 -0.046
0.279 -0.044 -0.046
0.283 -0.042 -0.047
0.285 -0.040 -0.047
0.279 -0.037 -0.046
0.282 -0.034 -0.047
0.290 -0.033 -0.048
0.297 -0.031 -0.049
0.304 -0.029 -0.051
0.308 -0.027 -0.051
0.304 -0.023 -0.050
0.301 -0.020 -0.050
0.303 -0.018 -0.050
0.308 -0.015 -0.051
0.306 -0.012 -0.051
0.303 -0.010 -0.050
0.303 -0.007 -0.050
0.306 -0.004 -0.051
0.308 -0.001 -0.051
0.310 0.001 -0.051
0.313 0.004 -0.052
0.315 0.007 -0.052
0.317 0.010 -0.053
0.317 0.013 -0.053
0.322 0.016 -0.053
0.317 0.019 -0.053
0.318 0.021 -0.053
0.317 0.024 -0.053
0.317 0.027 -0.053
