VERSION .7
FIELDS x y z
SIZE 4 4 4
TYPE F F F
COUNT 1 1 1
WIDTH     2556
HEIGHT 1
VIEWPOINT 0 0 0 1 0 0 0
POINTS     2556
DATA ascii
0.193 -0.238 -0.002
0.189 -0.230 -0.002
0.192 -0.229 -0.002
0.194 -0.228 -0.002
0.195 -0.227 -0.002
0.197 -0.226 -0.002
0.199 -0.224 -0.003
0.201 -0.223 -0.003
0.203 -0.222 -0.003
0.205 -0.220 -0.003
0.207 -0.220 -0.003
0.209 -0.219 -0.003
0.212 -0.218 -0.003
0.214 -0.217 -0.003
0.217 -0.217 -0.003
0.219 -0.216 -0.003
0.221 -0.214 -0.003
0.224 -0.213 -0.003
0.227 -0.213 -0.003
0.229 -0.211 -0.003
0.231 -0.210 -0.003
0.233 -0.209 -0.003
0.236 -0.208 -0.003
0.240 -0.208 -0.003
0.242 -0.206 -0.003
0.245 -0.206 -0.003
0.247 -0.205 -0.003
0.249 -0.203 -0.003
0.244 -0.195 -0.003
0.223 -0.175 -0.003
0.216 -0.167 -0.003
0.211 -0.161 -0.003
0.211 -0.158 -0.003
0.206 -0.152 -0.003
0.205 -0.149 -0.003
0.209 -0.150 -0.003
0.211 -0.148 -0.003
0.211 -0.145 -0.003
0.209 -0.142 -0.003
0.203 -0.135 -0.003
0.212 -0.139 -0.003
0.215 -0.139 -0.003
0.222 -0.140 -0.003
0.224 -0.139 -0.003
0.226 -0.138 -0.003
0.226 -0.135 -0.003
0.223 -0.131 -0.003
0.225 -0.130 -0.003
0.214 -0.121 -0.003
0.216 -0.120 -0.003
0.214 -0.117 -0.003
0.201 -0.108 -0.003
0.202 -0.106 -0.003
0.210 -0.108 -0.003
0.212 -0.106 -0.003
0.200 -0.098 -0.002
0.209 -0.101 -0.003
0.209 -0.099 -0.003
0.213 -0.099 -0.003
0.219 -0.099 -0.003
0.223 -0.098 -0.003
0.224 -0.097 -0.003
0.226 -0.095 -0.003
0.224 -0.092 -0.003
0.224 -0.090 -0.003
0.222 -0.087 -0.003
0.219 -0.084 -0.003
0.213 -0.079 -0.003
0.229 -0.083 -0.003
0.234 -0.083 -0.003
0.234 -0.081 -0.003
0.238 -0.080 -0.003
0.241 -0.078 -0.003
0.264 -0.083 -0.003
0.268 -0.082 -0.003
0.272 -0.081 -0.003
0.288 -0.083 -0.004
0.388 -0.108 -0.005
0.399 -0.107 -0.005
0.405 -0.105 -0.005
0.411 -0.103 -0.005
0.420 -0.101 -0.005
0.420 -0.097 -0.005
0.414 -0.092 -0.005
0.396 -0.084 -0.005
0.402 -0.082 -0.005
0.404 -0.079 -0.005
0.299 -0.053 -0.004
0.283 -0.047 -0.004
0.282 -0.045 -0.004
0.281 -0.042 -0.003
0.286 -0.040 -0.004
0.292 -0.038 -0.004
0.292 -0.036 -0.004
0.292 -0.033 -0.004
0.283 -0.029 -0.004
0.288 -0.027 -0.004
0.296 -0.025 -0.004
0.305 -0.023 -0.004
0.315 -0.021 -0.004
0.313 -0.018 -0.004
0.305 -0.015 -0.004
0.308 -0.013 -0.004
0.300 -0.010 -0.004
0.305 -0.007 -0.004
0.308 -0.004 -0.004
0.310 -0.001 -0.004
0.301 0.001 -0.004
0.303 0.004 -0.004
0.307 0.007 -0.004
0.306 0.010 -0.004
0.308 0.012 -0.004
0.309 0.015 -0.004
0.310 0.018 -0.004
0.311 0.021 -0.004
0.313 0.024 -0.004
0.314 0.027 -0.004
0.315 0.030 -0.004
0.314 0.032 -0.004
0.315 0.035 -0.004
0.315 0.038 -0.004
0.315 0.041 -0.004
0.316 0.044 -0.004
0.317 0.047 -0.004
0.316 0.050 -0.004
0.316 0.053 -0.004
0.317 0.056 -0.004
0.316 0.059 -0.004
0.316 0.061 -0.004
0.315 0.064 -0.004
0.314 0.067 -0.004
0.313 0.070 -0.004
0.312 0.072 -0.004
0.310 0.075 -0.004
0.314 0.079 -0.004
0.323 0.084 -0.004
0.319 0.086 -0.004
0.316 0.088 -0.004
0.315 0.091 -0.004
0.310 0.092 -0.004
0.320 0.101 -0.004
0.304 0.099 -0.004
0.300 0.101 -0.004
0.309 0.107 -0.004
0.318 0.113 -0.004
0.324 0.118 -0.004
0.335 0.126 -0.004
0.332 0.128 -0.004
0.327 0.129 -0.004
0.343 0.139 -0.004
0.346 0.143 -0.004
0.342 0.145 -0.004
0.333 0.145 -0.004
0.334 0.149 -0.004
0.316 0.151 -0.004
0.311 0.165 -0.004
0.330 0.178 -0.004
0.332 0.183 -0.004
0.326 0.184 -0.004
0.323 0.185 -0.004
0.331 0.194 -0.004
0.327 0.195 -0.004
0.324 0.197 -0.004
0.322 0.199 -0.004
0.319 0.201 -0.004
0.317 0.203 -0.004
0.315 0.206 -0.004
0.314 0.209 -0.004
0.307 0.208 -0.004
0.310 0.214 -0.004
0.309 0.217 -0.004
1.316 1.009 -0.017
1.307 1.019 -0.017
1.312 1.040 -0.017
1.315 1.060 -0.017
1.320 1.083 -0.017
1.312 1.094 -0.017
1.315 1.115 -0.017
1.311 1.131 -0.017
1.323 1.240 -0.017
1.322 1.260 -0.017
1.322 1.281 -0.017
1.327 1.306 -0.017
0.502 0.583 -0.006
0.504 0.595 -0.006
0.500 0.600 -0.006
0.490 0.597 -0.006
0.300 0.390 -0.004
0.161 -0.222 -0.000
0.170 -0.231 -0.000
0.173 -0.232 -0.000
0.177 -0.234 -0.000
0.181 -0.237 -0.000
0.187 -0.240 -0.000
0.190 -0.241 -0.000
0.190 -0.238 -0.000
0.187 -0.230 -0.000
0.189 -0.229 -0.000
0.191 -0.229 -0.000
0.194 -0.228 -0.000
0.196 -0.227 -0.000
0.197 -0.226 -0.000
0.199 -0.225 -0.000
0.201 -0.223 -0.000
0.203 -0.222 -0.000
0.204 -0.220 -0.000
0.207 -0.219 -0.000
0.209 -0.219 -0.000
0.211 -0.218 -0.000
0.214 -0.217 -0.000
0.216 -0.216 -0.000
0.219 -0.215 -0.000
0.222 -0.215 -0.000
0.224 -0.214 -0.000
0.227 -0.213 -0.000
0.228 -0.211 -0.001
0.230 -0.209 -0.001
0.234 -0.209 -0.001
0.238 -0.210 -0.001
0.241 -0.209 -0.001
0.243 -0.208 -0.001
0.245 -0.206 -0.001
0.247 -0.204 -0.001
0.249 -0.203 -0.001
0.247 -0.198 -0.001
0.235 -0.186 -0.001
0.216 -0.167 -0.001
0.216 -0.165 -0.001
0.216 -0.162 -0.001
0.206 -0.152 -0.001
0.207 -0.151 -0.001
0.207 -0.148 -0.001
0.211 -0.148 -0.001
0.214 -0.148 -0.001
0.212 -0.144 -0.001
0.203 -0.136 -0.001
0.212 -0.139 -0.001
0.217 -0.140 -0.001
0.220 -0.139 -0.001
0.220 -0.137 -0.001
0.223 -0.136 -0.001
0.226 -0.135 -0.001
0.224 -0.132 -0.001
0.222 -0.128 -0.001
0.222 -0.126 -0.001
0.217 -0.121 -0.001
0.216 -0.117 -0.001
0.214 -0.114 -0.001
0.213 -0.112 -0.001
0.212 -0.109 -0.001
0.212 -0.107 -0.001
0.211 -0.104 -0.001
0.208 -0.101 -0.001
0.212 -0.100 -0.001
0.215 -0.100 -0.001
0.219 -0.099 -0.001
0.221 -0.098 -0.001
0.223 -0.096 -0.001
0.224 -0.095 -0.001
0.224 -0.092 -0.001
0.221 -0.089 -0.001
0.222 -0.087 -0.001
0.217 -0.083 -0.001
0.217 -0.081 -0.001
0.225 -0.082 -0.001
0.230 -0.081 -0.001
0.232 -0.080 -0.001
0.235 -0.079 -0.001
0.238 -0.077 -0.001
0.245 -0.077 -0.001
0.253 -0.077 -0.001
0.265 -0.078 -0.001
0.268 -0.077 -0.001
0.384 -0.107 -0.001
0.395 -0.106 -0.001
0.405 -0.105 -0.001
0.413 -0.103 -0.001
0.421 -0.101 -0.001
0.426 -0.099 -0.001
0.423 -0.094 -0.001
0.387 -0.082 -0.001
0.380 -0.077 -0.001
0.376 -0.073 -0.001
0.366 -0.068 -0.001
0.298 -0.053 -0.001
0.287 -0.048 -0.001
0.289 -0.046 -0.001
0.287 -0.043 -0.001
0.286 -0.040 -0.001
0.286 -0.037 -0.001
0.295 -0.036 -0.001
0.293 -0.033 -0.001
0.286 -0.030 -0.001
0.288 -0.027 -0.001
0.286 -0.024 -0.001
0.299 -0.023 -0.001
0.317 -0.021 -0.001
0.314 -0.018 -0.001
0.324 -0.016 -0.001
0.315 -0.013 -0.001
0.305 -0.010 -0.001
0.288 -0.007 -0.001
0.301 -0.004 -0.001
0.315 -0.002 -0.001
0.308 0.001 -0.001
0.302 0.004 -0.001
0.303 0.007 -0.001
0.304 0.009 -0.001
0.307 0.012 -0.001
0.308 0.015 -0.001
0.309 0.018 -0.001
0.311 0.021 -0.001
0.312 0.024 -0.001
0.314 0.027 -0.001
0.313 0.030 -0.001
0.314 0.032 -0.001
0.313 0.035 -0.001
0.313 0.038 -0.001
0.313 0.041 -0.001
0.314 0.044 -0.001
0.316 0.047 -0.001
0.317 0.050 -0.001
0.315 0.053 -0.001
0.315 0.055 -0.001
0.315 0.058 -0.001
0.314 0.061 -0.001
0.314 0.064 -0.001
0.314 0.067 -0.001
0.313 0.070 -0.001
0.310 0.072 -0.001
0.311 0.075 -0.001
0.322 0.081 -0.001
0.318 0.083 -0.001
0.315 0.085 -0.001
0.318 0.089 -0.001
0.318 0.092 -0.001
0.320 0.095 -0.001
0.325 0.100 -0.001
0.315 0.100 -0.001
0.308 0.101 -0.001
0.308 0.104 -0.001
0.311 0.107 -0.001
0.315 0.112 -0.001
0.318 0.116 -0.001
0.328 0.123 -0.001
0.330 0.127 -0.001
0.335 0.132 -0.001
0.336 0.136 -0.001
0.350 0.149 -0.001
0.354 0.154 -0.001
0.351 0.156 -0.001
0.305 0.152 -0.001
0.332 0.183 -0.001
0.323 0.182 -0.001
0.331 0.190 -0.001
0.329 0.192 -0.001
0.326 0.195 -0.001
0.324 0.197 -0.001
0.323 0.200 -0.001
0.320 0.202 -0.001
0.317 0.203 -0.001
0.315 0.206 -0.001
0.313 0.209 -0.001
0.312 0.212 -0.001
0.310 0.214 -0.001
0.309 0.217 -0.001
1.321 1.012 -0.004
1.316 1.026 -0.003
1.301 1.032 -0.003
1.315 1.060 -0.003
1.321 1.084 -0.003
1.319 1.100 -0.003
1.307 1.109 -0.003
1.316 1.135 -0.003
1.309 1.147 -0.003
1.291 1.151 -0.003
1.288 1.168 -0.003
1.304 1.202 -0.003
1.316 1.233 -0.003
1.322 1.259 -0.003
1.326 1.284 -0.003
1.339 1.319 -0.003
1.348 1.349 -0.003
1.339 1.363 -0.003
1.343 1.390 -0.002
1.350 1.420 -0.002
0.486 0.538 -0.001
0.497 0.587 -0.001
0.491 0.589 -0.001
0.360 0.454 -0.000
0.354 0.452 -0.000
0.358 0.465 -0.000
0.172 -0.237 0.002
0.169 -0.230 0.002
0.176 -0.236 0.002
0.181 -0.239 0.002
0.185 -0.242 0.002
0.189 -0.243 0.002
0.189 -0.240 0.002
0.187 -0.234 0.002
0.187 -0.231 0.002
0.189 -0.229 0.002
0.191 -0.229 0.002
0.193 -0.228 0.002
0.195 -0.227 0.002
0.197 -0.225 0.002
0.200 -0.225 0.002
0.201 -0.224 0.002
0.202 -0.221 0.002
0.204 -0.220 0.002
0.207 -0.220 0.002
0.210 -0.219 0.002
0.212 -0.218 0.002
0.214 -0.217 0.002
0.216 -0.215 0.002
0.219 -0.215 0.002
0.222 -0.214 0.002
0.224 -0.213 0.002
0.226 -0.212 0.002
0.228 -0.211 0.002
0.230 -0.209 0.002
0.235 -0.211 0.002
0.237 -0.209 0.002
0.241 -0.209 0.002
0.243 -0.208 0.002
0.245 -0.206 0.002
0.247 -0.204 0.002
0.249 -0.203 0.002
0.247 -0.198 0.002
0.239 -0.189 0.002
0.223 -0.173 0.002
0.223 -0.170 0.002
0.222 -0.166 0.002
0.213 -0.157 0.002
0.210 -0.152 0.002
0.213 -0.152 0.002
0.213 -0.149 0.001
0.215 -0.148 0.002
0.214 -0.145 0.001
0.208 -0.139 0.001
0.194 -0.127 0.001
0.210 -0.135 0.001
0.212 -0.134 0.001
0.216 -0.134 0.001
0.213 -0.130 0.001
0.216 -0.129 0.001
0.221 -0.130 0.001
0.222 -0.128 0.001
0.220 -0.125 0.001
0.215 -0.119 0.001
0.214 -0.117 0.001
0.213 -0.114 0.001
0.203 -0.106 0.001
0.212 -0.109 0.001
0.212 -0.107 0.001
0.210 -0.103 0.001
0.210 -0.101 0.001
0.212 -0.100 0.001
0.215 -0.099 0.001
0.217 -0.098 0.001
0.219 -0.097 0.001
0.221 -0.095 0.001
0.223 -0.094 0.001
0.223 -0.092 0.001
0.220 -0.088 0.001
0.220 -0.086 0.001
0.213 -0.082 0.001
0.204 -0.076 0.001
0.252 -0.089 0.001
0.243 -0.084 0.001
0.249 -0.083 0.001
0.250 -0.081 0.001
0.253 -0.080 0.001
0.259 -0.079 0.002
0.262 -0.078 0.002
0.264 -0.076 0.002
0.397 -0.107 0.002
0.402 -0.104 0.002
0.413 -0.103 0.002
0.424 -0.102 0.002
0.432 -0.100 0.002
0.424 -0.094 0.002
0.385 -0.082 0.002
0.373 -0.076 0.002
0.376 -0.073 0.002
0.372 -0.069 0.002
0.292 -0.051 0.002
0.290 -0.048 0.002
0.286 -0.045 0.002
0.286 -0.043 0.002
0.287 -0.040 0.002
0.291 -0.038 0.002
0.292 -0.036 0.002
0.290 -0.033 0.002
0.291 -0.030 0.002
0.288 -0.027 0.002
0.289 -0.025 0.002
0.293 -0.022 0.002
0.324 -0.016 0.002
0.318 -0.013 0.002
0.314 -0.010 0.002
0.308 -0.007 0.002
0.292 -0.004 0.002
0.306 -0.001 0.002
0.316 0.001 0.002
0.313 0.004 0.002
0.303 0.007 0.002
0.303 0.009 0.002
0.304 0.012 0.002
0.307 0.015 0.002
0.308 0.018 0.002
0.309 0.021 0.002
0.311 0.024 0.002
0.311 0.026 0.002
0.313 0.029 0.002
0.313 0.032 0.002
0.312 0.035 0.002
0.311 0.038 0.002
0.312 0.041 0.002
0.313 0.044 0.002
0.315 0.047 0.002
0.316 0.050 0.002
0.314 0.052 0.002
0.313 0.055 0.002
0.313 0.058 0.002
0.313 0.061 0.002
0.313 0.064 0.002
0.314 0.067 0.002
0.312 0.069 0.002
0.310 0.072 0.002
0.319 0.077 0.002
0.313 0.078 0.002
0.315 0.082 0.002
0.322 0.087 0.002
0.320 0.089 0.002
0.323 0.093 0.002
0.329 0.098 0.002
0.325 0.100 0.002
0.318 0.101 0.002
0.311 0.102 0.002
0.315 0.106 0.002
0.323 0.112 0.002
0.318 0.113 0.002
0.316 0.115 0.002
0.320 0.120 0.002
0.327 0.126 0.002
0.338 0.134 0.002
0.347 0.141 0.002
0.350 0.145 0.002
0.355 0.155 0.002
0.323 0.154 0.002
0.322 0.160 0.002
0.320 0.163 0.002
0.317 0.168 0.002
0.331 0.183 0.002
0.345 0.194 0.002
0.334 0.192 0.002
0.328 0.192 0.002
0.326 0.194 0.002
0.324 0.197 0.002
0.322 0.199 0.002
0.319 0.201 0.002
0.317 0.204 0.002
0.316 0.206 0.002
0.314 0.209 0.002
0.312 0.211 0.002
0.310 0.214 0.002
0.308 0.217 0.002
1.323 1.014 0.010
1.314 1.024 0.010
1.312 1.040 0.010
1.314 1.059 0.010
1.335 1.095 0.010
1.329 1.108 0.010
1.322 1.121 0.010
1.318 1.137 0.011
1.308 1.147 0.011
1.308 1.167 0.011
1.336 1.252 0.011
1.331 1.268 0.011
1.328 1.287 0.012
1.352 1.332 0.012
1.350 1.352 0.012
1.348 1.372 0.012
1.342 1.389 0.012
0.372 0.440 0.004
0.366 0.439 0.004
0.354 0.432 0.004
0.357 0.442 0.004
0.356 0.448 0.004
0.354 0.453 0.004
0.347 0.451 0.004
0.155 -0.213 0.004
0.174 -0.236 0.004
0.178 -0.239 0.004
0.182 -0.240 0.004
0.185 -0.242 0.004
0.188 -0.242 0.004
0.186 -0.236 0.004
0.186 -0.233 0.004
0.188 -0.232 0.004
0.189 -0.229 0.004
0.191 -0.228 0.004
0.193 -0.227 0.004
0.194 -0.226 0.004
0.197 -0.225 0.004
0.200 -0.225 0.004
0.201 -0.223 0.004
0.203 -0.222 0.004
0.205 -0.221 0.004
0.208 -0.221 0.004
0.210 -0.220 0.004
0.213 -0.219 0.004
0.213 -0.216 0.004
0.215 -0.215 0.004
0.218 -0.214 0.004
0.221 -0.214 0.004
0.223 -0.213 0.004
0.226 -0.212 0.004
0.228 -0.211 0.004
0.232 -0.211 0.004
0.235 -0.210 0.004
0.238 -0.210 0.004
0.240 -0.208 0.004
0.243 -0.207 0.004
0.245 -0.206 0.004
0.247 -0.204 0.004
0.249 -0.203 0.004
0.246 -0.197 0.004
0.237 -0.187 0.004
0.226 -0.175 0.004
0.221 -0.169 0.004
0.220 -0.165 0.004
0.217 -0.160 0.004
0.214 -0.155 0.004
0.212 -0.152 0.004
0.214 -0.150 0.004
0.215 -0.149 0.004
0.213 -0.145 0.004
0.208 -0.139 0.003
0.207 -0.135 0.003
0.204 -0.131 0.003
0.206 -0.130 0.003
0.215 -0.133 0.004
0.218 -0.133 0.004
0.214 -0.128 0.003
0.214 -0.126 0.003
0.218 -0.126 0.004
0.217 -0.123 0.003
0.213 -0.118 0.003
0.213 -0.116 0.003
0.214 -0.114 0.003
0.207 -0.109 0.003
0.202 -0.104 0.003
0.211 -0.106 0.003
0.209 -0.103 0.003
0.208 -0.100 0.003
0.203 -0.096 0.003
0.203 -0.094 0.003
0.216 -0.098 0.003
0.221 -0.097 0.003
0.222 -0.096 0.003
0.222 -0.094 0.003
0.222 -0.091 0.003
0.227 -0.091 0.003
0.209 -0.082 0.003
0.220 -0.084 0.003
0.219 -0.082 0.003
0.232 -0.084 0.004
0.237 -0.084 0.004
0.232 -0.080 0.003
0.239 -0.080 0.004
0.251 -0.082 0.004
0.258 -0.081 0.004
0.268 -0.082 0.004
0.271 -0.080 0.004
0.269 -0.077 0.004
0.399 -0.107 0.006
0.401 -0.104 0.006
0.407 -0.102 0.006
0.423 -0.102 0.006
0.430 -0.099 0.006
0.425 -0.094 0.006
0.387 -0.082 0.006
0.374 -0.076 0.006
0.375 -0.073 0.006
0.361 -0.067 0.005
0.299 -0.053 0.004
0.285 -0.048 0.004
0.283 -0.045 0.004
0.283 -0.042 0.004
0.285 -0.040 0.004
0.288 -0.038 0.004
0.288 -0.035 0.004
0.289 -0.033 0.004
0.286 -0.030 0.004
0.289 -0.027 0.004
0.289 -0.025 0.004
0.292 -0.022 0.004
0.311 -0.021 0.005
0.320 -0.016 0.005
0.322 -0.013 0.005
0.315 -0.010 0.005
0.305 -0.007 0.004
0.299 -0.004 0.004
0.300 -0.001 0.004
0.306 0.001 0.004
0.311 0.004 0.005
0.309 0.007 0.004
0.303 0.009 0.004
0.302 0.012 0.004
0.304 0.015 0.004
0.307 0.018 0.004
0.307 0.021 0.004
0.307 0.023 0.004
0.310 0.026 0.005
0.311 0.029 0.005
0.312 0.032 0.005
0.311 0.035 0.005
0.311 0.038 0.005
0.311 0.041 0.005
0.312 0.044 0.005
0.313 0.047 0.005
0.314 0.050 0.005
0.313 0.052 0.005
0.311 0.055 0.005
0.312 0.058 0.005
0.311 0.061 0.005
0.309 0.063 0.005
0.312 0.066 0.005
0.313 0.070 0.005
0.328 0.076 0.005
0.317 0.076 0.005
0.313 0.078 0.005
0.317 0.082 0.005
0.323 0.087 0.005
0.318 0.089 0.005
0.324 0.093 0.005
0.328 0.097 0.005
0.320 0.098 0.005
0.312 0.099 0.005
0.319 0.104 0.005
0.322 0.108 0.005
0.333 0.115 0.005
0.331 0.121 0.005
0.320 0.120 0.005
0.326 0.126 0.005
0.340 0.134 0.005
0.346 0.140 0.005
0.358 0.148 0.006
0.356 0.151 0.005
0.353 0.154 0.005
0.339 0.151 0.005
0.320 0.149 0.005
0.326 0.155 0.005
0.331 0.161 0.005
0.322 0.164 0.005
0.342 0.177 0.005
0.340 0.188 0.005
0.339 0.191 0.005
0.331 0.190 0.005
0.329 0.192 0.005
0.325 0.194 0.005
0.323 0.196 0.005
0.321 0.199 0.005
0.319 0.201 0.005
0.317 0.204 0.005
0.316 0.207 0.005
0.313 0.209 0.005
0.312 0.211 0.005
0.310 0.214 0.005
0.308 0.216 0.005
1.313 1.042 0.023
1.330 1.073 0.024
1.339 1.099 0.024
1.337 1.134 0.024
1.325 1.143 0.024
1.330 1.186 0.025
1.339 1.234 0.025
1.343 1.279 0.026
1.324 1.283 0.026
1.353 1.377 0.027
1.343 1.391 0.027
0.370 0.422 0.008
0.362 0.420 0.008
0.362 0.427 0.008
0.357 0.428 0.008
0.361 0.441 0.008
0.357 0.442 0.008
0.356 0.448 0.008
0.415 0.539 0.010
0.169 -0.232 0.006
0.177 -0.240 0.006
0.181 -0.242 0.006
0.182 -0.241 0.006
0.179 -0.234 0.006
0.182 -0.234 0.006
0.185 -0.234 0.006
0.187 -0.233 0.006
0.188 -0.231 0.006
0.189 -0.230 0.006
0.190 -0.228 0.006
0.192 -0.227 0.006
0.194 -0.226 0.006
0.197 -0.225 0.006
0.199 -0.224 0.006
0.201 -0.223 0.006
0.203 -0.222 0.006
0.205 -0.221 0.006
0.207 -0.220 0.006
0.210 -0.219 0.006
0.212 -0.218 0.006
0.214 -0.217 0.006
0.215 -0.215 0.006
0.217 -0.213 0.007
0.220 -0.213 0.007
0.224 -0.213 0.007
0.226 -0.212 0.007
0.228 -0.211 0.007
0.231 -0.210 0.007
0.235 -0.211 0.007
0.237 -0.209 0.007
0.240 -0.208 0.007
0.242 -0.207 0.007
0.245 -0.206 0.007
0.247 -0.204 0.007
0.248 -0.202 0.007
0.249 -0.200 0.007
0.221 -0.171 0.006
0.213 -0.163 0.006
0.214 -0.161 0.006
0.214 -0.158 0.006
0.211 -0.153 0.006
0.208 -0.149 0.006
0.210 -0.148 0.006
0.212 -0.146 0.006
0.212 -0.144 0.006
0.210 -0.140 0.006
0.207 -0.136 0.005
0.206 -0.133 0.005
0.207 -0.131 0.005
0.212 -0.131 0.006
0.218 -0.133 0.006
0.215 -0.129 0.006
0.213 -0.125 0.005
0.214 -0.124 0.005
0.218 -0.124 0.006
0.213 -0.119 0.005
0.217 -0.118 0.006
0.216 -0.115 0.005
0.213 -0.111 0.005
0.217 -0.111 0.005
0.215 -0.108 0.005
0.213 -0.105 0.005
0.212 -0.102 0.005
0.210 -0.099 0.005
0.211 -0.098 0.005
0.215 -0.097 0.005
0.220 -0.097 0.005
0.223 -0.096 0.006
0.223 -0.094 0.005
0.223 -0.092 0.005
0.221 -0.089 0.005
0.222 -0.087 0.005
0.214 -0.082 0.005
0.228 -0.085 0.006
0.233 -0.084 0.006
0.234 -0.083 0.006
0.232 -0.080 0.006
0.233 -0.078 0.006
0.236 -0.077 0.006
0.247 -0.078 0.006
0.267 -0.082 0.006
0.275 -0.082 0.007
0.280 -0.080 0.007
0.398 -0.107 0.010
0.401 -0.104 0.010
0.408 -0.102 0.010
0.420 -0.101 0.010
0.423 -0.098 0.010
0.411 -0.091 0.010
0.383 -0.082 0.009
0.370 -0.075 0.009
0.370 -0.072 0.009
0.360 -0.067 0.009
0.283 -0.047 0.007
0.281 -0.044 0.007
0.281 -0.042 0.007
0.283 -0.040 0.007
0.284 -0.037 0.007
0.288 -0.035 0.007
0.288 -0.032 0.007
0.291 -0.030 0.007
0.288 -0.027 0.007
0.290 -0.025 0.007
0.293 -0.022 0.007
0.290 -0.020 0.007
0.287 -0.017 0.007
0.301 -0.015 0.007
0.329 -0.013 0.008
0.317 -0.010 0.007
0.303 -0.007 0.007
0.303 -0.004 0.007
0.300 -0.001 0.007
0.301 0.001 0.007
0.301 0.004 0.007
0.305 0.007 0.007
0.313 0.010 0.007
0.302 0.012 0.007
0.302 0.015 0.007
0.305 0.018 0.007
0.305 0.020 0.007
0.305 0.023 0.007
0.308 0.026 0.007
0.309 0.029 0.007
0.309 0.032 0.007
0.310 0.035 0.007
0.310 0.038 0.007
0.310 0.040 0.007
0.310 0.043 0.007
0.311 0.046 0.007
0.312 0.049 0.007
0.311 0.052 0.007
0.310 0.055 0.007
0.309 0.057 0.007
0.308 0.060 0.007
0.308 0.063 0.007
0.315 0.067 0.008
0.324 0.072 0.008
0.319 0.074 0.008
0.326 0.079 0.008
0.329 0.082 0.008
0.330 0.086 0.008
0.316 0.085 0.008
0.320 0.089 0.008
0.327 0.094 0.008
0.336 0.100 0.008
0.310 0.095 0.008
0.296 0.094 0.007
0.346 0.116 0.008
0.347 0.120 0.008
0.321 0.114 0.008
0.330 0.121 0.008
0.325 0.122 0.008
0.323 0.124 0.008
0.334 0.132 0.008
0.339 0.138 0.008
0.361 0.150 0.009
0.364 0.155 0.009
0.350 0.152 0.009
0.347 0.155 0.009
0.339 0.154 0.008
0.329 0.153 0.008
0.329 0.157 0.008
0.335 0.163 0.008
0.332 0.165 0.008
0.331 0.168 0.008
0.345 0.179 0.009
0.332 0.180 0.009
0.327 0.181 0.008
0.325 0.183 0.008
0.330 0.190 0.009
0.328 0.192 0.009
0.326 0.195 0.008
0.324 0.197 0.008
0.321 0.199 0.008
0.320 0.202 0.008
0.318 0.204 0.008
0.314 0.206 0.008
0.313 0.208 0.008
0.311 0.211 0.008
0.309 0.213 0.008
0.308 0.217 0.008
0.308 0.220 0.008
0.362 0.400 0.012
0.361 0.406 0.012
0.362 0.413 0.012
0.360 0.419 0.012
0.171 -0.236 0.008
0.178 -0.241 0.008
0.180 -0.241 0.009
0.178 -0.236 0.008
0.179 -0.234 0.008
0.182 -0.234 0.008
0.184 -0.234 0.008
0.186 -0.233 0.008
0.187 -0.231 0.008
0.189 -0.229 0.008
0.190 -0.228 0.008
0.192 -0.227 0.009
0.195 -0.226 0.009
0.197 -0.225 0.009
0.198 -0.224 0.009
0.201 -0.223 0.009
0.203 -0.222 0.009
0.205 -0.221 0.009
0.206 -0.219 0.009
0.208 -0.218 0.009
0.211 -0.217 0.009
0.213 -0.216 0.009
0.215 -0.214 0.009
0.217 -0.214 0.009
0.220 -0.213 0.009
0.223 -0.212 0.009
0.226 -0.212 0.009
0.229 -0.211 0.009
0.231 -0.210 0.009
0.233 -0.209 0.009
0.237 -0.209 0.009
0.239 -0.208 0.009
0.242 -0.207 0.009
0.245 -0.206 0.009
0.247 -0.205 0.009
0.249 -0.203 0.009
0.249 -0.199 0.009
0.217 -0.169 0.008
0.209 -0.160 0.008
0.208 -0.156 0.008
0.210 -0.155 0.008
0.211 -0.153 0.008
0.208 -0.149 0.008
0.208 -0.146 0.008
0.210 -0.145 0.008
0.207 -0.141 0.008
0.211 -0.141 0.008
0.210 -0.137 0.008
0.207 -0.133 0.007
0.207 -0.131 0.007
0.204 -0.127 0.007
0.214 -0.130 0.008
0.215 -0.129 0.008
0.214 -0.126 0.008
0.215 -0.124 0.008
0.219 -0.124 0.008
0.224 -0.124 0.008
0.219 -0.119 0.008
0.222 -0.119 0.008
0.203 -0.107 0.007
0.203 -0.104 0.007
0.205 -0.103 0.007
0.213 -0.105 0.007
0.205 -0.099 0.007
0.208 -0.098 0.007
0.206 -0.095 0.007
0.209 -0.094 0.007
0.218 -0.096 0.007
0.222 -0.096 0.008
0.223 -0.094 0.008
0.221 -0.091 0.007
0.219 -0.088 0.007
0.222 -0.087 0.007
0.211 -0.081 0.007
0.203 -0.076 0.007
0.234 -0.085 0.008
0.236 -0.083 0.008
0.234 -0.080 0.008
0.235 -0.078 0.008
0.240 -0.078 0.008
0.238 -0.075 0.008
0.249 -0.076 0.008
0.268 -0.080 0.009
0.284 -0.082 0.009
0.396 -0.106 0.013
0.402 -0.104 0.013
0.414 -0.103 0.014
0.420 -0.101 0.014
0.418 -0.097 0.014
0.404 -0.090 0.013
0.390 -0.083 0.013
0.375 -0.076 0.012
0.374 -0.073 0.012
0.369 -0.068 0.012
0.282 -0.047 0.009
0.281 -0.044 0.009
0.282 -0.042 0.009
0.282 -0.039 0.009
0.285 -0.037 0.009
0.287 -0.035 0.009
0.289 -0.033 0.009
0.288 -0.030 0.009
0.292 -0.028 0.010
0.292 -0.025 0.010
0.292 -0.022 0.009
0.289 -0.020 0.009
0.284 -0.017 0.009
0.286 -0.014 0.009
0.332 -0.013 0.011
0.304 -0.007 0.010
0.311 -0.004 0.010
0.309 -0.001 0.010
0.302 0.001 0.010
0.294 0.004 0.010
0.302 0.007 0.010
0.310 0.010 0.010
0.323 0.013 0.011
0.318 0.016 0.010
0.306 0.018 0.010
0.301 0.020 0.010
0.302 0.023 0.010
0.304 0.026 0.010
0.305 0.029 0.010
0.306 0.032 0.010
0.307 0.035 0.010
0.309 0.038 0.010
0.308 0.040 0.010
0.308 0.043 0.010
0.309 0.046 0.010
0.309 0.049 0.010
0.309 0.052 0.010
0.309 0.054 0.010
0.309 0.057 0.010
0.308 0.060 0.010
0.315 0.064 0.010
0.315 0.067 0.010
0.319 0.071 0.011
0.317 0.073 0.010
0.311 0.075 0.010
0.334 0.084 0.011
0.324 0.084 0.011
0.318 0.086 0.011
0.320 0.089 0.011
0.326 0.094 0.011
0.326 0.097 0.011
0.327 0.100 0.011
0.326 0.106 0.011
0.333 0.112 0.011
0.312 0.108 0.010
0.314 0.112 0.011
0.319 0.117 0.011
0.319 0.120 0.011
0.321 0.124 0.011
0.365 0.178 0.013
0.353 0.179 0.012
0.356 0.185 0.012
0.347 0.184 0.012
0.328 0.177 0.012
0.319 0.176 0.011
0.332 0.187 0.012
0.329 0.189 0.012
0.328 0.192 0.012
0.327 0.195 0.012
0.325 0.197 0.012
0.323 0.200 0.012
0.321 0.202 0.012
0.318 0.205 0.012
0.315 0.206 0.011
0.313 0.208 0.011
0.311 0.211 0.011
0.309 0.214 0.011
0.312 0.219 0.012
0.314 0.225 0.012
0.421 0.363 0.017
0.389 0.353 0.016
0.410 0.391 0.017
0.366 0.412 0.016
0.368 0.420 0.016
0.501 0.592 0.023
0.493 0.592 0.022
0.406 0.512 0.019
0.376 0.490 0.018
0.164 -0.226 0.010
0.177 -0.241 0.011
0.178 -0.239 0.011
0.178 -0.236 0.010
0.179 -0.234 0.010
0.181 -0.233 0.010
0.184 -0.234 0.011
0.185 -0.232 0.011
0.187 -0.230 0.011
0.188 -0.229 0.011
0.190 -0.228 0.011
0.192 -0.227 0.011
0.195 -0.227 0.011
0.197 -0.225 0.011
0.198 -0.224 0.011
0.201 -0.223 0.011
0.203 -0.222 0.011
0.205 -0.221 0.011
0.206 -0.219 0.011
0.208 -0.218 0.011
0.210 -0.217 0.011
0.212 -0.215 0.011
0.214 -0.214 0.011
0.218 -0.214 0.011
0.220 -0.214 0.011
0.223 -0.213 0.011
0.226 -0.212 0.011
0.229 -0.212 0.011
0.231 -0.210 0.012
0.233 -0.209 0.012
0.236 -0.208 0.012
0.239 -0.207 0.012
0.242 -0.207 0.012
0.245 -0.206 0.012
0.247 -0.205 0.012
0.248 -0.202 0.012
0.249 -0.200 0.012
0.242 -0.191 0.012
0.217 -0.169 0.010
0.208 -0.159 0.010
0.206 -0.154 0.010
0.206 -0.152 0.010
0.208 -0.151 0.010
0.208 -0.148 0.010
0.208 -0.146 0.010
0.211 -0.145 0.010
0.213 -0.145 0.010
0.213 -0.142 0.010
0.213 -0.140 0.010
0.211 -0.136 0.010
0.205 -0.130 0.009
0.209 -0.130 0.009
0.208 -0.127 0.009
0.213 -0.127 0.010
0.213 -0.125 0.010
0.214 -0.124 0.010
0.219 -0.124 0.010
0.221 -0.123 0.010
0.223 -0.121 0.010
0.222 -0.119 0.010
0.214 -0.112 0.009
0.204 -0.105 0.009
0.205 -0.103 0.009
0.210 -0.104 0.009
0.216 -0.104 0.009
0.204 -0.097 0.009
0.207 -0.096 0.009
0.207 -0.094 0.009
0.214 -0.095 0.009
0.220 -0.095 0.010
0.221 -0.093 0.010
0.218 -0.090 0.009
0.224 -0.090 0.010
0.220 -0.086 0.009
0.217 -0.083 0.009
0.203 -0.076 0.009
0.236 -0.086 0.010
0.238 -0.084 0.010
0.236 -0.081 0.010
0.240 -0.080 0.010
0.243 -0.079 0.010
0.246 -0.078 0.010
0.246 -0.075 0.010
0.254 -0.075 0.011
0.397 -0.106 0.017
0.403 -0.104 0.017
0.415 -0.104 0.017
0.421 -0.101 0.018
0.415 -0.096 0.017
0.405 -0.090 0.017
0.387 -0.082 0.016
0.379 -0.077 0.016
0.372 -0.072 0.016
0.368 -0.068 0.015
0.283 -0.047 0.012
0.283 -0.045 0.012
0.284 -0.042 0.012
0.283 -0.040 0.012
0.285 -0.037 0.012
0.288 -0.035 0.012
0.287 -0.032 0.012
0.286 -0.030 0.012
0.291 -0.028 0.012
0.292 -0.025 0.012
0.293 -0.022 0.012
0.291 -0.020 0.012
0.289 -0.017 0.012
0.294 -0.015 0.012
0.294 -0.012 0.012
0.310 -0.010 0.013
0.319 -0.007 0.013
0.310 -0.004 0.013
0.308 -0.001 0.013
0.308 0.001 0.013
0.308 0.004 0.013
0.306 0.007 0.013
0.312 0.010 0.013
0.315 0.013 0.013
0.323 0.016 0.013
0.313 0.018 0.013
0.312 0.021 0.013
0.303 0.023 0.013
0.303 0.026 0.013
0.303 0.029 0.013
0.304 0.031 0.013
0.305 0.034 0.013
0.306 0.037 0.013
0.305 0.040 0.013
0.306 0.043 0.013
0.309 0.046 0.013
0.307 0.049 0.013
0.308 0.051 0.013
0.311 0.055 0.013
0.326 0.060 0.014
0.323 0.063 0.014
0.316 0.064 0.013
0.313 0.067 0.013
0.314 0.070 0.013
0.319 0.074 0.013
0.314 0.076 0.013
0.304 0.076 0.013
0.309 0.080 0.013
0.320 0.086 0.014
0.331 0.092 0.014
0.322 0.093 0.014
0.317 0.094 0.013
0.316 0.097 0.013
0.322 0.102 0.014
0.332 0.109 0.014
0.328 0.110 0.014
0.317 0.110 0.014
0.315 0.112 0.014
0.319 0.117 0.014
0.318 0.119 0.014
0.321 0.124 0.014
0.416 0.173 0.018
0.416 0.177 0.018
0.409 0.178 0.018
0.402 0.179 0.018
0.388 0.177 0.017
0.380 0.177 0.017
0.382 0.182 0.017
0.378 0.184 0.017
0.376 0.187 0.017
0.369 0.187 0.016
0.327 0.177 0.015
0.323 0.178 0.014
0.326 0.184 0.015
0.331 0.190 0.015
0.327 0.191 0.015
0.326 0.194 0.015
0.325 0.197 0.015
0.323 0.200 0.015
0.319 0.201 0.015
0.317 0.204 0.015
0.315 0.206 0.015
0.313 0.208 0.015
0.311 0.211 0.014
0.309 0.214 0.014
0.312 0.219 0.015
0.318 0.228 0.015
0.325 0.236 0.015
0.340 0.252 0.016
0.320 0.246 0.015
0.320 0.250 0.015
0.428 0.346 0.021
0.443 0.370 0.022
0.443 0.376 0.022
0.434 0.375 0.022
0.445 0.417 0.023
0.449 0.428 0.023
0.451 0.437 0.023
0.452 0.446 0.024
0.450 0.451 0.024
0.448 0.457 0.024
0.446 0.462 0.024
0.372 0.405 0.020
0.501 0.593 0.028
0.495 0.595 0.028
0.174 -0.240 0.013
0.175 -0.238 0.013
0.178 -0.239 0.013
0.178 -0.236 0.013
0.179 -0.234 0.013
0.182 -0.234 0.013
0.184 -0.233 0.013
0.186 -0.232 0.013
0.187 -0.231 0.013
0.188 -0.229 0.013
0.190 -0.228 0.013
0.193 -0.228 0.013
0.195 -0.227 0.013
0.197 -0.225 0.013
0.198 -0.224 0.013
0.200 -0.223 0.013
0.203 -0.222 0.013
0.205 -0.221 0.013
0.207 -0.220 0.013
0.209 -0.219 0.013
0.210 -0.217 0.013
0.212 -0.215 0.013
0.215 -0.215 0.013
0.218 -0.214 0.014
0.220 -0.213 0.014
0.223 -0.213 0.014
0.226 -0.213 0.014
0.229 -0.212 0.014
0.231 -0.211 0.014
0.233 -0.209 0.014
0.236 -0.208 0.014
0.239 -0.208 0.014
0.242 -0.207 0.014
0.245 -0.207 0.014
0.247 -0.205 0.015
0.249 -0.203 0.015
0.253 -0.203 0.015
0.241 -0.190 0.014
0.205 -0.156 0.012
0.203 -0.152 0.012
0.206 -0.152 0.012
0.207 -0.150 0.012
0.207 -0.148 0.012
0.210 -0.148 0.012
0.212 -0.146 0.012
0.214 -0.145 0.012
0.216 -0.144 0.012
0.216 -0.142 0.012
0.213 -0.137 0.012
0.208 -0.132 0.012
0.207 -0.129 0.011
0.207 -0.127 0.011
0.209 -0.125 0.011
0.211 -0.124 0.011
0.211 -0.122 0.011
0.218 -0.123 0.012
0.217 -0.121 0.012
0.212 -0.116 0.011
0.212 -0.113 0.011
0.212 -0.111 0.011
0.211 -0.108 0.011
0.215 -0.108 0.011
0.215 -0.106 0.011
0.215 -0.104 0.011
0.214 -0.101 0.011
0.214 -0.099 0.011
0.213 -0.096 0.011
0.217 -0.096 0.011
0.215 -0.093 0.011
0.218 -0.092 0.011
0.222 -0.091 0.012
0.223 -0.090 0.012
0.219 -0.086 0.011
0.217 -0.083 0.011
0.209 -0.078 0.011
0.233 -0.085 0.012
0.241 -0.085 0.012
0.240 -0.082 0.012
0.240 -0.080 0.012
0.245 -0.080 0.013
0.250 -0.079 0.013
0.254 -0.078 0.013
0.255 -0.076 0.013
0.266 -0.076 0.014
0.402 -0.108 0.021
0.408 -0.106 0.021
0.416 -0.104 0.021
0.419 -0.101 0.021
0.421 -0.097 0.021
0.405 -0.090 0.021
0.371 -0.079 0.019
0.361 -0.074 0.018
0.363 -0.071 0.018
0.361 -0.067 0.018
0.285 -0.048 0.014
0.288 -0.045 0.015
0.285 -0.042 0.014
0.283 -0.040 0.014
0.284 -0.037 0.014
0.285 -0.035 0.014
0.292 -0.033 0.015
0.290 -0.030 0.015
0.287 -0.027 0.015
0.293 -0.025 0.015
0.294 -0.023 0.015
0.293 -0.020 0.015
0.291 -0.017 0.015
0.288 -0.014 0.015
0.294 -0.012 0.015
0.298 -0.009 0.015
0.306 -0.007 0.015
0.305 -0.004 0.015
0.301 -0.001 0.015
0.308 0.001 0.016
0.312 0.004 0.016
0.320 0.007 0.016
0.311 0.010 0.016
0.301 0.012 0.015
0.304 0.015 0.015
0.310 0.018 0.016
0.310 0.021 0.016
0.313 0.024 0.016
0.315 0.027 0.016
0.315 0.030 0.016
0.314 0.032 0.016
0.313 0.035 0.016
0.312 0.038 0.016
0.314 0.041 0.016
0.314 0.044 0.016
0.318 0.047 0.016
0.317 0.050 0.016
0.320 0.054 0.016
0.320 0.056 0.016
0.322 0.060 0.016
0.324 0.063 0.017
0.318 0.065 0.016
0.314 0.067 0.016
0.322 0.072 0.016
0.338 0.078 0.017
0.317 0.076 0.016
0.303 0.076 0.016
0.313 0.081 0.016
0.327 0.088 0.017
0.320 0.089 0.017
0.324 0.093 0.017
0.320 0.095 0.017
0.320 0.098 0.017
0.324 0.103 0.017
0.328 0.107 0.017
0.328 0.110 0.017
0.327 0.113 0.017
0.322 0.115 0.017
0.319 0.117 0.017
0.317 0.119 0.017
0.318 0.123 0.017
0.417 0.173 0.022
0.417 0.177 0.022
0.411 0.179 0.022
0.404 0.180 0.021
0.393 0.179 0.021
0.388 0.181 0.021
0.381 0.182 0.020
0.375 0.183 0.020
0.367 0.183 0.020
0.363 0.185 0.020
0.357 0.185 0.019
0.346 0.183 0.019
0.334 0.181 0.018
0.324 0.179 0.018
0.325 0.183 0.018
0.326 0.187 0.018
0.326 0.191 0.018
0.325 0.194 0.018
0.324 0.197 0.018
0.321 0.199 0.018
0.319 0.201 0.018
0.316 0.203 0.018
0.313 0.205 0.018
0.311 0.207 0.018
0.309 0.210 0.017
0.308 0.213 0.017
0.305 0.215 0.017
0.315 0.226 0.018
0.320 0.233 0.018
0.326 0.241 0.019
0.308 0.237 0.018
0.308 0.240 0.018
0.446 0.372 0.027
0.443 0.376 0.026
0.450 0.429 0.028
0.454 0.441 0.029
0.453 0.447 0.029
0.451 0.453 0.029
0.448 0.457 0.029
0.447 0.463 0.029
0.382 0.416 0.025
0.417 0.470 0.028
0.471 0.548 0.032
0.318 0.414 0.023
0.177 -0.244 0.015
0.176 -0.239 0.015
0.176 -0.237 0.015
0.179 -0.237 0.015
0.180 -0.235 0.015
0.182 -0.234 0.015
0.184 -0.233 0.015
0.186 -0.233 0.015
0.188 -0.232 0.015
0.189 -0.230 0.015
0.191 -0.229 0.015
0.192 -0.227 0.015
0.195 -0.227 0.015
0.196 -0.225 0.015
0.198 -0.224 0.015
0.200 -0.223 0.015
0.202 -0.222 0.015
0.205 -0.221 0.015
0.207 -0.220 0.016
0.209 -0.219 0.016
0.211 -0.218 0.016
0.213 -0.216 0.016
0.216 -0.216 0.016
0.218 -0.214 0.016
0.219 -0.213 0.016
0.222 -0.211 0.016
0.226 -0.213 0.016
0.229 -0.212 0.016
0.231 -0.210 0.016
0.233 -0.209 0.016
0.237 -0.209 0.017
0.240 -0.208 0.017
0.242 -0.207 0.017
0.245 -0.206 0.017
0.247 -0.205 0.017
0.251 -0.205 0.017
0.253 -0.203 0.017
0.245 -0.193 0.017
0.213 -0.166 0.014
0.202 -0.155 0.014
0.201 -0.151 0.014
0.207 -0.153 0.014
0.213 -0.155 0.014
0.217 -0.155 0.014
0.210 -0.148 0.014
0.204 -0.141 0.013
0.212 -0.144 0.014
0.216 -0.144 0.014
0.215 -0.141 0.014
0.214 -0.138 0.014
0.210 -0.133 0.014
0.203 -0.126 0.013
0.205 -0.125 0.013
0.207 -0.124 0.013
0.214 -0.126 0.014
0.217 -0.125 0.014
0.221 -0.125 0.014
0.215 -0.119 0.014
0.211 -0.115 0.013
0.212 -0.114 0.013
0.214 -0.112 0.014
0.213 -0.109 0.013
0.201 -0.101 0.013
0.205 -0.101 0.013
0.205 -0.099 0.013
0.214 -0.101 0.013
0.203 -0.094 0.013
0.206 -0.093 0.013
0.211 -0.094 0.013
0.216 -0.094 0.013
0.216 -0.091 0.013
0.222 -0.092 0.014
0.218 -0.088 0.013
0.222 -0.087 0.014
0.203 -0.078 0.012
0.210 -0.078 0.013
0.218 -0.079 0.013
0.235 -0.083 0.014
0.237 -0.081 0.014
0.241 -0.080 0.015
0.247 -0.080 0.015
0.248 -0.078 0.015
0.254 -0.078 0.015
0.259 -0.077 0.016
0.253 -0.073 0.015
0.405 -0.109 0.024
0.410 -0.106 0.025
0.418 -0.104 0.025
0.422 -0.102 0.025
0.421 -0.097 0.025
0.411 -0.091 0.025
0.367 -0.078 0.022
0.356 -0.073 0.021
0.363 -0.071 0.022
0.295 -0.049 0.018
0.286 -0.045 0.017
0.285 -0.042 0.017
0.283 -0.040 0.017
0.283 -0.037 0.017
0.285 -0.035 0.017
0.290 -0.033 0.017
0.292 -0.030 0.017
0.291 -0.028 0.017
0.292 -0.025 0.017
0.296 -0.023 0.018
0.295 -0.020 0.018
0.293 -0.017 0.017
0.288 -0.014 0.017
0.285 -0.012 0.017
0.301 -0.010 0.018
0.290 -0.007 0.017
0.300 -0.004 0.018
0.304 -0.001 0.018
0.308 0.001 0.018
0.316 0.004 0.019
0.313 0.007 0.019
0.313 0.010 0.019
0.298 0.012 0.018
0.298 0.015 0.018
0.302 0.018 0.018
0.302 0.020 0.018
0.308 0.023 0.018
0.310 0.026 0.018
0.310 0.029 0.018
0.310 0.032 0.018
0.312 0.035 0.019
0.315 0.038 0.019
0.314 0.041 0.019
0.314 0.044 0.019
0.317 0.047 0.019
0.320 0.051 0.019
0.308 0.052 0.018
0.313 0.055 0.019
0.318 0.059 0.019
0.322 0.063 0.019
0.322 0.066 0.019
0.323 0.069 0.019
0.326 0.073 0.020
0.328 0.076 0.020
0.304 0.073 0.018
0.307 0.077 0.019
0.320 0.083 0.019
0.327 0.088 0.020
0.328 0.091 0.020
0.324 0.094 0.020
0.329 0.098 0.020
0.330 0.101 0.020
0.328 0.104 0.020
0.322 0.105 0.020
0.325 0.109 0.020
0.329 0.114 0.020
0.331 0.118 0.020
0.322 0.118 0.020
0.315 0.118 0.019
0.312 0.120 0.019
0.328 0.130 0.020
0.419 0.174 0.026
0.417 0.177 0.026
0.409 0.178 0.026
0.404 0.180 0.025
0.401 0.183 0.025
0.386 0.180 0.024
0.381 0.182 0.024
0.374 0.182 0.024
0.362 0.181 0.023
0.358 0.182 0.023
0.350 0.182 0.022
0.344 0.183 0.022
0.335 0.181 0.021
0.334 0.184 0.021
0.326 0.183 0.021
0.323 0.185 0.021
0.323 0.189 0.021
0.323 0.193 0.021
0.322 0.196 0.021
0.321 0.199 0.021
0.318 0.201 0.021
0.314 0.202 0.021
0.308 0.202 0.020
0.308 0.205 0.020
0.308 0.209 0.020
0.304 0.210 0.020
0.303 0.213 0.020
0.301 0.215 0.020
0.296 0.216 0.020
0.295 0.218 0.020
0.294 0.222 0.020
0.293 0.225 0.020
0.296 0.231 0.020
0.299 0.237 0.021
0.277 0.247 0.020
0.274 0.249 0.020
0.447 0.434 0.033
0.452 0.446 0.033
0.447 0.449 0.033
0.389 0.403 0.029
0.430 0.476 0.033
0.333 0.388 0.026
0.334 0.395 0.027
0.315 0.404 0.026
0.315 0.411 0.026
0.170 -0.234 0.016
0.177 -0.240 0.017
0.178 -0.239 0.017
0.178 -0.236 0.017
0.181 -0.236 0.017
0.182 -0.234 0.017
0.183 -0.233 0.017
0.185 -0.232 0.017
0.187 -0.231 0.017
0.189 -0.230 0.017
0.190 -0.228 0.017
0.191 -0.226 0.017
0.194 -0.226 0.017
0.196 -0.225 0.017
0.198 -0.224 0.017
0.200 -0.223 0.017
0.202 -0.222 0.018
0.204 -0.221 0.018
0.206 -0.219 0.018
0.208 -0.218 0.018
0.211 -0.218 0.018
0.215 -0.218 0.018
0.216 -0.216 0.018
0.218 -0.215 0.018
0.220 -0.213 0.018
0.223 -0.213 0.018
0.226 -0.212 0.019
0.228 -0.211 0.019
0.230 -0.210 0.019
0.233 -0.209 0.019
0.237 -0.209 0.019
0.239 -0.208 0.019
0.241 -0.206 0.019
0.244 -0.206 0.019
0.247 -0.205 0.020
0.249 -0.203 0.020
0.251 -0.202 0.020
0.246 -0.194 0.019
0.209 -0.163 0.016
0.201 -0.153 0.016
0.201 -0.151 0.015
0.208 -0.154 0.016
0.217 -0.158 0.017
0.219 -0.156 0.017
0.212 -0.149 0.016
0.207 -0.143 0.016
0.212 -0.144 0.016
0.215 -0.144 0.016
0.212 -0.139 0.016
0.210 -0.136 0.016
0.211 -0.134 0.016
0.207 -0.129 0.015
0.203 -0.124 0.015
0.212 -0.127 0.016
0.216 -0.127 0.016
0.219 -0.127 0.016
0.219 -0.124 0.016
0.220 -0.122 0.016
0.212 -0.115 0.015
0.215 -0.115 0.016
0.217 -0.114 0.016
0.215 -0.110 0.016
0.203 -0.102 0.015
0.201 -0.099 0.015
0.209 -0.101 0.015
0.205 -0.097 0.015
0.211 -0.098 0.015
0.204 -0.092 0.015
0.207 -0.091 0.015
0.216 -0.093 0.015
0.219 -0.092 0.016
0.221 -0.091 0.016
0.223 -0.090 0.016
0.216 -0.085 0.015
0.217 -0.083 0.015
0.205 -0.077 0.014
0.217 -0.079 0.015
0.223 -0.079 0.016
0.230 -0.079 0.016
0.238 -0.080 0.017
0.249 -0.081 0.017
0.233 -0.074 0.016
0.253 -0.077 0.018
0.260 -0.077 0.018
0.259 -0.075 0.018
0.407 -0.109 0.028
0.413 -0.107 0.029
0.420 -0.105 0.029
0.427 -0.103 0.030
0.430 -0.099 0.030
0.368 -0.078 0.025
0.363 -0.074 0.025
0.365 -0.071 0.025
0.355 -0.066 0.024
0.287 -0.048 0.020
0.288 -0.046 0.020
0.284 -0.042 0.019
0.283 -0.040 0.019
0.282 -0.037 0.019
0.286 -0.035 0.020
0.289 -0.033 0.020
0.291 -0.030 0.020
0.291 -0.028 0.020
0.293 -0.025 0.020
0.295 -0.023 0.020
0.297 -0.020 0.020
0.295 -0.017 0.020
0.293 -0.015 0.020
0.288 -0.012 0.020
0.284 -0.009 0.019
0.292 -0.007 0.020
0.296 -0.004 0.020
0.311 -0.001 0.021
0.312 0.001 0.021
0.301 0.004 0.021
0.308 0.007 0.021
0.301 0.009 0.021
0.298 0.012 0.020
0.296 0.015 0.020
0.298 0.017 0.020
0.298 0.020 0.020
0.302 0.023 0.021
0.304 0.026 0.021
0.300 0.028 0.021
0.302 0.031 0.021
0.308 0.035 0.021
0.310 0.038 0.021
0.313 0.041 0.022
0.307 0.043 0.021
0.318 0.047 0.022
0.324 0.051 0.022
0.315 0.053 0.022
0.307 0.054 0.021
0.307 0.057 0.021
0.314 0.061 0.022
0.321 0.065 0.022
0.323 0.069 0.022
0.323 0.072 0.022
0.310 0.072 0.022
0.301 0.073 0.021
0.296 0.074 0.021
0.314 0.082 0.022
0.323 0.087 0.023
0.332 0.093 0.023
0.331 0.096 0.023
0.330 0.098 0.023
0.337 0.104 0.024
0.329 0.104 0.023
0.324 0.106 0.023
0.325 0.109 0.023
0.329 0.114 0.023
0.331 0.118 0.023
0.334 0.122 0.024
0.310 0.117 0.022
0.311 0.120 0.022
0.427 0.178 0.031
0.424 0.181 0.030
0.414 0.180 0.030
0.407 0.182 0.029
0.397 0.181 0.029
0.389 0.182 0.028
0.382 0.182 0.028
0.371 0.181 0.027
0.367 0.183 0.027
0.354 0.180 0.026
0.350 0.182 0.026
0.344 0.182 0.025
0.334 0.181 0.025
0.330 0.182 0.024
0.326 0.184 0.024
0.320 0.184 0.024
0.316 0.185 0.023
0.313 0.187 0.023
0.310 0.189 0.023
0.305 0.189 0.023
0.303 0.191 0.023
0.303 0.195 0.023
0.301 0.197 0.023
0.297 0.198 0.023
0.301 0.204 0.023
0.301 0.208 0.023
0.300 0.211 0.023
0.297 0.213 0.023
0.295 0.215 0.023
0.294 0.218 0.023
0.294 0.222 0.023
0.293 0.225 0.023
0.288 0.225 0.023
0.286 0.227 0.023
0.271 0.230 0.022
0.265 0.229 0.022
0.264 0.232 0.021
0.270 0.242 0.022
0.270 0.245 0.022
0.405 0.442 0.036
0.332 0.380 0.030
0.327 0.380 0.030
0.327 0.387 0.030
0.321 0.398 0.030
0.318 0.402 0.030
0.311 0.399 0.030
0.304 0.396 0.029
0.173 -0.239 0.019
0.177 -0.241 0.019
0.178 -0.240 0.019
0.179 -0.237 0.019
0.180 -0.235 0.019
0.181 -0.234 0.019
0.183 -0.233 0.019
0.185 -0.232 0.019
0.186 -0.230 0.019
0.188 -0.229 0.019
0.190 -0.228 0.019
0.192 -0.227 0.019
0.194 -0.226 0.019
0.196 -0.225 0.020
0.198 -0.224 0.020
0.200 -0.223 0.020
0.202 -0.222 0.020
0.204 -0.220 0.020
0.206 -0.219 0.020
0.208 -0.218 0.020
0.211 -0.218 0.020
0.214 -0.218 0.020
0.217 -0.217 0.021
0.218 -0.215 0.021
0.221 -0.214 0.021
0.224 -0.214 0.021
0.226 -0.213 0.021
0.228 -0.211 0.021
0.230 -0.210 0.021
0.233 -0.209 0.021
0.236 -0.208 0.021
0.238 -0.207 0.022
0.241 -0.206 0.022
0.244 -0.205 0.022
0.247 -0.205 0.022
0.249 -0.204 0.022
0.249 -0.200 0.022
0.245 -0.193 0.022
0.205 -0.157 0.018
0.204 -0.154 0.018
0.210 -0.155 0.018
0.212 -0.154 0.018
0.213 -0.152 0.018
0.212 -0.149 0.018
0.211 -0.146 0.018
0.212 -0.144 0.018
0.212 -0.142 0.018
0.207 -0.136 0.018
0.206 -0.133 0.017
0.206 -0.130 0.017
0.210 -0.131 0.018
0.204 -0.125 0.017
0.208 -0.125 0.017
0.213 -0.126 0.018
0.213 -0.123 0.018
0.213 -0.121 0.018
0.208 -0.116 0.017
0.205 -0.112 0.017
0.213 -0.114 0.018
0.218 -0.115 0.018
0.214 -0.110 0.018
0.214 -0.108 0.018
0.208 -0.103 0.017
0.213 -0.103 0.017
0.208 -0.098 0.017
0.211 -0.098 0.017
0.215 -0.097 0.017
0.215 -0.095 0.017
0.216 -0.093 0.017
0.218 -0.092 0.018
0.221 -0.091 0.018
0.220 -0.089 0.018
0.215 -0.085 0.017
0.209 -0.080 0.017
0.208 -0.078 0.017
0.211 -0.077 0.017
0.229 -0.081 0.018
0.232 -0.080 0.018
0.230 -0.077 0.018
0.233 -0.076 0.018
0.246 -0.078 0.019
0.253 -0.077 0.020
0.255 -0.076 0.020
0.410 -0.110 0.032
0.413 -0.107 0.032
0.421 -0.105 0.033
0.428 -0.103 0.034
0.429 -0.099 0.034
0.362 -0.074 0.028
0.368 -0.072 0.029
0.362 -0.067 0.028
0.293 -0.049 0.023
0.287 -0.045 0.022
0.285 -0.042 0.022
0.280 -0.039 0.022
0.283 -0.037 0.022
0.286 -0.035 0.022
0.288 -0.033 0.022
0.291 -0.030 0.023
0.293 -0.028 0.023
0.296 -0.025 0.023
0.296 -0.023 0.023
0.296 -0.020 0.023
0.299 -0.018 0.023
0.298 -0.015 0.023
0.300 -0.012 0.023
0.293 -0.009 0.023
0.286 -0.007 0.022
0.294 -0.004 0.023
0.307 -0.001 0.024
0.299 0.001 0.023
0.301 0.004 0.023
0.303 0.007 0.023
0.300 0.009 0.023
0.301 0.012 0.023
0.292 0.014 0.023
0.294 0.017 0.023
0.294 0.020 0.023
0.303 0.023 0.024
0.304 0.026 0.024
0.300 0.028 0.023
0.294 0.030 0.023
0.300 0.034 0.023
0.315 0.038 0.025
0.312 0.041 0.024
0.310 0.043 0.024
0.321 0.048 0.025
0.324 0.051 0.025
0.319 0.053 0.025
0.309 0.055 0.024
0.305 0.057 0.024
0.298 0.058 0.023
0.306 0.062 0.024
0.317 0.068 0.025
0.310 0.069 0.024
0.310 0.072 0.024
0.307 0.074 0.024
0.311 0.078 0.025
0.309 0.080 0.024
0.315 0.085 0.025
0.325 0.097 0.026
0.329 0.101 0.026
0.329 0.104 0.026
0.323 0.106 0.026
0.333 0.112 0.027
0.333 0.115 0.027
0.328 0.117 0.026
0.317 0.116 0.025
0.319 0.120 0.026
0.330 0.127 0.026
0.329 0.130 0.026
0.421 0.175 0.034
0.426 0.182 0.035
0.415 0.181 0.034
0.406 0.181 0.033
0.394 0.180 0.032
0.389 0.182 0.032
0.383 0.183 0.031
0.375 0.183 0.031
0.364 0.181 0.030
0.354 0.180 0.029
0.348 0.181 0.029
0.342 0.182 0.028
0.339 0.184 0.028
0.330 0.182 0.027
0.327 0.184 0.027
0.323 0.186 0.027
0.315 0.185 0.026
0.310 0.185 0.026
0.303 0.185 0.026
0.300 0.186 0.025
0.300 0.189 0.026
0.292 0.188 0.025
0.289 0.189 0.025
0.288 0.192 0.025
0.282 0.192 0.024
0.277 0.191 0.024
0.273 0.192 0.024
0.271 0.194 0.024
0.269 0.196 0.024
0.265 0.197 0.023
0.264 0.199 0.023
0.264 0.203 0.023
0.263 0.206 0.023
0.262 0.208 0.023
0.261 0.211 0.023
0.260 0.214 0.023
0.259 0.216 0.023
0.259 0.220 0.024
0.257 0.222 0.024
0.258 0.227 0.024
0.259 0.232 0.024
0.260 0.237 0.024
0.258 0.238 0.024
0.256 0.240 0.024
0.255 0.244 0.024
0.260 0.253 0.025
0.265 0.262 0.025
0.439 0.455 0.043
0.438 0.462 0.043
0.405 0.435 0.040
0.398 0.434 0.040
0.347 0.391 0.035
0.337 0.387 0.034
0.334 0.390 0.034
0.331 0.393 0.034
0.328 0.394 0.034
0.323 0.395 0.034
0.315 0.391 0.033
0.309 0.391 0.033
0.304 0.390 0.033
0.297 0.387 0.032
0.174 -0.240 0.021
0.177 -0.241 0.021
0.178 -0.240 0.021
0.178 -0.237 0.021
0.180 -0.235 0.021
0.181 -0.234 0.021
0.183 -0.233 0.021
0.185 -0.232 0.021
0.187 -0.231 0.021
0.189 -0.231 0.022
0.190 -0.228 0.022
0.191 -0.227 0.022
0.194 -0.226 0.022
0.196 -0.225 0.022
0.198 -0.224 0.022
0.200 -0.223 0.022
0.202 -0.222 0.022
0.204 -0.221 0.022
0.206 -0.219 0.022
0.208 -0.218 0.022
0.211 -0.218 0.022
0.213 -0.217 0.023
0.216 -0.216 0.023
0.218 -0.215 0.023
0.221 -0.214 0.023
0.224 -0.214 0.023
0.226 -0.213 0.023
0.228 -0.211 0.023
0.230 -0.210 0.024
0.233 -0.209 0.024
0.236 -0.208 0.024
0.238 -0.207 0.024
0.240 -0.206 0.024
0.243 -0.204 0.024
0.247 -0.205 0.025
0.249 -0.203 0.025
0.249 -0.200 0.025
0.240 -0.190 0.024
0.222 -0.172 0.022
0.211 -0.162 0.021
0.209 -0.157 0.020
0.209 -0.155 0.020
0.208 -0.152 0.020
0.212 -0.151 0.020
0.213 -0.150 0.020
0.213 -0.147 0.020
0.209 -0.142 0.020
0.205 -0.137 0.020
0.205 -0.135 0.019
0.206 -0.133 0.019
0.208 -0.132 0.020
0.205 -0.128 0.019
0.206 -0.126 0.019
0.202 -0.122 0.019
0.205 -0.121 0.019
0.209 -0.121 0.019
0.209 -0.119 0.019
0.205 -0.114 0.019
0.208 -0.114 0.019
0.214 -0.115 0.020
0.214 -0.112 0.020
0.217 -0.112 0.020
0.203 -0.103 0.019
0.205 -0.101 0.019
0.206 -0.100 0.019
0.211 -0.100 0.019
0.204 -0.094 0.018
0.205 -0.093 0.018
0.204 -0.090 0.018
0.208 -0.090 0.019
0.218 -0.092 0.020
0.219 -0.090 0.020
0.217 -0.087 0.019
0.215 -0.085 0.019
0.211 -0.081 0.019
0.212 -0.079 0.019
0.212 -0.077 0.019
0.222 -0.079 0.020
0.229 -0.079 0.020
0.231 -0.077 0.020
0.232 -0.076 0.021
0.245 -0.077 0.022
0.252 -0.077 0.022
0.257 -0.076 0.023
0.409 -0.110 0.036
0.412 -0.107 0.036
0.418 -0.105 0.037
0.423 -0.102 0.037
0.423 -0.098 0.037
0.335 -0.071 0.029
0.362 -0.074 0.032
0.369 -0.072 0.032
0.359 -0.067 0.031
0.289 -0.048 0.025
0.286 -0.045 0.025
0.285 -0.043 0.025
0.284 -0.040 0.025
0.284 -0.037 0.025
0.287 -0.035 0.025
0.288 -0.032 0.025
0.290 -0.030 0.025
0.294 -0.028 0.025
0.297 -0.025 0.026
0.295 -0.023 0.026
0.296 -0.020 0.026
0.299 -0.018 0.026
0.302 -0.015 0.026
0.298 -0.012 0.026
0.296 -0.009 0.026
0.285 -0.006 0.025
0.286 -0.004 0.025
0.294 -0.001 0.025
0.297 0.001 0.026
0.300 0.004 0.026
0.305 0.007 0.026
0.303 0.009 0.026
0.293 0.012 0.025
0.300 0.017 0.026
0.303 0.020 0.026
0.310 0.024 0.027
0.308 0.026 0.027
0.305 0.029 0.026
0.301 0.031 0.026
0.309 0.035 0.027
0.313 0.038 0.027
0.314 0.041 0.027
0.311 0.044 0.027
0.315 0.047 0.027
0.323 0.051 0.028
0.326 0.055 0.028
0.313 0.055 0.027
0.302 0.056 0.026
0.307 0.060 0.027
0.310 0.063 0.027
0.298 0.064 0.026
0.300 0.067 0.026
0.314 0.073 0.028
0.310 0.075 0.027
0.308 0.077 0.027
0.310 0.081 0.027
0.320 0.086 0.028
0.327 0.091 0.029
0.338 0.098 0.030
0.328 0.098 0.029
0.321 0.099 0.028
0.311 0.099 0.028
0.317 0.104 0.028
0.341 0.115 0.030
0.331 0.115 0.029
0.320 0.114 0.029
0.310 0.113 0.028
0.321 0.121 0.029
0.325 0.125 0.029
0.324 0.128 0.029
0.422 0.176 0.038
0.421 0.180 0.038
0.415 0.181 0.038
0.408 0.182 0.037
0.400 0.183 0.036
0.389 0.182 0.035
0.380 0.181 0.035
0.374 0.182 0.034
0.365 0.182 0.033
0.353 0.180 0.032
0.346 0.180 0.032
0.342 0.182 0.032
0.337 0.183 0.031
0.331 0.183 0.031
0.326 0.184 0.030
0.322 0.185 0.030
0.315 0.185 0.030
0.311 0.186 0.029
0.303 0.184 0.029
0.300 0.186 0.028
0.294 0.186 0.028
0.289 0.186 0.028
0.286 0.187 0.027
0.280 0.187 0.027
0.272 0.185 0.026
0.270 0.187 0.026
0.265 0.187 0.026
0.262 0.188 0.026
0.261 0.190 0.025
0.263 0.195 0.026
0.262 0.198 0.026
0.261 0.200 0.026
0.260 0.204 0.026
0.261 0.208 0.026
0.260 0.211 0.026
0.259 0.213 0.026
0.258 0.216 0.026
0.258 0.219 0.026
0.257 0.222 0.026
0.257 0.226 0.026
0.257 0.230 0.026
0.257 0.234 0.027
0.256 0.237 0.027
0.255 0.240 0.027
0.255 0.244 0.027
0.255 0.248 0.027
0.254 0.251 0.027
0.437 0.454 0.048
0.436 0.460 0.048
0.345 0.389 0.039
0.364 0.424 0.042
0.347 0.418 0.040
0.326 0.399 0.038
0.312 0.388 0.037
0.305 0.385 0.036
0.302 0.388 0.036
0.303 0.395 0.036
0.176 -0.243 0.023
0.177 -0.241 0.023
0.177 -0.239 0.023
0.178 -0.236 0.023
0.180 -0.236 0.023
0.182 -0.235 0.023
0.183 -0.233 0.023
0.185 -0.232 0.023
0.186 -0.231 0.024
0.188 -0.230 0.024
0.190 -0.228 0.024
0.191 -0.226 0.024
0.193 -0.226 0.024
0.196 -0.225 0.024
0.198 -0.224 0.024
0.200 -0.223 0.024
0.203 -0.223 0.024
0.205 -0.221 0.024
0.206 -0.220 0.025
0.208 -0.218 0.025
0.210 -0.217 0.025
0.212 -0.216 0.025
0.215 -0.215 0.025
0.218 -0.215 0.025
0.221 -0.215 0.025
0.223 -0.214 0.026
0.225 -0.212 0.026
0.228 -0.211 0.026
0.230 -0.210 0.026
0.233 -0.209 0.026
0.236 -0.208 0.026
0.238 -0.207 0.026
0.240 -0.206 0.027
0.243 -0.205 0.027
0.246 -0.204 0.027
0.249 -0.203 0.027
0.250 -0.201 0.027
0.238 -0.188 0.026
0.217 -0.169 0.023
0.209 -0.160 0.023
0.208 -0.157 0.022
0.210 -0.156 0.022
0.210 -0.153 0.022
0.213 -0.152 0.023
0.214 -0.151 0.023
0.208 -0.144 0.022
0.204 -0.139 0.021
0.206 -0.138 0.022
0.210 -0.138 0.022
0.211 -0.136 0.022
0.210 -0.133 0.022
0.210 -0.131 0.022
0.208 -0.127 0.021
0.207 -0.124 0.021
0.207 -0.122 0.021
0.209 -0.121 0.021
0.212 -0.120 0.022
0.211 -0.118 0.022
0.211 -0.115 0.021
0.212 -0.113 0.021
0.214 -0.112 0.022
0.217 -0.112 0.022
0.220 -0.111 0.022
0.206 -0.102 0.021
0.209 -0.101 0.021
0.210 -0.099 0.021
0.211 -0.098 0.021
0.204 -0.092 0.020
0.212 -0.094 0.021
0.205 -0.089 0.020
0.215 -0.091 0.021
0.218 -0.090 0.022
0.215 -0.087 0.021
0.214 -0.084 0.021
0.215 -0.083 0.021
0.215 -0.080 0.021
0.228 -0.083 0.022
0.225 -0.080 0.022
0.225 -0.078 0.022
0.226 -0.076 0.022
0.233 -0.076 0.023
0.242 -0.076 0.024
0.251 -0.077 0.024
0.255 -0.076 0.025
0.259 -0.074 0.025
0.409 -0.110 0.040
0.412 -0.107 0.040
0.416 -0.104 0.040
0.417 -0.100 0.040
0.415 -0.096 0.040
0.344 -0.073 0.033
0.360 -0.074 0.035
0.365 -0.071 0.035
0.352 -0.065 0.034
0.287 -0.048 0.028
0.285 -0.045 0.027
0.284 -0.042 0.027
0.284 -0.040 0.027
0.285 -0.037 0.027
0.285 -0.035 0.027
0.286 -0.032 0.027
0.289 -0.030 0.028
0.293 -0.028 0.028
0.294 -0.025 0.028
0.294 -0.023 0.028
0.294 -0.020 0.028
0.295 -0.017 0.028
0.294 -0.015 0.028
0.293 -0.012 0.028
0.290 -0.009 0.028
0.288 -0.007 0.028
0.286 -0.004 0.027
0.293 -0.001 0.028
0.297 0.001 0.028
0.297 0.004 0.028
0.303 0.007 0.029
0.299 0.009 0.029
0.302 0.012 0.029
0.309 0.015 0.030
0.318 0.019 0.030
0.308 0.021 0.029
0.307 0.023 0.029
0.312 0.027 0.030
0.310 0.029 0.030
0.312 0.032 0.030
0.308 0.035 0.030
0.311 0.038 0.030
0.309 0.040 0.030
0.305 0.043 0.029
0.306 0.046 0.029
0.318 0.050 0.031
0.323 0.054 0.031
0.317 0.056 0.031
0.315 0.058 0.030
0.312 0.061 0.030
0.318 0.065 0.031
0.309 0.066 0.030
0.307 0.068 0.030
0.308 0.071 0.030
0.309 0.075 0.030
0.306 0.077 0.030
0.319 0.083 0.031
0.328 0.089 0.032
0.335 0.093 0.033
0.329 0.095 0.032
0.327 0.097 0.032
0.307 0.095 0.030
0.309 0.098 0.030
0.311 0.102 0.030
0.324 0.109 0.032
0.332 0.115 0.033
0.318 0.113 0.031
0.313 0.115 0.031
0.320 0.121 0.032
0.335 0.129 0.033
0.339 0.134 0.034
0.419 0.174 0.042
0.419 0.178 0.042
0.414 0.181 0.041
0.410 0.183 0.041
0.404 0.185 0.041
0.391 0.183 0.039
0.378 0.181 0.038
0.372 0.182 0.038
0.366 0.182 0.037
0.353 0.180 0.036
0.347 0.181 0.035
0.342 0.182 0.035
0.338 0.183 0.035
0.331 0.183 0.034
0.324 0.183 0.033
0.319 0.184 0.033
