VERSION .7
FIELDS x y z
SIZE 4 4 4
TYPE F F F
COUNT 1 1 1
WIDTH     2435
HEIGHT 1
VIEWPOINT 0 0 0 1 0 0 0
POINTS     2435
DATA ascii
1.332 -0.408 -0.571
1.324 -0.393 -0.567
1.316 -0.378 -0.563
1.321 -0.366 -0.564
1.335 -0.357 -0.569
1.345 -0.347 -0.573
0.319 -0.061 -0.135
0.306 -0.056 -0.130
0.290 -0.050 -0.123
0.288 -0.047 -0.122
0.294 -0.045 -0.125
0.303 -0.044 -0.128
0.267 -0.033 -0.113
0.279 -0.032 -0.118
0.282 -0.027 -0.119
0.289 -0.025 -0.122
0.296 -0.023 -0.125
0.296 -0.021 -0.125
0.285 -0.017 -0.120
0.283 -0.014 -0.119
0.286 -0.012 -0.121
0.289 -0.009 -0.122
0.292 -0.007 -0.123
0.269 -0.004 -0.114
0.279 -0.001 -0.117
0.289 0.001 -0.122
0.293 0.004 -0.123
0.291 0.007 -0.123
0.289 0.009 -0.122
0.298 0.013 -0.125
0.287 0.015 -0.121
0.268 0.016 -0.113
0.267 0.026 -0.113
0.267 0.029 -0.113
0.301 0.041 -0.127
0.303 0.058 -0.129
0.318 0.067 -0.136
0.304 0.070 -0.130
0.308 0.074 -0.131
0.296 0.074 -0.127
0.293 0.076 -0.125
0.294 0.079 -0.126
0.304 0.085 -0.131
0.305 0.088 -0.131
0.292 0.088 -0.126
0.286 0.088 -0.123
0.296 0.106 -0.128
0.318 0.138 -0.140
0.290 0.164 -0.131
0.277 0.160 -0.125
0.272 0.160 -0.124
0.265 0.159 -0.121
0.263 0.161 -0.120
0.260 0.162 -0.119
0.260 0.166 -0.120
0.263 0.171 -0.121
0.262 0.173 -0.121
0.257 0.173 -0.119
0.254 0.175 -0.118
0.261 0.182 -0.122
0.250 0.178 -0.117
0.250 0.181 -0.117
0.246 0.182 -0.116
0.278 0.213 -0.132
0.257 0.204 -0.123
0.251 0.203 -0.121
0.243 0.200 -0.118
0.227 0.190 -0.110
0.223 0.190 -0.109
0.220 0.190 -0.108
0.218 0.192 -0.107
0.219 0.197 -0.108
0.221 0.202 -0.110
0.220 0.204 -0.110
0.213 0.201 -0.107
0.206 0.198 -0.104
0.204 0.199 -0.103
0.206 0.204 -0.105
0.207 0.209 -0.106
0.204 0.209 -0.105
0.199 0.211 -0.103
0.192 0.214 -0.102
0.319 -0.324 -0.157
0.321 -0.311 -0.156
0.324 -0.308 -0.156
0.326 -0.306 -0.157
0.325 -0.300 -0.156
0.326 -0.296 -0.155
0.328 -0.293 -0.156
0.329 -0.289 -0.155
0.328 -0.284 -0.154
0.327 -0.278 -0.153
0.325 -0.272 -0.152
0.324 -0.267 -0.151
0.324 -0.262 -0.150
0.320 -0.255 -0.148
0.318 -0.250 -0.147
0.320 -0.247 -0.147
0.317 -0.240 -0.145
0.317 -0.236 -0.144
0.318 -0.232 -0.144
0.318 -0.228 -0.144
0.313 -0.221 -0.141
0.310 -0.215 -0.139
0.307 -0.209 -0.138
0.304 -0.204 -0.136
0.206 -0.129 -0.091
0.209 -0.128 -0.092
0.210 -0.126 -0.093
0.298 -0.172 -0.131
0.300 -0.170 -0.131
0.302 -0.167 -0.132
0.303 -0.165 -0.132
0.305 -0.162 -0.132
0.306 -0.160 -0.133
0.311 -0.159 -0.134
0.315 -0.157 -0.136
0.318 -0.156 -0.137
0.322 -0.154 -0.138
0.324 -0.152 -0.139
0.326 -0.149 -0.140
0.328 -0.146 -0.140
0.323 -0.141 -0.138
0.350 -0.131 -0.148
0.357 -0.131 -0.151
0.371 -0.132 -0.156
0.370 -0.128 -0.156
0.375 -0.126 -0.157
0.383 -0.125 -0.160
0.390 -0.123 -0.163
0.400 -0.122 -0.167
1.323 -0.392 -0.553
1.321 -0.379 -0.551
1.333 -0.369 -0.556
1.341 -0.358 -0.559
1.326 -0.342 -0.552
0.289 -0.052 -0.119
0.283 -0.049 -0.117
0.285 -0.046 -0.118
0.292 -0.045 -0.121
0.289 -0.042 -0.119
0.286 -0.038 -0.118
0.272 -0.034 -0.112
0.287 -0.033 -0.118
0.289 -0.031 -0.119
0.292 -0.028 -0.120
0.287 -0.025 -0.118
0.293 -0.023 -0.121
0.291 -0.020 -0.120
0.287 -0.017 -0.118
0.281 -0.014 -0.115
0.285 -0.012 -0.117
0.289 -0.009 -0.119
0.272 -0.006 -0.112
0.276 -0.004 -0.113
0.274 -0.001 -0.113
0.285 0.001 -0.117
0.289 0.004 -0.119
0.292 0.007 -0.120
0.304 0.013 -0.125
0.308 0.016 -0.127
0.264 0.018 -0.109
0.276 0.022 -0.114
0.266 0.024 -0.110
0.275 0.027 -0.113
0.285 0.031 -0.118
0.282 0.044 -0.117
0.273 0.047 -0.113
0.293 0.054 -0.122
0.304 0.058 -0.126
0.308 0.065 -0.128
0.304 0.067 -0.127
0.288 0.067 -0.120
0.294 0.071 -0.123
0.300 0.075 -0.125
0.296 0.077 -0.124
0.292 0.079 -0.122
0.294 0.082 -0.123
0.302 0.087 -0.127
0.299 0.089 -0.125
0.295 0.091 -0.124
0.294 0.094 -0.124
0.305 0.100 -0.129
0.306 0.104 -0.129
0.292 0.102 -0.124
0.302 0.115 -0.128
0.321 0.138 -0.138
0.284 0.144 -0.124
0.279 0.145 -0.122
0.285 0.151 -0.125
0.287 0.155 -0.126
0.284 0.157 -0.125
0.278 0.157 -0.123
0.274 0.158 -0.121
0.271 0.159 -0.120
0.272 0.163 -0.121
0.271 0.166 -0.121
0.269 0.167 -0.120
0.264 0.167 -0.118
0.271 0.175 -0.122
0.269 0.178 -0.122
0.264 0.177 -0.119
0.267 0.183 -0.121
0.260 0.181 -0.118
0.258 0.183 -0.118
0.251 0.182 -0.115
0.247 0.182 -0.114
0.259 0.194 -0.120
0.270 0.206 -0.125
0.256 0.199 -0.119
0.257 0.203 -0.120
0.260 0.209 -0.122
0.259 0.212 -0.122
0.233 0.194 -0.110
0.227 0.193 -0.108
0.221 0.191 -0.106
0.223 0.196 -0.107
0.228 0.203 -0.110
0.229 0.209 -0.111
0.223 0.206 -0.108
0.212 0.199 -0.104
0.209 0.200 -0.103
0.205 0.199 -0.101
0.206 0.204 -0.102
0.209 0.210 -0.104
0.208 0.213 -0.104
0.327 -0.362 -0.161
0.329 -0.343 -0.159
0.328 -0.337 -0.158
0.326 -0.330 -0.156
0.329 -0.328 -0.157
0.328 -0.322 -0.156
0.327 -0.315 -0.155
0.323 -0.308 -0.152
0.325 -0.304 -0.152
0.324 -0.298 -0.151
0.326 -0.296 -0.152
0.321 -0.287 -0.149
0.323 -0.284 -0.149
0.324 -0.280 -0.149
0.323 -0.274 -0.148
0.319 -0.267 -0.145
0.324 -0.266 -0.147
0.322 -0.261 -0.146
0.318 -0.253 -0.143
0.317 -0.248 -0.142
0.315 -0.242 -0.141
0.317 -0.239 -0.141
0.315 -0.234 -0.140
0.316 -0.231 -0.140
0.317 -0.227 -0.140
0.316 -0.223 -0.139
0.307 -0.213 -0.135
0.306 -0.208 -0.134
0.300 -0.201 -0.131
0.220 -0.139 -0.095
0.209 -0.130 -0.090
0.208 -0.127 -0.089
0.209 -0.125 -0.090
0.218 -0.128 -0.093
0.291 -0.167 -0.124
0.300 -0.169 -0.128
0.302 -0.167 -0.128
0.302 -0.164 -0.128
0.302 -0.160 -0.128
0.305 -0.159 -0.129
0.308 -0.157 -0.130
0.312 -0.156 -0.131
0.316 -0.154 -0.133
0.322 -0.154 -0.135
0.325 -0.152 -0.136
0.326 -0.149 -0.136
0.325 -0.145 -0.136
0.322 -0.140 -0.134
0.352 -0.132 -0.145
0.358 -0.130 -0.147
0.364 -0.129 -0.150
0.369 -0.127 -0.151
0.372 -0.125 -0.153
0.383 -0.125 -0.157
0.391 -0.123 -0.160
0.393 -0.120 -0.161
1.329 -0.380 -0.541
1.338 -0.370 -0.544
1.327 -0.354 -0.540
1.307 -0.336 -0.531
0.285 -0.052 -0.115
0.277 -0.048 -0.112
0.280 -0.046 -0.113
0.284 -0.044 -0.115
0.290 -0.042 -0.117
0.287 -0.039 -0.115
0.284 -0.036 -0.114
0.283 -0.033 -0.114
0.289 -0.031 -0.116
0.285 -0.028 -0.115
0.288 -0.025 -0.116
0.291 -0.023 -0.117
0.293 -0.020 -0.118
0.291 -0.017 -0.117
0.290 -0.015 -0.116
0.294 -0.012 -0.118
0.291 -0.009 -0.117
0.283 -0.006 -0.114
0.281 -0.004 -0.113
0.286 -0.001 -0.115
0.284 0.001 -0.114
0.288 0.004 -0.116
0.297 0.007 -0.119
0.301 0.010 -0.121
0.296 0.015 -0.119
0.297 0.018 -0.119
0.288 0.020 -0.116
0.268 0.021 -0.108
0.277 0.025 -0.112
0.281 0.030 -0.113
0.268 0.039 -0.108
0.284 0.044 -0.115
0.283 0.046 -0.114
0.280 0.048 -0.113
0.288 0.052 -0.116
0.315 0.063 -0.128
0.298 0.063 -0.121
0.290 0.064 -0.118
0.286 0.066 -0.116
0.287 0.069 -0.117
0.300 0.075 -0.122
0.308 0.080 -0.126
0.299 0.080 -0.122
0.286 0.080 -0.117
0.287 0.083 -0.117
0.297 0.089 -0.122
0.297 0.092 -0.122
0.294 0.094 -0.121
0.287 0.100 -0.118
0.285 0.102 -0.118
0.292 0.108 -0.121
0.320 0.138 -0.134
0.313 0.138 -0.131
0.296 0.134 -0.124
0.284 0.135 -0.120
0.295 0.143 -0.124
0.293 0.145 -0.124
0.290 0.147 -0.123
0.285 0.148 -0.121
0.283 0.150 -0.121
0.283 0.153 -0.121
0.283 0.156 -0.121
0.282 0.159 -0.121
0.279 0.160 -0.120
0.277 0.162 -0.120
0.280 0.168 -0.121
0.277 0.169 -0.121
0.271 0.168 -0.118
0.273 0.173 -0.119
0.276 0.178 -0.121
0.274 0.180 -0.121
0.273 0.183 -0.120
0.267 0.182 -0.118
0.264 0.184 -0.117
0.258 0.183 -0.115
0.250 0.181 -0.112
0.255 0.187 -0.114
0.258 0.193 -0.116
0.264 0.212 -0.121
0.271 0.221 -0.125
0.240 0.203 -0.111
0.232 0.200 -0.108
0.228 0.200 -0.107
0.235 0.209 -0.110
0.216 0.206 -0.103
0.318 -0.368 -0.155
0.324 -0.364 -0.156
0.327 -0.362 -0.157
0.326 -0.356 -0.156
0.321 -0.345 -0.153
0.328 -0.347 -0.155
0.332 -0.346 -0.157
0.330 -0.339 -0.155
0.329 -0.333 -0.154
0.327 -0.325 -0.152
0.327 -0.320 -0.151
0.323 -0.311 -0.149
0.321 -0.305 -0.147
0.321 -0.300 -0.147
0.325 -0.298 -0.148
0.319 -0.289 -0.145
0.317 -0.282 -0.143
0.318 -0.278 -0.143
0.320 -0.275 -0.143
0.319 -0.271 -0.142
0.321 -0.268 -0.143
0.320 -0.263 -0.142
0.319 -0.258 -0.141
0.319 -0.253 -0.140
0.316 -0.247 -0.138
0.316 -0.242 -0.138
0.315 -0.238 -0.137
0.317 -0.235 -0.137
0.314 -0.229 -0.135
0.312 -0.223 -0.134
0.309 -0.218 -0.133
0.308 -0.213 -0.132
0.305 -0.207 -0.130
0.300 -0.200 -0.128
0.211 -0.131 -0.089
0.210 -0.128 -0.088
0.210 -0.125 -0.088
0.211 -0.124 -0.088
0.257 -0.142 -0.107
0.298 -0.158 -0.123
0.304 -0.158 -0.125
0.307 -0.156 -0.126
0.311 -0.155 -0.127
0.315 -0.154 -0.129
0.319 -0.152 -0.130
0.324 -0.151 -0.132
0.324 -0.148 -0.132
0.325 -0.145 -0.132
0.320 -0.139 -0.130
0.306 -0.127 -0.124
0.288 -0.111 -0.116
0.355 -0.133 -0.143
0.358 -0.131 -0.144
0.363 -0.129 -0.145
0.366 -0.126 -0.146
0.373 -0.125 -0.149
0.383 -0.124 -0.153
0.388 -0.122 -0.155
0.393 -0.120 -0.157
0.398 -0.118 -0.158
1.329 -0.367 -0.528
1.320 -0.352 -0.523
1.317 -0.338 -0.522
0.361 -0.072 -0.142
0.294 -0.053 -0.116
0.278 -0.048 -0.110
0.274 -0.044 -0.108
0.278 -0.043 -0.109
0.287 -0.041 -0.113
0.285 -0.038 -0.112
0.278 -0.035 -0.109
0.286 -0.033 -0.112
0.286 -0.030 -0.112
0.278 -0.027 -0.109
0.275 -0.024 -0.108
0.285 -0.022 -0.112
0.288 -0.020 -0.113
0.289 -0.017 -0.113
0.290 -0.015 -0.114
0.296 -0.012 -0.116
0.296 -0.010 -0.116
0.294 -0.007 -0.115
0.296 -0.004 -0.116
0.298 -0.001 -0.117
0.298 0.001 -0.117
0.289 0.004 -0.113
0.285 0.007 -0.112
0.299 0.010 -0.117
0.300 0.015 -0.117
0.295 0.018 -0.116
0.294 0.020 -0.115
0.292 0.023 -0.114
0.297 0.026 -0.117
0.276 0.030 -0.109
0.284 0.033 -0.112
0.276 0.035 -0.109
0.272 0.037 -0.107
0.286 0.044 -0.113
0.297 0.051 -0.117
0.297 0.054 -0.117
0.307 0.059 -0.121
0.303 0.061 -0.120
0.291 0.061 -0.115
0.281 0.062 -0.111
0.280 0.064 -0.111
0.287 0.069 -0.114
0.299 0.074 -0.119
0.307 0.079 -0.122
0.309 0.083 -0.123
0.298 0.083 -0.119
0.288 0.083 -0.115
0.298 0.089 -0.119
0.304 0.094 -0.122
0.298 0.095 -0.119
0.295 0.097 -0.118
0.293 0.102 -0.118
0.287 0.103 -0.116
0.288 0.106 -0.116
0.275 0.107 -0.112
0.311 0.124 -0.126
0.317 0.130 -0.129
0.306 0.128 -0.124
0.310 0.133 -0.127
0.314 0.138 -0.128
0.308 0.139 -0.126
0.301 0.139 -0.123
0.297 0.140 -0.122
0.296 0.143 -0.122
0.295 0.146 -0.122
0.291 0.147 -0.121
0.289 0.149 -0.120
0.292 0.154 -0.121
0.288 0.155 -0.120
0.288 0.158 -0.120
0.287 0.161 -0.120
0.286 0.164 -0.120
0.287 0.168 -0.121
0.284 0.169 -0.120
0.277 0.168 -0.117
0.273 0.169 -0.116
0.271 0.172 -0.116
0.272 0.175 -0.116
0.280 0.184 -0.120
0.286 0.192 -0.123
0.343 -0.426 -0.167
0.347 -0.424 -0.168
0.338 -0.408 -0.163
0.332 -0.395 -0.159
0.332 -0.389 -0.158
0.321 -0.371 -0.153
0.333 -0.379 -0.157
0.327 -0.367 -0.154
0.327 -0.361 -0.153
0.326 -0.355 -0.152
0.327 -0.351 -0.152
0.327 -0.346 -0.151
0.329 -0.343 -0.151
0.332 -0.340 -0.152
0.327 -0.329 -0.149
0.326 -0.324 -0.148
0.325 -0.318 -0.147
0.322 -0.310 -0.145
0.320 -0.303 -0.143
0.322 -0.300 -0.143
0.322 -0.295 -0.143
0.322 -0.290 -0.142
0.318 -0.282 -0.140
0.315 -0.275 -0.138
0.317 -0.272 -0.138
0.318 -0.269 -0.138
0.315 -0.262 -0.136
0.312 -0.255 -0.134
0.316 -0.255 -0.136
0.317 -0.251 -0.136
0.316 -0.246 -0.135
0.312 -0.239 -0.133
0.314 -0.237 -0.133
0.315 -0.233 -0.133
0.307 -0.223 -0.129
0.308 -0.220 -0.129
0.308 -0.216 -0.129
0.307 -0.212 -0.128
0.301 -0.205 -0.125
0.299 -0.199 -0.124
0.296 -0.193 -0.122
0.213 -0.132 -0.087
0.207 -0.126 -0.085
0.206 -0.123 -0.084
0.210 -0.123 -0.086
0.250 -0.141 -0.101
0.247 -0.136 -0.100
0.247 -0.134 -0.100
0.301 -0.156 -0.121
0.307 -0.156 -0.123
0.310 -0.154 -0.124
0.315 -0.153 -0.126
0.319 -0.152 -0.127
0.321 -0.150 -0.128
0.324 -0.147 -0.128
0.325 -0.144 -0.129
0.324 -0.141 -0.128
0.297 -0.123 -0.117
0.281 -0.108 -0.110
0.356 -0.133 -0.139
0.358 -0.130 -0.140
0.361 -0.128 -0.141
0.366 -0.126 -0.143
0.372 -0.124 -0.145
0.379 -0.123 -0.147
0.386 -0.121 -0.150
0.392 -0.120 -0.152
0.403 -0.119 -0.156
0.410 -0.117 -0.159
1.310 -0.349 -0.507
1.311 -0.336 -0.506
0.348 -0.069 -0.134
0.298 -0.054 -0.114
0.284 -0.049 -0.109
0.271 -0.044 -0.104
0.274 -0.042 -0.105
0.285 -0.041 -0.109
0.285 -0.038 -0.109
0.280 -0.035 -0.107
0.288 -0.033 -0.110
0.280 -0.030 -0.107
0.276 -0.027 -0.106
0.277 -0.024 -0.106
0.272 -0.021 -0.104
0.286 -0.020 -0.109
0.289 -0.017 -0.111
0.280 -0.014 -0.107
0.281 -0.012 -0.107
0.288 -0.009 -0.110
0.291 -0.007 -0.111
0.299 -0.004 -0.114
0.299 -0.001 -0.114
0.289 0.004 -0.110
0.272 0.006 -0.104
0.272 0.009 -0.104
0.293 0.012 -0.112
0.292 0.015 -0.112
0.290 0.017 -0.111
0.287 0.020 -0.110
0.292 0.023 -0.112
0.289 0.025 -0.111
0.292 0.028 -0.112
0.287 0.031 -0.110
0.284 0.033 -0.109
0.283 0.035 -0.108
0.278 0.037 -0.106
0.282 0.041 -0.108
0.311 0.051 -0.120
0.298 0.054 -0.115
0.289 0.055 -0.111
0.289 0.058 -0.111
0.284 0.060 -0.110
0.281 0.062 -0.109
0.274 0.063 -0.106
0.279 0.067 -0.108
0.295 0.073 -0.114
0.307 0.079 -0.119
0.313 0.084 -0.121
0.315 0.091 -0.123
0.307 0.091 -0.120
0.291 0.089 -0.114
0.289 0.092 -0.113
0.297 0.097 -0.116
0.301 0.102 -0.118
0.307 0.107 -0.121
0.305 0.109 -0.120
0.295 0.108 -0.116
0.321 0.128 -0.127
0.321 0.131 -0.127
0.314 0.132 -0.125
0.313 0.134 -0.124
0.315 0.139 -0.126
0.312 0.141 -0.125
0.303 0.140 -0.121
0.303 0.143 -0.121
0.300 0.145 -0.120
0.297 0.147 -0.120
0.291 0.147 -0.117
0.287 0.148 -0.116
0.289 0.152 -0.117
0.296 0.159 -0.120
0.289 0.159 -0.118
0.284 0.159 -0.116
0.282 0.162 -0.116
0.287 0.167 -0.118
0.298 0.178 -0.123
0.283 0.172 -0.117
0.328 -0.434 -0.158
0.338 -0.418 -0.160
0.341 -0.417 -0.161
0.338 -0.407 -0.158
0.333 -0.396 -0.155
0.327 -0.383 -0.152
0.325 -0.375 -0.150
0.327 -0.372 -0.151
0.329 -0.368 -0.151
0.328 -0.362 -0.150
0.326 -0.355 -0.148
0.324 -0.347 -0.146
0.324 -0.342 -0.146
0.328 -0.340 -0.147
0.329 -0.336 -0.147
0.327 -0.329 -0.145
0.325 -0.322 -0.144
0.323 -0.315 -0.142
0.321 -0.309 -0.141
0.321 -0.304 -0.140
0.322 -0.299 -0.140
0.323 -0.296 -0.140
0.319 -0.288 -0.137
0.314 -0.279 -0.135
0.312 -0.272 -0.133
0.315 -0.271 -0.134
0.317 -0.267 -0.134
0.314 -0.261 -0.132
0.311 -0.255 -0.131
0.309 -0.249 -0.129
0.312 -0.247 -0.130
0.312 -0.242 -0.130
0.312 -0.238 -0.129
0.310 -0.233 -0.128
0.309 -0.229 -0.127
0.308 -0.224 -0.126
0.304 -0.217 -0.124
0.305 -0.214 -0.124
0.304 -0.209 -0.123
0.297 -0.201 -0.120
0.296 -0.197 -0.120
0.297 -0.194 -0.120
0.213 -0.132 -0.085
0.208 -0.126 -0.083
0.207 -0.123 -0.082
0.207 -0.121 -0.082
0.213 -0.122 -0.084
0.248 -0.139 -0.098
0.244 -0.135 -0.096
0.245 -0.132 -0.096
0.246 -0.130 -0.097
0.305 -0.155 -0.119
0.310 -0.154 -0.121
0.314 -0.152 -0.122
0.318 -0.151 -0.123
0.321 -0.149 -0.124
0.322 -0.146 -0.124
0.324 -0.144 -0.125
0.323 -0.140 -0.124
0.253 -0.100 -0.097
0.353 -0.132 -0.135
0.356 -0.129 -0.136
0.359 -0.127 -0.137
0.363 -0.125 -0.138
0.370 -0.123 -0.140
0.376 -0.122 -0.143
0.384 -0.121 -0.145
0.390 -0.119 -0.148
0.399 -0.118 -0.151
0.404 -0.115 -0.153
0.405 -0.112 -0.153
0.372 -0.078 -0.140
0.290 -0.052 -0.109
0.279 -0.048 -0.104
0.276 -0.045 -0.103
0.277 -0.042 -0.103
0.289 -0.041 -0.108
0.294 -0.039 -0.110
0.290 -0.036 -0.108
0.285 -0.033 -0.106
0.282 -0.030 -0.105
0.282 -0.027 -0.105
0.281 -0.025 -0.105
0.281 -0.022 -0.104
0.285 -0.020 -0.106
0.285 -0.017 -0.106
0.282 -0.014 -0.105
0.279 -0.012 -0.104
0.283 -0.009 -0.105
0.295 -0.007 -0.110
0.295 -0.004 -0.110
0.296 -0.001 -0.110
0.296 0.001 -0.110
0.288 0.004 -0.107
0.278 0.006 -0.103
0.282 0.009 -0.105
0.287 0.012 -0.107
0.292 0.015 -0.109
0.289 0.017 -0.108
0.295 0.020 -0.110
0.284 0.022 -0.106
0.291 0.026 -0.109
0.298 0.029 -0.111
0.302 0.032 -0.113
0.300 0.035 -0.112
0.285 0.036 -0.107
0.281 0.038 -0.105
0.295 0.042 -0.110
0.308 0.047 -0.115
0.312 0.051 -0.117
0.313 0.054 -0.117
0.292 0.053 -0.109
0.284 0.054 -0.107
0.276 0.055 -0.104
0.286 0.060 -0.107
0.281 0.062 -0.106
0.268 0.064 -0.101
0.283 0.070 -0.107
0.296 0.076 -0.112
0.304 0.081 -0.115
0.315 0.087 -0.119
0.320 0.092 -0.121
0.300 0.089 -0.114
0.293 0.090 -0.111
0.291 0.092 -0.111
0.296 0.097 -0.113
0.305 0.103 -0.116
0.308 0.107 -0.118
0.306 0.109 -0.117
0.303 0.111 -0.116
0.323 0.122 -0.124
0.316 0.123 -0.122
0.323 0.128 -0.125
0.321 0.131 -0.124
0.317 0.133 -0.123
0.317 0.136 -0.123
0.319 0.140 -0.124
0.309 0.139 -0.120
0.307 0.141 -0.120
0.303 0.143 -0.118
0.299 0.144 -0.117
0.300 0.148 -0.118
0.294 0.151 -0.116
0.310 0.166 -0.123
0.297 0.163 -0.118
0.297 0.166 -0.118
0.331 -0.438 -0.156
0.332 -0.433 -0.155
0.326 -0.420 -0.152
0.324 -0.412 -0.150
0.329 -0.412 -0.152
0.333 -0.411 -0.153
0.332 -0.405 -0.152
0.332 -0.399 -0.151
0.331 -0.392 -0.150
0.326 -0.381 -0.148
0.324 -0.373 -0.146
0.323 -0.367 -0.145
0.324 -0.363 -0.145
0.326 -0.359 -0.145
0.325 -0.353 -0.144
0.322 -0.344 -0.141
0.323 -0.339 -0.141
0.327 -0.339 -0.143
0.328 -0.335 -0.142
0.325 -0.327 -0.140
0.322 -0.318 -0.138
0.321 -0.312 -0.137
0.321 -0.307 -0.136
0.320 -0.302 -0.136
0.321 -0.298 -0.135
0.318 -0.290 -0.134
0.313 -0.281 -0.131
0.311 -0.275 -0.130
0.311 -0.271 -0.129
0.314 -0.269 -0.130
0.316 -0.266 -0.130
0.313 -0.260 -0.129
0.310 -0.253 -0.127
0.309 -0.248 -0.126
0.309 -0.244 -0.125
0.310 -0.240 -0.125
0.309 -0.236 -0.125
0.308 -0.231 -0.124
0.306 -0.226 -0.123
0.305 -0.221 -0.122
0.304 -0.216 -0.121
0.300 -0.210 -0.119
0.299 -0.206 -0.118
0.298 -0.201 -0.118
0.295 -0.196 -0.116
0.290 -0.189 -0.114
0.217 -0.134 -0.084
0.208 -0.126 -0.081
0.208 -0.124 -0.080
0.209 -0.122 -0.081
0.213 -0.122 -0.082
0.245 -0.137 -0.094
0.244 -0.134 -0.094
0.244 -0.132 -0.093
0.245 -0.130 -0.094
0.254 -0.131 -0.097
0.300 -0.152 -0.114
0.308 -0.153 -0.117
0.311 -0.151 -0.118
0.315 -0.149 -0.119
0.319 -0.148 -0.120
0.321 -0.146 -0.121
0.322 -0.143 -0.121
0.316 -0.137 -0.119
0.336 -0.129 -0.125
0.350 -0.130 -0.130
0.354 -0.128 -0.131
0.359 -0.127 -0.133
0.361 -0.124 -0.134
0.365 -0.122 -0.135
0.375 -0.121 -0.138
0.384 -0.120 -0.142
0.389 -0.118 -0.143
0.395 -0.116 -0.146
0.404 -0.115 -0.148
0.408 -0.112 -0.150
0.413 -0.110 -0.152
0.386 -0.080 -0.141
0.291 -0.053 -0.106
0.278 -0.048 -0.101
0.278 -0.045 -0.101
0.291 -0.044 -0.106
0.299 -0.043 -0.109
0.287 -0.038 -0.104
0.294 -0.037 -0.107
0.293 -0.034 -0.106
0.290 -0.031 -0.105
0.289 -0.028 -0.105
0.285 -0.025 -0.103
0.283 -0.022 -0.102
0.283 -0.020 -0.103
0.290 -0.017 -0.105
0.296 -0.015 -0.107
0.289 -0.012 -0.105
0.282 -0.009 -0.102
0.292 -0.007 -0.106
0.292 -0.004 -0.106
0.297 -0.001 -0.107
0.297 0.001 -0.108
0.294 0.004 -0.107
0.284 0.007 -0.103
0.303 0.010 -0.110
0.293 0.012 -0.106
0.288 0.015 -0.105
0.298 0.018 -0.108
0.311 0.022 -0.113
0.311 0.024 -0.113
0.295 0.026 -0.107
0.303 0.029 -0.110
0.306 0.033 -0.111
0.302 0.035 -0.110
0.290 0.036 -0.106
0.292 0.039 -0.106
0.303 0.044 -0.110
0.310 0.048 -0.113
0.310 0.050 -0.113
0.307 0.053 -0.112
0.305 0.055 -0.111
0.273 0.052 -0.100
0.277 0.055 -0.101
0.283 0.059 -0.103
0.282 0.062 -0.103
0.271 0.062 -0.099
0.281 0.067 -0.103
0.281 0.070 -0.103
0.285 0.074 -0.105
0.299 0.080 -0.110
0.309 0.086 -0.114
0.306 0.088 -0.113
0.307 0.091 -0.113
0.297 0.091 -0.110
0.296 0.094 -0.110
0.296 0.097 -0.110
0.302 0.102 -0.112
0.299 0.104 -0.111
0.296 0.105 -0.110
0.296 0.108 -0.110
0.309 0.116 -0.116
0.329 0.127 -0.123
0.325 0.129 -0.122
0.320 0.130 -0.120
0.319 0.133 -0.120
0.321 0.137 -0.121
0.324 0.142 -0.123
0.319 0.143 -0.121
0.311 0.143 -0.118
0.307 0.144 -0.117
0.302 0.145 -0.115
0.303 0.149 -0.116
0.331 -0.443 -0.152
0.334 -0.440 -0.152
0.332 -0.432 -0.151
0.329 -0.424 -0.149
0.330 -0.419 -0.149
0.331 -0.415 -0.149
0.328 -0.405 -0.147
0.327 -0.398 -0.146
0.327 -0.393 -0.145
0.327 -0.387 -0.145
0.326 -0.380 -0.143
0.325 -0.373 -0.142
0.323 -0.366 -0.141
0.323 -0.361 -0.140
0.324 -0.356 -0.140
0.323 -0.350 -0.139
0.322 -0.344 -0.138
0.323 -0.339 -0.138
0.325 -0.336 -0.138
0.323 -0.329 -0.136
0.320 -0.321 -0.134
0.319 -0.315 -0.133
0.320 -0.311 -0.133
0.319 -0.305 -0.132
0.316 -0.297 -0.130
0.316 -0.293 -0.130
0.315 -0.287 -0.129
0.312 -0.280 -0.127
0.311 -0.275 -0.126
0.312 -0.271 -0.126
0.315 -0.269 -0.127
0.315 -0.265 -0.126
0.314 -0.259 -0.125
0.310 -0.253 -0.123
0.309 -0.248 -0.123
0.309 -0.243 -0.122
0.307 -0.238 -0.121
0.307 -0.234 -0.120
0.306 -0.229 -0.120
0.304 -0.224 -0.119
0.303 -0.219 -0.118
0.301 -0.214 -0.117
0.299 -0.209 -0.116
0.298 -0.205 -0.115
0.297 -0.200 -0.114
0.294 -0.195 -0.112
0.289 -0.188 -0.110
0.242 -0.152 -0.092
0.232 -0.143 -0.088
0.208 -0.126 -0.079
0.208 -0.124 -0.078
0.210 -0.122 -0.079
0.212 -0.121 -0.079
0.246 -0.138 -0.092
0.244 -0.134 -0.091
0.244 -0.132 -0.091
0.245 -0.129 -0.091
0.249 -0.129 -0.092
0.300 -0.152 -0.111
0.306 -0.151 -0.113
0.310 -0.150 -0.114
0.313 -0.148 -0.115
0.316 -0.147 -0.116
0.319 -0.144 -0.117
0.319 -0.141 -0.117
0.310 -0.134 -0.113
0.347 -0.129 -0.126
0.352 -0.128 -0.127
0.359 -0.126 -0.129
0.361 -0.124 -0.130
0.364 -0.121 -0.131
0.370 -0.119 -0.133
0.385 -0.121 -0.138
0.391 -0.119 -0.140
0.395 -0.116 -0.142
0.406 -0.115 -0.145
0.421 -0.115 -0.150
0.421 -0.111 -0.150
0.416 -0.106 -0.148
0.358 -0.074 -0.127
0.346 -0.069 -0.123
0.288 -0.052 -0.102
0.284 -0.048 -0.101
0.283 -0.046 -0.100
0.282 -0.043 -0.100
0.284 -0.041 -0.100
0.286 -0.038 -0.101
0.293 -0.036 -0.104
0.302 -0.035 -0.107
0.305 -0.032 -0.108
0.296 -0.029 -0.105
0.287 -0.025 -0.101
0.281 -0.022 -0.099
0.284 -0.020 -0.100
0.300 -0.018 -0.106
0.308 -0.016 -0.109
0.301 -0.012 -0.106
0.289 -0.009 -0.102
0.284 -0.006 -0.100
0.300 -0.004 -0.106
0.301 -0.001 -0.106
0.301 0.001 -0.106
0.300 0.004 -0.106
0.294 0.007 -0.104
0.300 0.010 -0.106
0.312 0.013 -0.110
0.310 0.016 -0.109
0.315 0.019 -0.111
0.323 0.022 -0.114
0.320 0.025 -0.113
0.322 0.028 -0.114
0.304 0.029 -0.107
0.298 0.032 -0.105
0.294 0.034 -0.104
0.290 0.036 -0.103
0.301 0.040 -0.107
0.305 0.044 -0.108
0.307 0.047 -0.109
0.301 0.049 -0.107
0.306 0.053 -0.109
0.291 0.053 -0.103
0.289 0.055 -0.103
0.288 0.058 -0.103
0.291 0.061 -0.104
0.286 0.063 -0.102
0.293 0.067 -0.105
0.292 0.070 -0.104
0.289 0.080 -0.104
0.308 0.088 -0.111
0.310 0.092 -0.111
0.308 0.094 -0.111
0.298 0.094 -0.107
0.300 0.098 -0.108
0.301 0.101 -0.109
0.297 0.103 -0.108
0.292 0.104 -0.106
0.294 0.107 -0.107
0.300 0.113 -0.109
0.324 0.142 -0.119
0.320 0.144 -0.118
0.326 -0.442 -0.146
0.330 -0.441 -0.147
0.330 -0.435 -0.147
0.329 -0.428 -0.146
0.328 -0.422 -0.145
0.330 -0.418 -0.145
0.331 -0.413 -0.145
0.326 -0.402 -0.142
0.324 -0.394 -0.140
0.323 -0.387 -0.139
0.323 -0.382 -0.139
0.324 -0.378 -0.139
0.325 -0.373 -0.138
0.323 -0.365 -0.137
0.323 -0.360 -0.136
0.322 -0.353 -0.135
0.322 -0.348 -0.134
0.321 -0.342 -0.134
0.321 -0.337 -0.133
0.321 -0.331 -0.132
0.318 -0.323 -0.130
0.317 -0.317 -0.129
0.317 -0.313 -0.129
0.318 -0.308 -0.128
0.315 -0.300 -0.127
0.314 -0.295 -0.126
0.315 -0.291 -0.126
0.315 -0.287 -0.125
0.314 -0.281 -0.124
0.311 -0.274 -0.123
0.313 -0.271 -0.123
0.314 -0.268 -0.123
0.315 -0.264 -0.123
0.313 -0.259 -0.121
0.310 -0.252 -0.120
0.307 -0.245 -0.118
0.307 -0.241 -0.118
0.306 -0.237 -0.117
0.306 -0.232 -0.117
0.305 -0.228 -0.116
0.305 -0.224 -0.116
0.300 -0.217 -0.113
0.299 -0.213 -0.113
0.299 -0.209 -0.112
0.296 -0.203 -0.111
0.295 -0.199 -0.110
0.292 -0.193 -0.108
0.290 -0.188 -0.107
0.209 -0.126 -0.077
0.207 -0.123 -0.076
0.208 -0.121 -0.076
0.209 -0.119 -0.076
0.242 -0.135 -0.088
0.244 -0.134 -0.089
0.245 -0.132 -0.089
0.246 -0.130 -0.089
0.247 -0.127 -0.089
0.292 -0.148 -0.105
0.307 -0.152 -0.110
0.310 -0.150 -0.111
0.312 -0.148 -0.112
0.315 -0.146 -0.112
0.317 -0.143 -0.113
0.318 -0.141 -0.113
0.315 -0.136 -0.112
0.346 -0.128 -0.122
0.352 -0.127 -0.123
0.357 -0.125 -0.125
0.363 -0.124 -0.127
0.367 -0.122 -0.128
0.382 -0.123 -0.134
0.390 -0.122 -0.136
0.392 -0.119 -0.137
0.398 -0.117 -0.139
0.407 -0.115 -0.142
0.421 -0.116 -0.146
0.426 -0.113 -0.148
0.423 -0.108 -0.147
0.421 -0.103 -0.146
0.360 -0.078 -0.125
0.363 -0.075 -0.125
0.358 -0.071 -0.124
0.280 -0.048 -0.096
0.279 -0.045 -0.096
0.280 -0.043 -0.096
0.281 -0.040 -0.097
0.285 -0.038 -0.098
0.293 -0.036 -0.101
0.306 -0.035 -0.105
0.308 -0.033 -0.106
0.300 -0.029 -0.103
0.288 -0.025 -0.099
0.288 -0.022 -0.099
0.299 -0.021 -0.103
0.315 -0.016 -0.108
0.310 -0.013 -0.106
0.293 -0.009 -0.100
0.289 -0.007 -0.099
0.282 -0.004 -0.097
0.301 -0.001 -0.103
0.305 0.001 -0.105
0.310 0.004 -0.106
0.305 0.007 -0.105
0.303 0.010 -0.104
0.306 0.013 -0.105
0.314 0.016 -0.108
0.313 0.019 -0.107
0.318 0.022 -0.109
0.319 0.025 -0.109
0.315 0.028 -0.108
0.308 0.030 -0.106
0.297 0.032 -0.102
0.285 0.033 -0.098
0.300 0.037 -0.103
0.310 0.042 -0.107
0.307 0.044 -0.106
0.299 0.046 -0.103
0.302 0.049 -0.104
0.289 0.050 -0.100
0.287 0.052 -0.099
0.298 0.057 -0.103
0.307 0.061 -0.106
0.305 0.064 -0.106
0.308 0.067 -0.107
0.305 0.069 -0.106
0.306 0.073 -0.107
0.322 0.080 -0.112
0.308 0.079 -0.107
0.276 0.076 -0.096
0.283 0.081 -0.099
0.308 0.091 -0.108
0.303 0.093 -0.106
0.296 0.093 -0.104
0.299 0.097 -0.105
0.310 0.107 -0.109
0.305 0.108 -0.108
0.288 0.105 -0.102
0.290 0.109 -0.103
0.286 0.110 -0.102
0.316 0.138 -0.113
0.317 0.142 -0.114
0.325 -0.439 -0.141
0.325 -0.433 -0.141
0.326 -0.430 -0.141
0.327 -0.425 -0.141
0.325 -0.417 -0.139
0.324 -0.410 -0.138
0.323 -0.403 -0.137
0.323 -0.398 -0.137
0.322 -0.391 -0.135
0.320 -0.382 -0.134
0.322 -0.379 -0.134
0.323 -0.375 -0.134
0.324 -0.371 -0.134
0.323 -0.364 -0.133
0.321 -0.357 -0.132
0.322 -0.352 -0.131
0.321 -0.346 -0.130
0.320 -0.340 -0.129
0.316 -0.331 -0.127
0.313 -0.323 -0.125
0.312 -0.316 -0.124
0.310 -0.309 -0.123
0.313 -0.308 -0.124
0.315 -0.305 -0.124
0.314 -0.300 -0.123
0.313 -0.293 -0.122
0.313 -0.289 -0.121
0.314 -0.285 -0.121
0.311 -0.278 -0.120
0.312 -0.275 -0.120
0.310 -0.268 -0.118
0.310 -0.264 -0.118
0.313 -0.263 -0.119
0.312 -0.258 -0.118
0.306 -0.249 -0.115
0.306 -0.244 -0.114
0.306 -0.240 -0.114
0.306 -0.236 -0.114
0.305 -0.232 -0.113
0.304 -0.227 -0.112
0.301 -0.221 -0.111
0.296 -0.214 -0.109
0.294 -0.208 -0.107
0.231 -0.147 -0.083
0.226 -0.141 -0.081
0.224 -0.137 -0.080
0.210 -0.127 -0.075
0.207 -0.122 -0.074
0.208 -0.121 -0.074
0.209 -0.119 -0.074
0.244 -0.134 -0.086
0.245 -0.131 -0.086
0.245 -0.129 -0.086
0.245 -0.126 -0.086
0.307 -0.152 -0.107
0.309 -0.149 -0.108
0.312 -0.147 -0.108
0.315 -0.145 -0.109
0.317 -0.143 -0.110
0.323 -0.143 -0.112
0.323 -0.140 -0.112
0.244 -0.100 -0.084
0.351 -0.127 -0.120
0.355 -0.125 -0.121
0.362 -0.124 -0.123
0.374 -0.124 -0.127
0.386 -0.124 -0.131
0.393 -0.123 -0.133
0.396 -0.120 -0.134
0.399 -0.117 -0.135
0.409 -0.116 -0.138
0.420 -0.115 -0.142
0.425 -0.112 -0.143
0.433 -0.110 -0.146
0.436 -0.107 -0.147
0.370 -0.080 -0.124
0.383 -0.080 -0.129
0.374 -0.074 -0.125
0.294 -0.053 -0.098
0.281 -0.048 -0.094
0.278 -0.045 -0.093
0.279 -0.042 -0.093
0.280 -0.040 -0.093
0.283 -0.038 -0.095
0.288 -0.036 -0.096
0.290 -0.033 -0.097
0.293 -0.031 -0.098
0.307 -0.030 -0.103
0.291 -0.025 -0.097
0.294 -0.023 -0.098
0.298 -0.020 -0.099
0.300 -0.018 -0.100
0.301 -0.015 -0.100
0.306 -0.013 -0.102
0.297 -0.010 -0.099
0.292 -0.007 -0.097
0.296 -0.004 -0.099
0.302 -0.001 -0.101
0.317 0.001 -0.106
0.319 0.004 -0.106
0.311 0.007 -0.104
0.309 0.010 -0.103
0.305 0.013 -0.102
0.307 0.016 -0.102
0.303 0.018 -0.101
0.307 0.021 -0.102
0.309 0.024 -0.103
0.311 0.027 -0.104
0.306 0.030 -0.102
0.302 0.032 -0.101
0.303 0.035 -0.101
0.304 0.038 -0.102
0.311 0.042 -0.104
0.300 0.043 -0.101
0.302 0.046 -0.101
0.301 0.049 -0.101
0.294 0.050 -0.099
0.286 0.052 -0.096
0.305 0.058 -0.102
0.308 0.061 -0.104
0.310 0.065 -0.104
0.306 0.067 -0.103
0.306 0.070 -0.103
0.308 0.073 -0.104
0.307 0.076 -0.104
0.286 0.076 -0.097
0.275 0.076 -0.093
0.284 0.081 -0.096
0.293 0.087 -0.100
0.309 0.094 -0.105
0.316 0.099 -0.108
0.302 0.098 -0.103
0.307 0.103 -0.105
0.320 0.110 -0.110
0.312 0.111 -0.107
0.284 0.104 -0.098
0.277 0.104 -0.095
0.289 0.111 -0.099
0.323 0.144 -0.112
0.321 -0.433 -0.136
0.321 -0.428 -0.135
0.322 -0.424 -0.135
0.325 -0.422 -0.136
0.326 -0.418 -0.136
0.319 -0.403 -0.132
0.317 -0.395 -0.131
0.319 -0.392 -0.131
0.321 -0.389 -0.131
0.321 -0.384 -0.131
0.322 -0.379 -0.130
0.321 -0.373 -0.130
0.321 -0.367 -0.129
0.319 -0.359 -0.127
0.318 -0.353 -0.126
0.317 -0.347 -0.126
0.320 -0.344 -0.126
0.316 -0.335 -0.124
0.311 -0.325 -0.121
0.308 -0.316 -0.119
0.307 -0.311 -0.119
0.308 -0.308 -0.119
0.312 -0.306 -0.119
0.314 -0.304 -0.120
0.312 -0.297 -0.119
0.312 -0.292 -0.118
0.311 -0.286 -0.117
0.308 -0.279 -0.115
0.309 -0.276 -0.115
0.309 -0.272 -0.115
0.309 -0.267 -0.114
0.307 -0.261 -0.113
0.307 -0.257 -0.113
0.308 -0.254 -0.113
0.307 -0.248 -0.112
0.305 -0.243 -0.111
0.304 -0.239 -0.110
0.303 -0.234 -0.109
0.301 -0.228 -0.108
0.299 -0.223 -0.107
0.295 -0.216 -0.105
0.293 -0.211 -0.104
0.286 -0.202 -0.101
0.207 -0.142 -0.073
0.207 -0.139 -0.073
0.208 -0.137 -0.073
0.209 -0.135 -0.073
0.223 -0.142 -0.078
0.225 -0.141 -0.078
0.225 -0.138 -0.078
0.222 -0.134 -0.077
0.208 -0.123 -0.072
0.208 -0.121 -0.072
0.210 -0.119 -0.072
0.220 -0.123 -0.076
0.243 -0.133 -0.083
0.244 -0.131 -0.083
0.242 -0.127 -0.083
0.243 -0.125 -0.083
0.251 -0.127 -0.085
0.305 -0.151 -0.103
0.309 -0.149 -0.104
0.312 -0.147 -0.105
0.315 -0.146 -0.106
0.317 -0.143 -0.107
0.320 -0.141 -0.107
0.311 -0.134 -0.104
0.286 -0.109 -0.095
0.351 -0.127 -0.116
0.355 -0.124 -0.117
0.360 -0.123 -0.119
0.368 -0.122 -0.122
0.384 -0.123 -0.127
0.392 -0.122 -0.129
0.397 -0.120 -0.131
0.400 -0.117 -0.132
0.412 -0.117 -0.135
0.424 -0.116 -0.139
0.429 -0.113 -0.141
0.434 -0.111 -0.142
0.443 -0.109 -0.145
0.381 -0.083 -0.124
0.389 -0.081 -0.127
0.377 -0.075 -0.123
0.283 -0.048 -0.092
0.277 -0.045 -0.090
0.278 -0.042 -0.090
0.280 -0.040 -0.091
0.284 -0.038 -0.092
0.285 -0.035 -0.092
0.282 -0.032 -0.091
0.281 -0.030 -0.091
0.296 -0.028 -0.096
0.307 -0.027 -0.100
0.303 -0.024 -0.098
0.302 -0.021 -0.098
0.299 -0.018 -0.097
0.293 -0.015 -0.095
0.288 -0.012 -0.093
0.295 -0.009 -0.096
0.291 -0.007 -0.094
0.297 -0.004 -0.096
0.307 -0.001 -0.099
0.310 0.001 -0.100
0.310 0.004 -0.101
0.309 0.007 -0.100
0.305 0.010 -0.099
0.310 0.013 -0.100
0.301 0.015 -0.098
0.298 0.018 -0.097
0.301 0.021 -0.098
0.306 0.024 -0.099
0.308 0.027 -0.100
0.305 0.029 -0.099
0.310 0.033 -0.101
0.313 0.036 -0.102
0.318 0.040 -0.103
0.297 0.040 -0.097
0.304 0.043 -0.099
0.313 0.048 -0.102
0.315 0.051 -0.103
0.311 0.053 -0.101
0.301 0.054 -0.098
0.294 0.056 -0.096
0.304 0.061 -0.099
0.303 0.063 -0.099
0.303 0.066 -0.099
0.303 0.069 -0.099
0.301 0.071 -0.099
0.308 0.076 -0.101
0.303 0.078 -0.100
0.283 0.075 -0.093
0.291 0.083 -0.096
0.297 0.087 -0.098
0.304 0.093 -0.101
0.316 0.099 -0.105
0.308 0.100 -0.102
0.308 0.103 -0.102
0.311 0.107 -0.104
0.301 0.107 -0.100
0.293 0.107 -0.098
0.291 0.109 -0.097
0.293 0.113 -0.098
0.330 0.151 -0.112
0.322 0.171 -0.111
0.319 -0.436 -0.131
0.320 -0.431 -0.131
0.321 -0.427 -0.131
0.321 -0.422 -0.131
0.321 -0.417 -0.130
0.321 -0.411 -0.129
0.326 -0.412 -0.131
0.319 -0.398 -0.128
0.320 -0.393 -0.128
0.321 -0.389 -0.127
0.321 -0.383 -0.127
0.322 -0.378 -0.126
0.319 -0.369 -0.125
0.318 -0.363 -0.124
0.317 -0.356 -0.123
0.314 -0.348 -0.121
0.314 -0.343 -0.120
0.313 -0.337 -0.120
0.311 -0.329 -0.118
0.307 -0.320 -0.116
0.307 -0.315 -0.115
0.308 -0.311 -0.115
0.311 -0.310 -0.116
0.310 -0.304 -0.115
0.311 -0.300 -0.115
0.315 -0.299 -0.116
0.308 -0.288 -0.113
0.312 -0.287 -0.114
0.308 -0.279 -0.112
0.307 -0.274 -0.111
0.308 -0.270 -0.111
0.307 -0.265 -0.110
0.307 -0.261 -0.110
0.306 -0.256 -0.109
0.306 -0.252 -0.109
0.306 -0.248 -0.108
0.305 -0.243 -0.108
0.302 -0.237 -0.106
0.301 -0.232 -0.105
0.300 -0.227 -0.105
0.295 -0.219 -0.102
0.294 -0.215 -0.102
0.286 -0.206 -0.099
0.241 -0.170 -0.083
0.230 -0.160 -0.079
0.207 -0.141 -0.071
0.207 -0.139 -0.071
0.208 -0.137 -0.071
0.209 -0.135 -0.071
0.222 -0.141 -0.075
0.225 -0.140 -0.076
0.226 -0.139 -0.076
0.226 -0.136 -0.076
0.208 -0.123 -0.070
0.209 -0.121 -0.070
0.210 -0.120 -0.070
0.216 -0.121 -0.072
0.237 -0.130 -0.079
0.242 -0.130 -0.080
0.243 -0.127 -0.080
0.243 -0.125 -0.080
0.247 -0.124 -0.081
0.303 -0.149 -0.099
0.307 -0.148 -0.101
0.311 -0.147 -0.102
0.314 -0.145 -0.103
0.317 -0.143 -0.103
0.318 -0.140 -0.104
0.299 -0.117 -0.097
0.285 -0.108 -0.092
0.301 -0.111 -0.097
0.351 -0.127 -0.113
0.356 -0.125 -0.114
0.361 -0.123 -0.116
0.367 -0.121 -0.118
0.385 -0.124 -0.123
0.389 -0.121 -0.124
0.395 -0.119 -0.126
0.406 -0.119 -0.130
0.409 -0.116 -0.131
0.417 -0.114 -0.133
0.432 -0.114 -0.137
0.438 -0.111 -0.139
0.414 -0.101 -0.132
0.401 -0.094 -0.127
0.382 -0.079 -0.121
0.375 -0.074 -0.119
0.283 -0.048 -0.089
0.277 -0.045 -0.088
0.278 -0.042 -0.088
0.281 -0.040 -0.089
0.283 -0.038 -0.089
0.281 -0.035 -0.088
0.283 -0.032 -0.089
0.283 -0.030 -0.089
0.285 -0.027 -0.090
0.306 -0.027 -0.096
0.299 -0.023 -0.094
0.295 -0.020 -0.093
0.297 -0.018 -0.093
0.292 -0.015 -0.092
0.294 -0.012 -0.092
0.296 -0.009 -0.093
0.295 -0.007 -0.093
0.292 -0.004 -0.092
0.301 -0.001 -0.095
0.305 0.001 -0.096
0.304 0.004 -0.096
0.302 0.007 -0.095
0.311 0.010 -0.098
0.307 0.013 -0.097
0.304 0.015 -0.096
0.299 0.018 -0.094
0.304 0.021 -0.096
0.309 0.024 -0.097
0.309 0.027 -0.097
0.315 0.030 -0.099
0.315 0.033 -0.099
0.322 0.037 -0.101
0.324 0.040 -0.102
0.312 0.042 -0.099
0.311 0.044 -0.098
0.316 0.048 -0.100
0.316 0.051 -0.100
0.310 0.053 -0.098
0.306 0.055 -0.097
0.304 0.058 -0.096
0.299 0.059 -0.095
0.299 0.062 -0.095
0.297 0.065 -0.094
0.297 0.068 -0.095
0.292 0.069 -0.093
0.299 0.074 -0.095
0.299 0.076 -0.095
0.294 0.078 -0.094
0.292 0.080 -0.094
0.290 0.086 -0.093
0.303 0.092 -0.097
0.301 0.095 -0.097
0.305 0.099 -0.098
0.304 0.101 -0.098
0.306 0.105 -0.099
0.304 0.107 -0.098
0.308 0.112 -0.100
0.304 0.114 -0.099
0.309 0.118 -0.100
0.341 0.193 -0.115
0.317 -0.433 -0.127
0.318 -0.429 -0.126
0.319 -0.424 -0.126
0.319 -0.419 -0.126
0.319 -0.414 -0.125
0.320 -0.409 -0.125
0.321 -0.405 -0.125
0.329 -0.408 -0.127
0.321 -0.393 -0.124
0.320 -0.387 -0.123
0.320 -0.381 -0.122
0.318 -0.373 -0.121
0.317 -0.367 -0.120
0.318 -0.362 -0.120
0.317 -0.356 -0.119
0.314 -0.347 -0.117
0.314 -0.342 -0.117
0.313 -0.336 -0.116
0.309 -0.327 -0.114
0.307 -0.320 -0.113
0.308 -0.316 -0.112
0.310 -0.313 -0.113
0.310 -0.308 -0.112
0.310 -0.303 -0.112
0.309 -0.297 -0.111
0.309 -0.293 -0.110
0.310 -0.289 -0.110
0.305 -0.280 -0.108
0.307 -0.278 -0.108
0.308 -0.274 -0.108
0.305 -0.267 -0.107
0.303 -0.261 -0.106
0.304 -0.258 -0.105
0.306 -0.255 -0.106
0.305 -0.250 -0.105
0.305 -0.246 -0.104
0.303 -0.241 -0.104
0.301 -0.235 -0.102
0.299 -0.230 -0.101
0.299 -0.226 -0.101
0.295 -0.219 -0.099
0.292 -0.214 -0.098
0.289 -0.207 -0.097
0.207 -0.141 -0.069
0.207 -0.139 -0.069
0.207 -0.136 -0.068
0.210 -0.136 -0.069
0.222 -0.141 -0.073
0.225 -0.140 -0.074
0.227 -0.139 -0.074
0.229 -0.138 -0.075
0.208 -0.122 -0.068
0.209 -0.121 -0.068
0.210 -0.119 -0.068
0.212 -0.118 -0.068
0.238 -0.130 -0.077
0.240 -0.128 -0.077
0.243 -0.127 -0.078
0.244 -0.125 -0.078
0.249 -0.125 -0.080
0.306 -0.147 -0.097
0.309 -0.145 -0.098
0.311 -0.143 -0.098
0.314 -0.142 -0.099
0.318 -0.140 -0.101
0.247 -0.101 -0.078
0.281 -0.107 -0.088
0.280 -0.104 -0.088
0.351 -0.126 -0.109
0.357 -0.125 -0.111
0.361 -0.123 -0.112
0.371 -0.123 -0.115
0.384 -0.123 -0.119
0.390 -0.121 -0.121
0.395 -0.119 -0.122
0.405 -0.118 -0.125
0.411 -0.116 -0.127
0.421 -0.115 -0.130
0.427 -0.113 -0.132
0.430 -0.109 -0.133
0.423 -0.103 -0.130
0.392 -0.092 -0.121
0.374 -0.081 -0.115
0.380 -0.079 -0.117
0.375 -0.074 -0.115
0.291 -0.052 -0.089
0.283 -0.048 -0.087
0.278 -0.045 -0.085
0.280 -0.042 -0.086
0.283 -0.040 -0.086
0.285 -0.038 -0.087
0.286 -0.035 -0.087
0.284 -0.033 -0.087
0.287 -0.030 -0.088
0.299 -0.029 -0.091
0.291 -0.025 -0.089
0.294 -0.023 -0.090
0.293 -0.020 -0.089
0.296 -0.018 -0.090
0.297 -0.015 -0.091
0.300 -0.012 -0.091
0.304 -0.010 -0.093
0.305 -0.007 -0.093
0.287 -0.004 -0.088
0.283 -0.001 -0.086
0.300 0.001 -0.091
0.298 0.004 -0.091
0.295 0.007 -0.090
0.302 0.010 -0.092
0.305 0.013 -0.093
0.304 0.015 -0.093
0.307 0.018 -0.094
0.310 0.021 -0.095
0.316 0.025 -0.097
0.322 0.028 -0.098
0.318 0.031 -0.097
0.318 0.033 -0.097
0.323 0.037 -0.099
0.320 0.040 -0.098
0.319 0.042 -0.098
0.314 0.045 -0.096
0.314 0.048 -0.096
0.311 0.050 -0.095
0.307 0.052 -0.094
0.310 0.056 -0.095
0.309 0.058 -0.095
0.302 0.060 -0.093
0.299 0.062 -0.092
0.299 0.065 -0.092
0.291 0.066 -0.090
0.291 0.069 -0.090
0.291 0.072 -0.090
0.297 0.076 -0.092
0.298 0.079 -0.092
0.295 0.081 -0.092
0.284 0.081 -0.088
0.292 0.086 -0.091
0.296 0.090 -0.092
0.307 0.096 -0.096
0.310 0.100 -0.097
0.307 0.102 -0.096
0.318 0.109 -0.099
0.320 0.113 -0.100
0.313 0.114 -0.098
0.308 0.115 -0.097
0.306 0.117 -0.096
0.331 0.147 -0.105
0.326 0.148 -0.104
0.321 0.170 -0.104
0.321 0.174 -0.104
0.348 0.193 -0.113
0.316 -0.430 -0.122
0.319 -0.429 -0.123
0.319 -0.424 -0.122
0.320 -0.419 -0.122
0.320 -0.414 -0.122
0.319 -0.407 -0.121
0.320 -0.402 -0.121
0.315 -0.391 -0.118
0.321 -0.393 -0.120
0.319 -0.385 -0.119
0.312 -0.372 -0.116
0.316 -0.371 -0.117
0.317 -0.367 -0.116
0.319 -0.363 -0.116
0.318 -0.357 -0.116
0.316 -0.349 -0.114
0.314 -0.342 -0.113
0.314 -0.336 -0.112
0.312 -0.329 -0.111
0.310 -0.322 -0.110
0.308 -0.316 -0.109
0.310 -0.312 -0.109
0.311 -0.308 -0.109
0.305 -0.298 -0.106
0.306 -0.294 -0.106
0.307 -0.291 -0.106
0.306 -0.285 -0.105
0.307 -0.282 -0.105
0.306 -0.276 -0.104
0.307 -0.273 -0.104
0.301 -0.263 -0.102
0.301 -0.259 -0.101
0.302 -0.256 -0.102
0.302 -0.251 -0.101
0.304 -0.249 -0.101
0.303 -0.245 -0.101
0.302 -0.239 -0.100
0.298 -0.233 -0.098
0.295 -0.226 -0.097
0.295 -0.223 -0.097
0.295 -0.219 -0.096
0.291 -0.212 -0.095
0.286 -0.205 -0.093
0.209 -0.142 -0.067
0.209 -0.140 -0.067
0.208 -0.137 -0.066
0.211 -0.136 -0.067
0.218 -0.138 -0.069
0.223 -0.139 -0.071
0.227 -0.138 -0.072
0.230 -0.138 -0.072
0.209 -0.123 -0.066
0.208 -0.120 -0.065
0.209 -0.118 -0.065
0.211 -0.117 -0.066
0.233 -0.127 -0.073
0.243 -0.130 -0.076
0.244 -0.127 -0.076
0.243 -0.125 -0.075
0.244 -0.123 -0.076
0.252 -0.124 -0.078
0.308 -0.148 -0.095
0.309 -0.145 -0.095
0.311 -0.143 -0.095
0.313 -0.141 -0.096
0.318 -0.140 -0.097
0.314 -0.135 -0.096
0.251 -0.103 -0.076
0.242 -0.097 -0.074
0.274 -0.104 -0.083
0.276 -0.102 -0.084
0.343 -0.123 -0.104
0.354 -0.124 -0.107
0.361 -0.123 -0.109
0.369 -0.122 -0.111
0.378 -0.121 -0.114
0.388 -0.121 -0.116
0.398 -0.120 -0.120
0.405 -0.118 -0.121
0.413 -0.117 -0.124
0.421 -0.115 -0.126
0.428 -0.113 -0.128
0.430 -0.109 -0.128
0.432 -0.106 -0.129
0.423 -0.099 -0.126
0.367 -0.079 -0.109
0.382 -0.079 -0.114
0.381 -0.075 -0.113
0.298 -0.053 -0.088
0.288 -0.049 -0.086
0.285 -0.046 -0.085
0.282 -0.043 -0.083
0.284 -0.040 -0.084
0.287 -0.038 -0.085
0.286 -0.035 -0.085
0.289 -0.033 -0.085
0.284 -0.030 -0.084
0.279 -0.027 -0.082
0.287 -0.025 -0.085
0.283 -0.022 -0.084
0.282 -0.019 -0.083
0.290 -0.017 -0.086
0.299 -0.015 -0.088
0.303 -0.012 -0.089
0.315 -0.010 -0.093
0.298 -0.007 -0.088
0.289 -0.004 -0.085
0.287 -0.001 -0.085
0.294 0.001 -0.087
0.294 0.004 -0.087
0.302 0.007 -0.089
0.302 0.010 -0.089
0.306 0.013 -0.090
0.309 0.016 -0.091
0.311 0.018 -0.092
0.319 0.022 -0.094
0.309 0.024 -0.091
0.304 0.026 -0.090
0.303 0.029 -0.090
0.303 0.032 -0.090
0.304 0.035 -0.090
0.305 0.038 -0.090
0.306 0.041 -0.091
0.310 0.044 -0.092
0.314 0.048 -0.093
0.314 0.050 -0.093
0.323 0.055 -0.096
0.318 0.057 -0.095
0.311 0.059 -0.093
0.303 0.060 -0.090
0.301 0.063 -0.090
0.295 0.064 -0.088
0.297 0.067 -0.089
0.295 0.070 -0.088
0.300 0.074 -0.090
0.307 0.078 -0.092
0.310 0.082 -0.093
0.306 0.084 -0.092
0.296 0.084 -0.089
0.292 0.086 -0.088
0.301 0.091 -0.091
0.310 0.097 -0.093
0.320 0.103 -0.097
0.320 0.107 -0.097
0.318 0.109 -0.096
0.333 0.117 -0.101
0.328 0.119 -0.100
0.297 0.111 -0.090
0.302 0.116 -0.092
0.329 0.146 -0.101
0.320 0.145 -0.099
0.325 0.168 -0.102
0.324 0.172 -0.102
0.330 0.179 -0.104
0.346 0.195 -0.109
0.317 -0.431 -0.119
0.315 -0.424 -0.117
0.320 -0.425 -0.119
0.319 -0.418 -0.118
0.318 -0.411 -0.117
0.317 -0.404 -0.116
0.315 -0.396 -0.115
0.318 -0.395 -0.116
0.319 -0.389 -0.115
0.312 -0.376 -0.112
0.315 -0.374 -0.113
0.312 -0.365 -0.111
0.315 -0.363 -0.112
0.318 -0.361 -0.112
0.317 -0.355 -0.112
0.314 -0.346 -0.110
0.312 -0.339 -0.109
0.313 -0.334 -0.108
0.311 -0.328 -0.107
0.312 -0.324 -0.107
0.309 -0.316 -0.106
0.310 -0.312 -0.105
0.310 -0.307 -0.105
0.304 -0.296 -0.102
0.304 -0.292 -0.102
0.306 -0.289 -0.102
0.306 -0.285 -0.102
0.304 -0.279 -0.101
0.307 -0.277 -0.101
0.304 -0.270 -0.100
0.300 -0.262 -0.098
0.300 -0.257 -0.098
0.301 -0.254 -0.098
0.301 -0.251 -0.098
0.301 -0.246 -0.097
0.301 -0.242 -0.097
0.299 -0.237 -0.096
0.295 -0.230 -0.094
0.293 -0.225 -0.093
0.294 -0.222 -0.093
0.293 -0.217 -0.093
0.288 -0.210 -0.091
0.285 -0.204 -0.089
0.211 -0.144 -0.066
0.208 -0.139 -0.065
0.208 -0.137 -0.064
0.210 -0.135 -0.065
0.218 -0.138 -0.067
0.223 -0.138 -0.068
0.224 -0.137 -0.069
0.225 -0.135 -0.069
0.214 -0.126 -0.065
0.208 -0.120 -0.063
0.208 -0.118 -0.063
0.209 -0.116 -0.063
0.228 -0.124 -0.069
0.243 -0.130 -0.073
0.245 -0.128 -0.074
0.243 -0.124 -0.073
0.245 -0.123 -0.073
0.249 -0.122 -0.074
0.307 -0.147 -0.092
0.310 -0.146 -0.092
0.311 -0.143 -0.092
0.314 -0.141 -0.093
0.317 -0.139 -0.094
0.325 -0.139 -0.096
0.239 -0.095 -0.070
0.255 -0.099 -0.075
0.271 -0.103 -0.080
0.272 -0.100 -0.080
0.345 -0.124 -0.101
0.352 -0.123 -0.103
0.363 -0.123 -0.106
0.369 -0.122 -0.108
0.377 -0.121 -0.110
0.384 -0.119 -0.112
0.393 -0.118 -0.114
0.404 -0.118 -0.117
0.412 -0.116 -0.119
0.420 -0.114 -0.122
0.428 -0.113 -0.124
0.431 -0.109 -0.125
0.436 -0.106 -0.126
0.438 -0.103 -0.126
0.388 -0.080 -0.112
0.385 -0.076 -0.111
0.289 -0.052 -0.083
0.289 -0.049 -0.083
0.288 -0.046 -0.083
0.284 -0.043 -0.082
0.285 -0.040 -0.082
0.285 -0.038 -0.082
0.290 -0.036 -0.083
0.281 -0.032 -0.080
0.275 -0.029 -0.079
0.277 -0.027 -0.079
0.283 -0.025 -0.081
0.289 -0.022 -0.083
0.286 -0.020 -0.082
0.299 -0.018 -0.085
0.303 -0.015 -0.087
0.305 -0.013 -0.087
0.287 -0.009 -0.082
0.294 -0.007 -0.084
0.293 -0.004 -0.084
0.295 -0.001 -0.084
0.298 0.001 -0.085
0.304 0.004 -0.087
0.304 0.007 -0.087
0.313 0.010 -0.090
0.315 0.013 -0.090
0.304 0.015 -0.087
0.301 0.018 -0.086
0.302 0.021 -0.087
0.305 0.024 -0.087
0.307 0.027 -0.088
0.305 0.029 -0.087
0.305 0.032 -0.087
0.308 0.035 -0.088
0.308 0.038 -0.088
0.308 0.041 -0.088
0.308 0.044 -0.088
0.310 0.047 -0.089
0.309 0.050 -0.089
0.311 0.053 -0.090
0.318 0.057 -0.092
0.322 0.061 -0.093
0.316 0.063 -0.091
0.310 0.064 -0.090
0.306 0.066 -0.088
0.303 0.069 -0.088
0.303 0.071 -0.088
0.299 0.073 -0.087
0.307 0.078 -0.089
0.312 0.083 -0.091
0.306 0.084 -0.089
0.301 0.085 -0.088
0.294 0.086 -0.086
0.300 0.091 -0.088
0.315 0.099 -0.092
0.321 0.103 -0.094
0.318 0.106 -0.093
0.320 0.110 -0.094
0.304 0.110 -0.090
0.298 0.111 -0.088
0.286 0.109 -0.084
0.320 0.142 -0.095
0.333 0.151 -0.100
0.316 0.167 -0.096
0.330 0.178 -0.100
0.334 0.184 -0.102
0.325 0.183 -0.099
0.332 0.195 -0.102
0.324 0.194 -0.100
0.327 0.199 -0.101
0.344 0.230 -0.108
0.311 -0.428 -0.113
0.312 -0.424 -0.113
0.313 -0.420 -0.113
0.314 -0.417 -0.113
0.317 -0.414 -0.113
0.314 -0.405 -0.112
0.312 -0.398 -0.111
0.314 -0.394 -0.111
0.316 -0.392 -0.111
0.317 -0.387 -0.111
0.314 -0.378 -0.109
0.311 -0.368 -0.108
0.311 -0.363 -0.107
0.311 -0.358 -0.107
0.311 -0.353 -0.106
0.311 -0.348 -0.106
0.312 -0.343 -0.105
0.312 -0.338 -0.105
0.309 -0.330 -0.104
0.310 -0.326 -0.103
0.310 -0.321 -0.103
0.312 -0.318 -0.103
0.309 -0.310 -0.101
0.306 -0.302 -0.100
0.304 -0.296 -0.099
0.304 -0.291 -0.099
0.305 -0.288 -0.099
0.303 -0.282 -0.098
0.305 -0.279 -0.098
0.304 -0.274 -0.097
0.300 -0.266 -0.095
0.298 -0.260 -0.094
0.299 -0.256 -0.094
0.300 -0.254 -0.094
0.300 -0.249 -0.094
0.299 -0.244 -0.093
0.298 -0.239 -0.092
0.296 -0.234 -0.092
0.296 -0.230 -0.091
0.294 -0.225 -0.090
0.289 -0.218 -0.089
0.288 -0.213 -0.088
0.288 -0.210 -0.088
0.241 -0.173 -0.073
0.236 -0.166 -0.072
0.233 -0.161 -0.070
0.212 -0.144 -0.064
0.208 -0.138 -0.062
0.208 -0.137 -0.062
0.210 -0.135 -0.063
0.213 -0.135 -0.063
0.222 -0.138 -0.066
0.224 -0.136 -0.066
0.223 -0.134 -0.066
0.217 -0.127 -0.064
0.208 -0.120 -0.061
0.208 -0.118 -0.061
0.210 -0.116 -0.061
0.223 -0.121 -0.065
0.242 -0.129 -0.070
0.243 -0.127 -0.071
0.243 -0.124 -0.070
0.243 -0.122 -0.070
0.248 -0.121 -0.072
0.298 -0.143 -0.086
0.308 -0.144 -0.089
0.311 -0.143 -0.089
0.315 -0.141 -0.090
0.316 -0.139 -0.091
0.321 -0.138 -0.092
0.255 -0.099 -0.072
0.266 -0.101 -0.076
0.263 -0.097 -0.074
0.349 -0.125 -0.099
0.353 -0.123 -0.100
0.364 -0.124 -0.103
0.372 -0.122 -0.105
0.376 -0.120 -0.106
0.383 -0.119 -0.108
0.389 -0.117 -0.109
0.398 -0.116 -0.112
0.407 -0.115 -0.114
0.416 -0.113 -0.116
0.419 -0.110 -0.117
0.434 -0.110 -0.121
0.438 -0.107 -0.122
0.438 -0.103 -0.122
0.400 -0.086 -0.112
0.391 -0.081 -0.109
0.377 -0.074 -0.105
0.286 -0.051 -0.079
0.283 -0.048 -0.079
0.284 -0.045 -0.079
0.283 -0.043 -0.079
0.285 -0.040 -0.079
0.287 -0.038 -0.080
0.279 -0.034 -0.077
0.279 -0.032 -0.077
0.274 -0.029 -0.076
0.277 -0.027 -0.077
0.282 -0.024 -0.078
0.292 -0.023 -0.081
0.301 -0.021 -0.083
0.310 -0.018 -0.086
0.310 -0.016 -0.086
0.295 -0.012 -0.082
0.283 -0.009 -0.078
0.291 -0.007 -0.080
0.304 -0.004 -0.084
0.307 -0.001 -0.085
0.312 0.001 -0.086
0.311 0.004 -0.086
0.319 0.007 -0.088
0.305 0.010 -0.084
0.301 0.012 -0.083
0.301 0.015 -0.083
0.306 0.018 -0.085
0.306 0.021 -0.085
0.309 0.024 -0.086
0.308 0.027 -0.085
0.307 0.029 -0.085
0.308 0.032 -0.085
0.309 0.035 -0.086
0.310 0.038 -0.086
0.311 0.041 -0.086
0.311 0.044 -0.087
0.310 0.047 -0.086
0.310 0.050 -0.086
0.311 0.053 -0.087
0.311 0.056 -0.087
0.310 0.058 -0.087
0.320 0.063 -0.089
0.320 0.066 -0.089
0.316 0.068 -0.088
0.305 0.069 -0.085
0.297 0.070 -0.083
0.301 0.074 -0.085
0.304 0.077 -0.085
0.305 0.081 -0.086
0.309 0.084 -0.087
0.306 0.087 -0.086
0.299 0.088 -0.084
0.304 0.092 -0.086
0.313 0.098 -0.089
0.316 0.102 -0.089
0.307 0.102 -0.087
0.297 0.101 -0.084
0.300 0.106 -0.085
0.297 0.107 -0.084
0.289 0.108 -0.082
0.285 0.109 -0.081
0.319 0.141 -0.092
0.308 0.160 -0.090
0.316 0.167 -0.093
0.320 0.173 -0.094
0.342 0.200 -0.102
0.333 0.202 -0.099
0.304 -0.418 -0.107
0.307 -0.417 -0.107
0.312 -0.418 -0.108
0.313 -0.414 -0.108
0.311 -0.406 -0.107
0.309 -0.398 -0.106
0.310 -0.394 -0.106
0.311 -0.391 -0.106
0.314 -0.388 -0.106
0.314 -0.383 -0.106
0.312 -0.375 -0.105
0.310 -0.367 -0.104
0.310 -0.362 -0.103
0.311 -0.358 -0.103
0.311 -0.353 -0.103
0.311 -0.347 -0.102
0.311 -0.342 -0.102
0.311 -0.337 -0.101
0.310 -0.330 -0.100
0.309 -0.324 -0.099
0.309 -0.320 -0.099
0.308 -0.314 -0.098
0.304 -0.305 -0.096
0.304 -0.300 -0.096
0.304 -0.296 -0.096
0.303 -0.290 -0.095
0.302 -0.284 -0.094
0.303 -0.281 -0.094
0.303 -0.277 -0.094
0.303 -0.272 -0.093
0.297 -0.263 -0.091
0.297 -0.259 -0.091
0.298 -0.255 -0.091
0.298 -0.251 -0.090
0.298 -0.247 -0.090
0.296 -0.241 -0.089
0.293 -0.235 -0.088
0.290 -0.229 -0.087
0.290 -0.225 -0.086
0.283 -0.213 -0.084
0.283 -0.209 -0.084
0.245 -0.178 -0.072
0.235 -0.168 -0.069
0.234 -0.164 -0.068
0.214 -0.147 -0.062
0.212 -0.144 -0.062
0.209 -0.139 -0.060
0.209 -0.137 -0.060
0.211 -0.136 -0.061
0.215 -0.136 -0.062
0.218 -0.135 -0.063
0.219 -0.134 -0.063
0.219 -0.131 -0.063
0.222 -0.130 -0.063
0.208 -0.120 -0.059
0.208 -0.118 -0.059
0.210 -0.116 -0.059
0.215 -0.117 -0.061
0.241 -0.128 -0.068
0.243 -0.127 -0.068
0.242 -0.124 -0.068
0.243 -0.121 -0.068
0.245 -0.120 -0.068
0.307 -0.144 -0.085
0.311 -0.142 -0.086
0.314 -0.141 -0.087
0.317 -0.139 -0.088
0.315 -0.135 -0.087
0.268 -0.107 -0.074
0.266 -0.103 -0.073
0.265 -0.100 -0.073
0.261 -0.096 -0.071
0.348 -0.125 -0.095
0.356 -0.124 -0.097
0.365 -0.124 -0.100
0.372 -0.122 -0.101
0.376 -0.120 -0.102
0.381 -0.118 -0.104
0.387 -0.116 -0.105
0.390 -0.114 -0.106
0.400 -0.112 -0.108
0.413 -0.112 -0.112
0.421 -0.110 -0.114
0.430 -0.109 -0.116
0.439 -0.107 -0.119
0.442 -0.103 -0.119
0.407 -0.091 -0.110
0.393 -0.085 -0.106
0.387 -0.080 -0.104
0.277 -0.049 -0.074
0.276 -0.047 -0.074
0.277 -0.044 -0.074
0.279 -0.042 -0.075
0.286 -0.041 -0.077
0.284 -0.038 -0.076
0.278 -0.034 -0.075
0.274 -0.031 -0.073
0.271 -0.028 -0.073
0.270 -0.026 -0.072
0.275 -0.024 -0.074
0.294 -0.023 -0.079
0.306 -0.021 -0.082
0.313 -0.019 -0.084
0.305 -0.015 -0.082
0.295 -0.012 -0.079
0.285 -0.009 -0.076
0.296 -0.007 -0.079
0.304 -0.004 -0.081
0.311 -0.001 -0.083
0.315 0.001 -0.084
0.326 0.004 -0.087
0.303 0.007 -0.081
0.302 0.010 -0.081
0.306 0.013 -0.082
0.307 0.015 -0.082
0.309 0.018 -0.083
0.309 0.021 -0.083
0.310 0.024 -0.083
0.311 0.027 -0.083
0.311 0.030 -0.083
0.310 0.032 -0.083
0.310 0.035 -0.083
0.313 0.039 -0.084
0.313 0.041 -0.084
0.313 0.044 -0.084
0.312 0.047 -0.084
0.312 0.050 -0.084
0.312 0.053 -0.084
0.312 0.056 -0.084
0.312 0.059 -0.084
0.311 0.061 -0.084
0.311 0.064 -0.084
0.332 0.072 -0.090
0.328 0.074 -0.089
0.307 0.072 -0.083
0.308 0.075 -0.083
0.304 0.077 -0.083
0.304 0.080 -0.083
0.307 0.084 -0.083
0.309 0.087 -0.084
0.310 0.091 -0.084
0.309 0.093 -0.084
0.312 0.097 -0.085
0.312 0.100 -0.085
0.295 0.101 -0.081
0.303 0.106 -0.083
