VERSION .7
FIELDS x y z
SIZE 4 4 4
TYPE F F F
COUNT 1 1 1
WIDTH     2585
HEIGHT 1
VIEWPOINT 0 0 0 1 0 0 0
POINTS     2585
DATA ascii
0.199 -0.143 0.041
0.200 -0.142 0.041
0.205 -0.143 0.042
0.210 -0.144 0.043
0.208 -0.140 0.043
0.207 -0.137 0.042
0.210 -0.137 0.043
0.209 -0.134 0.042
0.209 -0.131 0.042
0.208 -0.128 0.042
0.206 -0.125 0.041
0.207 -0.123 0.041
0.209 -0.122 0.042
0.210 -0.120 0.042
0.209 -0.117 0.042
0.206 -0.113 0.041
0.205 -0.110 0.040
0.205 -0.108 0.040
0.205 -0.106 0.040
0.211 -0.107 0.042
0.211 -0.105 0.041
0.210 -0.102 0.041
0.206 -0.098 0.040
0.204 -0.095 0.040
0.207 -0.094 0.040
0.211 -0.094 0.041
0.201 -0.087 0.039
0.210 -0.089 0.041
0.198 -0.082 0.038
0.211 -0.085 0.041
0.210 -0.083 0.040
0.213 -0.082 0.041
0.222 -0.083 0.043
0.223 -0.081 0.043
0.221 -0.079 0.042
0.224 -0.078 0.043
0.219 -0.074 0.042
0.223 -0.073 0.042
0.229 -0.073 0.044
0.236 -0.073 0.045
0.238 -0.071 0.045
0.248 -0.072 0.047
0.365 -0.099 0.069
0.371 -0.097 0.070
0.384 -0.097 0.073
0.388 -0.094 0.073
0.382 -0.089 0.072
0.369 -0.083 0.070
0.360 -0.077 0.068
0.355 -0.073 0.067
0.346 -0.068 0.065
0.333 -0.062 0.062
0.286 -0.048 0.054
0.284 -0.045 0.053
0.283 -0.042 0.053
0.286 -0.040 0.054
0.284 -0.037 0.053
0.277 -0.034 0.052
0.278 -0.031 0.052
0.282 -0.029 0.053
0.281 -0.027 0.053
0.282 -0.024 0.053
0.285 -0.022 0.053
0.291 -0.020 0.054
0.290 -0.017 0.054
0.289 -0.014 0.054
0.291 -0.012 0.054
0.290 -0.009 0.054
0.288 -0.007 0.054
0.288 -0.004 0.054
0.291 -0.001 0.054
0.294 0.001 0.055
0.294 0.004 0.055
0.297 0.007 0.055
0.293 0.009 0.055
0.291 0.012 0.054
0.291 0.014 0.054
0.293 0.017 0.055
0.290 0.020 0.054
0.293 0.023 0.055
0.300 0.026 0.056
0.297 0.028 0.056
0.289 0.030 0.054
0.291 0.033 0.054
0.294 0.036 0.055
0.296 0.039 0.055
0.298 0.042 0.056
0.299 0.045 0.056
0.304 0.048 0.057
0.303 0.051 0.057
0.291 0.052 0.055
0.280 0.052 0.053
0.284 0.056 0.053
0.290 0.060 0.055
0.292 0.063 0.055
0.296 0.066 0.056
0.295 0.069 0.056
0.293 0.074 0.056
0.298 0.078 0.056
0.300 0.081 0.057
0.299 0.084 0.057
0.288 0.084 0.055
0.292 0.088 0.056
0.294 0.091 0.056
0.309 0.099 0.059
0.306 0.101 0.059
0.294 0.100 0.056
0.278 0.097 0.053
0.268 0.096 0.052
0.270 0.100 0.052
0.308 0.117 0.059
0.300 0.117 0.058
0.311 0.124 0.060
0.330 0.135 0.064
0.335 0.141 0.065
0.333 0.143 0.065
0.324 0.142 0.063
0.328 0.147 0.064
0.355 0.163 0.070
0.343 0.165 0.068
0.346 0.170 0.068
0.347 0.174 0.069
0.344 0.177 0.068
0.342 0.179 0.068
0.333 0.178 0.066
0.327 0.178 0.065
0.325 0.181 0.065
0.319 0.181 0.064
0.315 0.183 0.063
0.310 0.183 0.063
0.304 0.183 0.062
0.300 0.184 0.061
0.294 0.184 0.060
0.289 0.184 0.059
0.284 0.184 0.058
0.281 0.186 0.058
0.276 0.186 0.057
0.268 0.184 0.055
0.265 0.185 0.055
0.262 0.187 0.055
0.261 0.189 0.055
0.261 0.192 0.055
0.260 0.195 0.055
0.260 0.198 0.055
0.260 0.202 0.055
0.261 0.206 0.056
0.261 0.210 0.056
0.260 0.212 0.056
0.258 0.214 0.056
0.258 0.218 0.056
0.258 0.221 0.056
0.258 0.226 0.057
0.258 0.229 0.057
0.257 0.232 0.057
0.256 0.235 0.057
0.255 0.238 0.057
0.255 0.242 0.057
0.255 0.246 0.058
0.254 0.250 0.058
0.254 0.254 0.058
0.255 0.260 0.059
0.255 0.263 0.059
0.248 0.261 0.058
0.252 0.270 0.059
0.253 0.275 0.060
0.250 0.276 0.059
0.257 0.288 0.061
0.260 0.296 0.063
0.267 0.310 0.065
0.276 0.326 0.067
0.277 0.333 0.068
0.277 0.338 0.069
0.285 0.353 0.071
0.287 0.361 0.072
0.278 0.355 0.070
0.214 0.282 0.055
0.106 -0.147 0.028
0.106 -0.145 0.028
0.106 -0.143 0.028
0.106 -0.142 0.028
0.107 -0.141 0.028
0.106 -0.138 0.028
0.110 -0.138 0.028
0.117 -0.143 0.030
0.130 -0.156 0.033
0.289 -0.326 0.071
0.290 -0.322 0.071
0.291 -0.318 0.071
0.291 -0.314 0.071
0.291 -0.309 0.070
0.291 -0.304 0.070
0.292 -0.300 0.070
0.292 -0.296 0.069
0.293 -0.292 0.069
0.292 -0.286 0.069
0.292 -0.282 0.068
0.292 -0.277 0.068
0.289 -0.271 0.067
0.290 -0.267 0.067
0.287 -0.260 0.066
0.287 -0.257 0.066
0.287 -0.252 0.065
0.287 -0.248 0.065
0.286 -0.244 0.064
0.285 -0.239 0.064
0.283 -0.233 0.063
0.281 -0.228 0.063
0.273 -0.218 0.061
0.262 -0.206 0.058
0.207 -0.160 0.046
0.200 -0.152 0.044
0.205 -0.153 0.045
0.203 -0.149 0.044
0.200 -0.144 0.043
0.198 -0.141 0.043
0.201 -0.140 0.043
0.204 -0.140 0.044
0.206 -0.139 0.044
0.206 -0.137 0.044
0.207 -0.135 0.044
0.211 -0.135 0.045
0.213 -0.134 0.045
0.211 -0.130 0.045
0.209 -0.127 0.044
0.205 -0.122 0.043
0.205 -0.119 0.043
0.205 -0.117 0.043
0.205 -0.115 0.043
0.206 -0.113 0.043
0.209 -0.113 0.043
0.202 -0.107 0.042
0.210 -0.109 0.043
0.205 -0.104 0.042
0.212 -0.106 0.044
0.209 -0.102 0.043
0.209 -0.100 0.043
0.211 -0.099 0.043
0.199 -0.091 0.041
0.202 -0.090 0.041
0.210 -0.091 0.043
0.199 -0.085 0.040
0.212 -0.088 0.043
0.198 -0.080 0.040
0.211 -0.084 0.043
0.207 -0.080 0.042
0.203 -0.076 0.041
0.219 -0.078 0.044
0.219 -0.076 0.044
0.218 -0.073 0.044
0.222 -0.073 0.044
0.230 -0.073 0.046
0.230 -0.071 0.046
0.237 -0.071 0.047
0.244 -0.071 0.049
0.258 -0.072 0.051
0.358 -0.097 0.071
0.367 -0.096 0.073
0.377 -0.095 0.075
0.373 -0.090 0.074
0.370 -0.086 0.073
0.363 -0.081 0.072
0.356 -0.076 0.070
0.353 -0.072 0.070
0.343 -0.067 0.068
0.340 -0.063 0.067
0.289 -0.049 0.057
0.283 -0.045 0.056
0.285 -0.043 0.056
0.284 -0.040 0.056
0.282 -0.037 0.055
0.278 -0.034 0.055
0.283 -0.032 0.055
0.281 -0.029 0.055
0.281 -0.027 0.055
0.283 -0.024 0.055
0.284 -0.022 0.056
0.286 -0.019 0.056
0.286 -0.017 0.056
0.286 -0.014 0.056
0.287 -0.012 0.056
0.287 -0.009 0.056
0.285 -0.006 0.056
0.287 -0.004 0.056
0.292 -0.001 0.057
0.292 0.001 0.057
0.294 0.004 0.058
0.296 0.007 0.058
0.292 0.009 0.057
0.291 0.012 0.057
0.291 0.014 0.057
0.290 0.017 0.057
0.287 0.019 0.056
0.290 0.022 0.057
0.300 0.026 0.059
0.293 0.028 0.057
0.285 0.030 0.056
0.290 0.033 0.057
0.296 0.036 0.058
0.294 0.039 0.058
0.297 0.042 0.059
0.302 0.045 0.059
0.299 0.048 0.059
0.296 0.050 0.058
0.290 0.052 0.057
0.279 0.052 0.055
0.282 0.055 0.056
0.289 0.060 0.057
0.290 0.062 0.057
0.289 0.065 0.057
0.287 0.067 0.057
0.292 0.071 0.058
0.287 0.073 0.057
0.287 0.075 0.057
0.291 0.079 0.058
0.293 0.082 0.058
0.301 0.088 0.060
0.298 0.090 0.060
0.308 0.096 0.062
0.311 0.099 0.062
0.302 0.100 0.061
0.295 0.100 0.059
0.285 0.099 0.057
0.274 0.099 0.055
0.267 0.099 0.054
0.288 0.112 0.058
0.327 0.134 0.067
0.331 0.139 0.067
0.326 0.140 0.067
0.321 0.141 0.066
0.319 0.144 0.066
0.317 0.146 0.065
0.325 0.153 0.067
0.331 0.160 0.068
0.338 0.166 0.070
0.336 0.169 0.070
0.341 0.175 0.071
0.336 0.176 0.070
0.327 0.175 0.068
0.325 0.178 0.068
0.320 0.179 0.067
0.316 0.180 0.066
0.313 0.181 0.066
0.307 0.182 0.065
0.304 0.183 0.065
0.298 0.183 0.063
0.294 0.184 0.063
0.289 0.184 0.062
0.284 0.184 0.061
0.280 0.185 0.060
0.276 0.186 0.060
0.269 0.185 0.059
0.265 0.185 0.058
0.262 0.186 0.057
0.261 0.189 0.057
0.260 0.192 0.057
0.260 0.195 0.058
0.260 0.198 0.058
0.260 0.202 0.058
0.261 0.206 0.058
0.261 0.210 0.059
0.260 0.212 0.059
0.258 0.215 0.059
0.257 0.218 0.059
0.257 0.221 0.059
0.257 0.225 0.059
0.257 0.229 0.060
0.256 0.232 0.060
0.255 0.234 0.060
0.255 0.238 0.060
0.254 0.241 0.060
0.253 0.245 0.060
0.254 0.250 0.061
0.256 0.256 0.061
0.257 0.262 0.062
0.249 0.258 0.061
0.248 0.261 0.061
0.254 0.271 0.062
0.258 0.281 0.064
0.264 0.292 0.066
0.260 0.292 0.065
0.256 0.292 0.065
0.264 0.307 0.067
0.276 0.326 0.071
0.276 0.332 0.071
0.271 0.330 0.070
0.205 0.258 0.054
0.194 0.248 0.051
0.185 0.241 0.049
0.177 0.233 0.047
0.114 -0.158 0.032
0.113 -0.156 0.032
0.116 -0.157 0.032
0.113 -0.151 0.031
0.109 -0.144 0.030
0.113 -0.147 0.031
0.116 -0.150 0.032
0.115 -0.146 0.031
0.115 -0.144 0.031
0.117 -0.144 0.031
0.112 -0.136 0.030
0.123 -0.147 0.032
0.130 -0.153 0.034
0.288 -0.316 0.074
0.289 -0.312 0.073
0.289 -0.307 0.073
0.291 -0.304 0.073
0.292 -0.301 0.073
0.292 -0.296 0.073
0.291 -0.291 0.072
0.292 -0.287 0.072
0.292 -0.282 0.071
0.292 -0.278 0.071
0.291 -0.272 0.070
0.288 -0.266 0.070
0.289 -0.263 0.069
0.288 -0.257 0.069
0.288 -0.253 0.069
0.287 -0.249 0.068
0.286 -0.244 0.068
0.286 -0.240 0.067
0.284 -0.235 0.067
0.282 -0.229 0.066
0.199 -0.151 0.046
0.199 -0.149 0.046
0.205 -0.151 0.047
0.200 -0.145 0.045
0.199 -0.141 0.045
0.200 -0.140 0.045
0.205 -0.141 0.046
0.206 -0.139 0.046
0.208 -0.138 0.046
0.212 -0.138 0.047
0.213 -0.136 0.047
0.216 -0.136 0.048
0.222 -0.137 0.049
0.213 -0.129 0.047
0.206 -0.123 0.045
0.202 -0.118 0.044
0.204 -0.117 0.045
0.205 -0.115 0.045
0.207 -0.114 0.045
0.206 -0.111 0.045
0.206 -0.109 0.045
0.203 -0.105 0.044
0.212 -0.108 0.046
0.207 -0.103 0.045
0.212 -0.104 0.046
0.212 -0.101 0.045
0.209 -0.098 0.045
0.211 -0.096 0.045
0.209 -0.093 0.045
0.208 -0.091 0.044
0.211 -0.090 0.045
0.209 -0.087 0.044
0.211 -0.086 0.045
0.209 -0.083 0.044
0.213 -0.082 0.045
0.208 -0.078 0.044
0.223 -0.082 0.047
0.211 -0.075 0.044
0.217 -0.075 0.046
0.224 -0.076 0.047
0.227 -0.075 0.048
0.230 -0.073 0.048
0.234 -0.072 0.049
0.233 -0.070 0.049
0.244 -0.071 0.051
0.258 -0.072 0.054
0.351 -0.095 0.073
0.361 -0.094 0.075
0.362 -0.091 0.075
0.359 -0.087 0.074
0.354 -0.082 0.073
0.346 -0.078 0.072
0.349 -0.075 0.072
0.351 -0.072 0.072
0.344 -0.068 0.071
0.329 -0.062 0.068
0.319 -0.057 0.066
0.286 -0.048 0.059
0.283 -0.045 0.058
0.283 -0.042 0.058
0.282 -0.040 0.058
0.280 -0.037 0.058
0.284 -0.035 0.058
0.282 -0.032 0.058
0.281 -0.029 0.058
0.284 -0.027 0.058
0.286 -0.025 0.059
0.286 -0.022 0.059
0.284 -0.019 0.058
0.285 -0.017 0.058
0.286 -0.014 0.059
0.284 -0.012 0.058
0.281 -0.009 0.058
0.286 -0.007 0.059
0.288 -0.004 0.059
0.286 -0.001 0.059
0.287 0.001 0.059
0.297 0.004 0.061
0.290 0.007 0.059
0.291 0.009 0.060
0.290 0.012 0.060
0.290 0.014 0.060
0.288 0.017 0.059
0.284 0.019 0.058
0.287 0.022 0.059
0.291 0.025 0.060
0.287 0.027 0.059
0.292 0.030 0.060
0.283 0.032 0.058
0.283 0.035 0.058
0.293 0.039 0.060
0.290 0.041 0.060
0.296 0.045 0.061
0.299 0.048 0.062
0.292 0.049 0.060
0.283 0.050 0.059
0.280 0.052 0.058
0.280 0.055 0.058
0.286 0.059 0.059
0.287 0.062 0.060
0.287 0.064 0.059
0.295 0.069 0.061
0.290 0.071 0.060
0.281 0.071 0.059
0.283 0.074 0.059
0.288 0.078 0.060
0.302 0.085 0.063
0.294 0.085 0.061
0.300 0.090 0.063
0.299 0.093 0.063
0.302 0.097 0.063
0.295 0.097 0.062
0.289 0.098 0.061
0.286 0.100 0.060
0.278 0.100 0.059
0.276 0.102 0.058
0.260 0.104 0.055
0.320 0.131 0.068
0.324 0.136 0.069
0.322 0.139 0.069
0.324 0.142 0.069
0.320 0.144 0.069
0.314 0.145 0.068
0.310 0.146 0.067
0.312 0.151 0.068
0.315 0.155 0.068
0.321 0.162 0.070
0.323 0.166 0.070
0.323 0.170 0.070
0.323 0.173 0.071
0.322 0.176 0.071
0.318 0.177 0.070
0.313 0.178 0.069
0.308 0.179 0.068
0.305 0.181 0.068
0.300 0.181 0.067
0.296 0.182 0.066
0.292 0.183 0.065
0.289 0.185 0.065
0.285 0.185 0.064
0.280 0.186 0.063
0.275 0.186 0.062
0.270 0.185 0.061
0.264 0.185 0.060
0.262 0.186 0.060
0.261 0.189 0.060
0.260 0.192 0.060
0.260 0.195 0.060
0.260 0.198 0.060
0.260 0.202 0.061
0.259 0.205 0.061
0.258 0.208 0.061
0.259 0.212 0.061
0.258 0.215 0.061
0.257 0.218 0.061
0.257 0.221 0.062
0.256 0.224 0.062
0.255 0.228 0.062
0.255 0.231 0.062
0.254 0.235 0.062
0.254 0.238 0.062
0.253 0.241 0.063
0.253 0.245 0.063
0.255 0.252 0.064
0.256 0.257 0.065
0.254 0.259 0.064
0.250 0.259 0.064
0.251 0.269 0.065
0.253 0.276 0.066
0.259 0.287 0.068
0.253 0.284 0.066
0.199 0.235 0.053
0.193 0.233 0.052
0.195 0.238 0.053
0.199 0.247 0.054
0.195 0.246 0.054
0.188 0.240 0.052
0.181 0.236 0.051
0.187 0.247 0.052
0.112 -0.155 0.033
0.111 -0.153 0.032
0.110 -0.149 0.032
0.111 -0.149 0.032
0.106 -0.141 0.030
0.112 -0.146 0.032
0.114 -0.147 0.032
0.111 -0.141 0.031
0.115 -0.143 0.032
0.112 -0.139 0.031
0.119 -0.145 0.033
0.122 -0.146 0.034
0.120 -0.141 0.033
0.127 -0.146 0.035
0.288 -0.306 0.076
0.289 -0.303 0.076
0.292 -0.301 0.076
0.290 -0.295 0.075
0.289 -0.289 0.075
0.288 -0.284 0.074
0.289 -0.280 0.074
0.289 -0.276 0.074
0.290 -0.272 0.074
0.290 -0.268 0.073
0.290 -0.263 0.073
0.289 -0.259 0.072
0.287 -0.253 0.071
0.287 -0.249 0.071
0.287 -0.245 0.071
0.287 -0.241 0.070
0.284 -0.235 0.070
0.283 -0.230 0.069
0.275 -0.220 0.067
0.204 -0.155 0.049
0.198 -0.148 0.047
0.200 -0.147 0.048
0.199 -0.144 0.047
0.199 -0.141 0.047
0.207 -0.145 0.049
0.205 -0.141 0.048
0.204 -0.138 0.048
0.206 -0.137 0.048
0.207 -0.135 0.048
0.210 -0.135 0.049
0.212 -0.133 0.049
0.214 -0.132 0.049
0.208 -0.126 0.048
0.204 -0.122 0.047
0.205 -0.120 0.047
0.201 -0.115 0.046
0.204 -0.115 0.047
0.204 -0.113 0.046
0.206 -0.111 0.047
0.204 -0.108 0.046
0.200 -0.104 0.045
0.203 -0.103 0.046
0.207 -0.103 0.046
0.215 -0.105 0.048
0.212 -0.101 0.047
0.205 -0.096 0.046
0.202 -0.092 0.045
0.198 -0.088 0.044
0.207 -0.090 0.046
0.207 -0.088 0.046
0.202 -0.084 0.045
0.209 -0.085 0.046
0.200 -0.079 0.044
0.213 -0.082 0.047
0.205 -0.077 0.045
0.206 -0.076 0.045
0.207 -0.074 0.046
0.218 -0.076 0.048
0.222 -0.075 0.049
0.228 -0.075 0.050
0.232 -0.074 0.051
0.236 -0.073 0.052
0.238 -0.071 0.052
0.241 -0.070 0.053
0.355 -0.093 0.077
0.357 -0.090 0.077
0.354 -0.086 0.077
0.347 -0.081 0.075
0.342 -0.077 0.074
0.347 -0.074 0.075
0.346 -0.071 0.075
0.336 -0.066 0.073
0.320 -0.060 0.069
0.282 -0.047 0.061
0.278 -0.044 0.060
0.281 -0.042 0.060
0.281 -0.040 0.060
0.281 -0.037 0.060
0.281 -0.035 0.060
0.275 -0.031 0.059
0.283 -0.030 0.061
0.286 -0.027 0.061
0.288 -0.025 0.062
0.285 -0.022 0.061
0.282 -0.019 0.060
0.288 -0.017 0.062
0.293 -0.015 0.063
0.285 -0.012 0.061
0.281 -0.009 0.060
0.285 -0.006 0.061
0.283 -0.004 0.061
0.284 -0.001 0.061
0.285 0.001 0.061
0.286 0.004 0.061
0.291 0.007 0.062
0.289 0.009 0.062
0.294 0.012 0.063
0.289 0.014 0.062
0.286 0.017 0.061
0.294 0.020 0.063
0.291 0.022 0.063
0.289 0.025 0.062
0.291 0.028 0.062
0.283 0.030 0.061
0.281 0.032 0.060
0.277 0.034 0.059
0.276 0.036 0.059
0.294 0.042 0.063
0.294 0.044 0.063
0.297 0.047 0.064
0.290 0.049 0.063
0.285 0.051 0.062
0.286 0.054 0.062
0.286 0.056 0.062
0.279 0.058 0.061
0.280 0.060 0.061
0.286 0.064 0.062
0.287 0.067 0.062
0.285 0.069 0.062
0.273 0.069 0.059
0.272 0.071 0.059
0.285 0.078 0.062
0.283 0.080 0.062
0.295 0.086 0.065
0.288 0.087 0.063
0.290 0.090 0.064
0.295 0.095 0.065
0.293 0.097 0.064
0.290 0.099 0.064
0.287 0.101 0.063
0.291 0.105 0.064
0.295 0.109 0.065
0.300 0.114 0.067
0.293 0.114 0.065
0.262 0.105 0.058
0.319 0.137 0.071
0.320 0.141 0.072
0.318 0.143 0.071
0.317 0.146 0.071
0.313 0.148 0.071
0.310 0.149 0.070
0.305 0.150 0.069
0.306 0.154 0.070
0.312 0.161 0.071
0.314 0.165 0.072
0.315 0.169 0.072
0.316 0.173 0.072
0.314 0.176 0.072
0.307 0.175 0.071
0.304 0.177 0.070
0.301 0.178 0.070
0.297 0.179 0.069
0.293 0.181 0.068
0.291 0.183 0.068
0.288 0.184 0.068
0.284 0.185 0.067
0.281 0.186 0.066
0.273 0.184 0.065
0.269 0.185 0.064
0.265 0.186 0.063
0.262 0.187 0.063
0.260 0.189 0.063
0.261 0.193 0.063
0.260 0.195 0.063
0.260 0.199 0.063
0.259 0.202 0.063
0.258 0.204 0.063
0.257 0.207 0.063
0.259 0.212 0.064
0.258 0.215 0.064
0.256 0.217 0.064
0.256 0.221 0.064
0.255 0.223 0.064
0.254 0.227 0.064
0.255 0.231 0.065
0.255 0.235 0.065
0.254 0.238 0.065
0.252 0.240 0.065
0.252 0.244 0.065
0.250 0.247 0.065
0.247 0.252 0.065
0.238 0.247 0.063
0.224 0.237 0.060
0.211 0.234 0.058
0.207 0.233 0.057
0.210 0.241 0.058
0.199 0.232 0.055
0.193 0.229 0.054
0.191 0.230 0.054
0.190 0.232 0.054
0.192 0.239 0.055
0.189 0.239 0.054
0.225 0.297 0.066
0.099 -0.138 0.030
0.099 -0.136 0.030
0.100 -0.135 0.030
0.099 -0.133 0.030
0.098 -0.129 0.029
0.099 -0.130 0.030
0.100 -0.129 0.030
0.101 -0.128 0.030
0.101 -0.127 0.030
0.101 -0.125 0.029
0.101 -0.123 0.029
0.102 -0.122 0.029
0.102 -0.121 0.029
0.113 -0.132 0.032
0.119 -0.137 0.034
0.121 -0.135 0.034
0.122 -0.134 0.034
0.279 -0.283 0.076
0.281 -0.281 0.076
0.284 -0.280 0.076
0.285 -0.276 0.076
0.287 -0.274 0.076
0.288 -0.270 0.076
0.290 -0.268 0.076
0.288 -0.262 0.075
0.289 -0.259 0.075
0.288 -0.254 0.075
0.286 -0.249 0.074
0.287 -0.245 0.074
0.285 -0.240 0.073
0.284 -0.235 0.072
0.281 -0.229 0.071
0.273 -0.218 0.069
0.206 -0.157 0.052
0.200 -0.150 0.050
0.199 -0.146 0.049
0.198 -0.143 0.049
0.201 -0.143 0.050
0.202 -0.141 0.050
0.204 -0.141 0.050
0.200 -0.135 0.049
0.195 -0.130 0.048
0.198 -0.129 0.048
0.203 -0.130 0.049
0.208 -0.131 0.050
0.203 -0.126 0.049
0.202 -0.123 0.049
0.206 -0.122 0.049
0.203 -0.119 0.048
0.204 -0.117 0.049
0.199 -0.112 0.047
0.201 -0.111 0.048
0.206 -0.112 0.049
0.207 -0.110 0.049
0.193 -0.101 0.046
0.178 -0.091 0.042
0.177 -0.088 0.042
0.171 -0.084 0.040
0.171 -0.082 0.040
0.172 -0.080 0.040
0.174 -0.079 0.040
0.175 -0.078 0.041
0.175 -0.076 0.041
0.176 -0.075 0.041
0.178 -0.074 0.041
0.180 -0.073 0.042
0.186 -0.074 0.043
0.187 -0.072 0.043
0.207 -0.078 0.048
0.213 -0.078 0.049
0.216 -0.077 0.049
0.212 -0.074 0.048
0.220 -0.074 0.050
0.224 -0.074 0.051
0.227 -0.072 0.052
0.234 -0.072 0.053
0.238 -0.071 0.054
0.247 -0.072 0.056
0.264 -0.074 0.060
0.345 -0.090 0.078
0.353 -0.089 0.080
0.348 -0.085 0.079
0.340 -0.079 0.077
0.340 -0.076 0.077
0.337 -0.073 0.076
0.336 -0.069 0.076
0.333 -0.065 0.075
0.319 -0.060 0.072
0.282 -0.048 0.063
0.277 -0.044 0.062
0.277 -0.042 0.062
0.277 -0.039 0.062
0.277 -0.037 0.062
0.277 -0.034 0.062
0.283 -0.032 0.063
0.288 -0.030 0.064
0.286 -0.027 0.064
0.285 -0.025 0.064
0.281 -0.022 0.063
0.280 -0.019 0.063
0.287 -0.017 0.064
0.289 -0.014 0.065
0.285 -0.012 0.064
0.282 -0.009 0.063
0.281 -0.006 0.063
0.282 -0.004 0.063
0.283 -0.001 0.063
0.283 0.001 0.063
0.283 0.004 0.063
0.282 0.006 0.063
0.290 0.009 0.065
0.289 0.012 0.065
0.289 0.014 0.065
0.287 0.017 0.064
0.302 0.021 0.067
0.297 0.023 0.067
0.289 0.025 0.065
0.288 0.027 0.065
0.285 0.030 0.064
0.276 0.031 0.062
0.278 0.034 0.062
0.282 0.037 0.063
0.280 0.040 0.063
0.285 0.043 0.064
0.285 0.046 0.064
0.293 0.050 0.066
0.294 0.052 0.066
0.293 0.055 0.066
0.294 0.058 0.066
0.274 0.057 0.062
0.268 0.058 0.061
0.272 0.061 0.061
0.275 0.065 0.062
0.273 0.067 0.062
0.261 0.066 0.059
0.271 0.071 0.062
0.267 0.073 0.061
0.274 0.077 0.062
0.282 0.082 0.064
0.291 0.088 0.066
0.294 0.091 0.067
0.295 0.095 0.068
0.297 0.098 0.068
0.296 0.101 0.068
0.296 0.104 0.068
0.301 0.109 0.069
0.307 0.114 0.071
0.310 0.118 0.072
0.304 0.119 0.070
0.281 0.113 0.065
0.271 0.111 0.063
0.264 0.111 0.062
0.308 0.136 0.072
0.315 0.142 0.074
0.316 0.146 0.074
0.314 0.149 0.074
0.311 0.150 0.073
0.305 0.151 0.072
0.301 0.152 0.071
0.303 0.156 0.072
0.306 0.161 0.073
0.308 0.165 0.073
0.309 0.169 0.074
0.304 0.170 0.073
0.300 0.171 0.072
0.300 0.175 0.072
0.297 0.176 0.072
0.294 0.178 0.071
0.289 0.178 0.070
0.289 0.182 0.071
0.286 0.183 0.070
0.283 0.184 0.069
0.277 0.184 0.068
0.272 0.184 0.067
0.268 0.185 0.067
0.265 0.186 0.066
0.262 0.187 0.065
0.261 0.190 0.065
0.260 0.192 0.066
0.260 0.196 0.066
0.259 0.199 0.066
0.259 0.202 0.066
0.257 0.204 0.066
0.259 0.209 0.067
0.258 0.212 0.067
0.257 0.214 0.067
0.255 0.216 0.066
0.253 0.218 0.066
0.252 0.222 0.066
0.253 0.226 0.067
0.255 0.232 0.068
0.257 0.238 0.069
0.252 0.237 0.068
0.237 0.227 0.064
0.242 0.235 0.066
0.218 0.230 0.061
0.202 0.217 0.057
0.205 0.223 0.058
0.202 0.225 0.058
0.201 0.227 0.058
0.199 0.228 0.057
0.193 0.226 0.056
0.191 0.227 0.056
0.192 0.232 0.057
0.197 0.241 0.058
0.221 0.275 0.066
0.223 0.283 0.067
0.253 0.336 0.078
0.099 -0.137 0.031
0.100 -0.136 0.031
0.101 -0.136 0.032
0.099 -0.131 0.031
0.100 -0.130 0.031
0.101 -0.130 0.031
0.101 -0.128 0.031
0.102 -0.127 0.031
0.102 -0.127 0.031
0.102 -0.124 0.031
0.102 -0.123 0.031
0.101 -0.120 0.030
0.101 -0.118 0.030
0.100 -0.115 0.029
0.104 -0.118 0.030
0.117 -0.131 0.034
0.121 -0.133 0.035
0.118 -0.128 0.034
0.269 -0.274 0.076
0.274 -0.275 0.077
0.276 -0.272 0.077
0.277 -0.269 0.077
0.282 -0.270 0.078
0.285 -0.268 0.079
0.284 -0.263 0.078
0.284 -0.259 0.078
0.287 -0.258 0.078
0.289 -0.255 0.078
0.287 -0.250 0.077
0.285 -0.244 0.076
0.283 -0.238 0.076
0.283 -0.235 0.075
0.279 -0.227 0.074
0.275 -0.220 0.073
0.266 -0.210 0.070
0.199 -0.152 0.052
0.199 -0.149 0.052
0.200 -0.147 0.052
0.199 -0.144 0.051
0.202 -0.144 0.052
0.205 -0.144 0.053
0.206 -0.142 0.053
0.199 -0.135 0.051
0.195 -0.129 0.049
0.195 -0.128 0.049
0.202 -0.129 0.051
0.207 -0.130 0.052
0.208 -0.129 0.052
0.205 -0.124 0.051
0.207 -0.123 0.052
0.205 -0.120 0.051
0.201 -0.115 0.050
0.204 -0.115 0.050
0.197 -0.109 0.049
0.169 -0.091 0.042
0.169 -0.090 0.042
0.169 -0.088 0.041
0.170 -0.086 0.042
0.171 -0.082 0.042
0.172 -0.081 0.042
0.173 -0.079 0.042
0.174 -0.078 0.042
0.175 -0.076 0.042
0.176 -0.075 0.042
0.177 -0.074 0.043
0.178 -0.073 0.043
0.179 -0.071 0.043
0.180 -0.070 0.043
0.182 -0.069 0.043
0.184 -0.068 0.044
0.189 -0.068 0.045
0.205 -0.071 0.049
0.228 -0.077 0.054
0.221 -0.073 0.052
0.221 -0.070 0.052
0.229 -0.071 0.054
0.240 -0.072 0.057
0.248 -0.072 0.059
0.328 -0.086 0.077
0.332 -0.084 0.078
0.329 -0.080 0.077
0.330 -0.077 0.078
0.330 -0.074 0.077
0.321 -0.069 0.075
0.318 -0.065 0.074
0.328 -0.064 0.077
0.321 -0.060 0.075
0.301 -0.054 0.070
0.289 -0.049 0.068
0.278 -0.044 0.065
0.277 -0.042 0.065
0.274 -0.039 0.064
0.276 -0.036 0.064
0.282 -0.035 0.066
0.288 -0.033 0.067
0.285 -0.030 0.066
0.287 -0.027 0.067
0.283 -0.024 0.066
0.279 -0.022 0.065
0.280 -0.019 0.065
0.284 -0.017 0.066
0.285 -0.014 0.066
0.284 -0.012 0.066
0.280 -0.009 0.065
0.282 -0.006 0.066
0.282 -0.004 0.066
0.290 -0.001 0.068
0.280 0.001 0.065
0.281 0.004 0.065
0.285 0.006 0.066
0.276 0.009 0.064
0.283 0.012 0.066
0.274 0.014 0.064
0.275 0.016 0.064
0.295 0.020 0.069
0.294 0.023 0.069
0.286 0.025 0.067
0.280 0.027 0.065
0.282 0.029 0.066
0.280 0.032 0.066
0.280 0.034 0.065
0.281 0.037 0.066
0.281 0.040 0.066
0.277 0.042 0.065
0.287 0.046 0.067
0.300 0.051 0.070
0.300 0.054 0.070
0.300 0.056 0.071
0.283 0.056 0.067
0.278 0.057 0.065
0.286 0.062 0.067
0.281 0.063 0.066
0.289 0.068 0.068
0.298 0.073 0.070
0.288 0.073 0.068
0.273 0.072 0.065
0.268 0.073 0.064
0.264 0.075 0.063
0.274 0.080 0.065
0.291 0.088 0.069
0.288 0.090 0.069
0.295 0.095 0.070
0.296 0.098 0.071
0.296 0.101 0.071
0.298 0.105 0.071
0.299 0.108 0.072
0.303 0.112 0.073
0.302 0.115 0.073
0.292 0.114 0.071
0.291 0.117 0.070
0.280 0.115 0.068
0.274 0.115 0.066
0.267 0.118 0.065
0.311 0.144 0.076
0.306 0.145 0.075
0.308 0.149 0.076
0.304 0.150 0.075
0.296 0.149 0.073
0.292 0.151 0.072
0.302 0.159 0.075
0.301 0.162 0.075
0.300 0.165 0.075
0.298 0.167 0.074
0.298 0.171 0.075
0.296 0.172 0.074
0.293 0.174 0.074
0.289 0.175 0.073
0.288 0.178 0.073
0.283 0.178 0.072
0.281 0.180 0.072
0.278 0.182 0.071
0.274 0.182 0.070
0.270 0.183 0.070
0.267 0.184 0.069
0.263 0.185 0.068
0.262 0.187 0.068
0.260 0.189 0.068
0.260 0.193 0.068
0.259 0.196 0.068
0.259 0.199 0.069
0.258 0.202 0.069
0.260 0.206 0.069
0.259 0.210 0.069
0.258 0.212 0.069
0.256 0.214 0.069
0.254 0.216 0.069
0.253 0.219 0.069
0.253 0.223 0.069
0.247 0.221 0.068
0.243 0.221 0.067
0.240 0.222 0.067
0.237 0.223 0.066
0.228 0.219 0.064
0.219 0.213 0.062
0.219 0.217 0.062
0.212 0.213 0.061
0.209 0.214 0.060
0.209 0.218 0.061
0.202 0.214 0.059
0.203 0.218 0.059
0.198 0.217 0.059
0.201 0.224 0.060
0.199 0.225 0.059
0.199 0.229 0.060
0.205 0.240 0.062
0.229 0.272 0.070
0.233 0.281 0.071
0.224 0.279 0.070
0.222 0.281 0.070
0.231 0.307 0.074
0.099 -0.137 0.033
0.100 -0.137 0.033
0.101 -0.136 0.033
0.101 -0.134 0.033
0.101 -0.132 0.032
0.101 -0.131 0.032
0.102 -0.130 0.032
0.102 -0.129 0.032
0.103 -0.128 0.032
0.103 -0.126 0.032
0.101 -0.122 0.032
0.101 -0.120 0.031
0.104 -0.121 0.032
0.103 -0.118 0.032
0.102 -0.116 0.031
0.103 -0.115 0.031
0.116 -0.128 0.035
0.107 -0.116 0.032
0.108 -0.115 0.032
0.265 -0.270 0.078
0.269 -0.270 0.079
0.273 -0.270 0.079
0.277 -0.269 0.080
0.281 -0.269 0.081
0.283 -0.266 0.081
0.278 -0.257 0.079
0.277 -0.253 0.079
0.284 -0.255 0.080
0.286 -0.253 0.081
0.284 -0.247 0.080
0.279 -0.239 0.078
0.279 -0.235 0.077
0.277 -0.230 0.077
0.276 -0.225 0.076
0.272 -0.218 0.075
0.207 -0.160 0.056
0.200 -0.153 0.054
0.197 -0.148 0.053
0.197 -0.145 0.053
0.198 -0.144 0.053
0.200 -0.143 0.054
0.203 -0.142 0.054
0.203 -0.140 0.054
0.201 -0.137 0.053
0.196 -0.130 0.052
0.196 -0.128 0.052
0.202 -0.130 0.053
0.208 -0.131 0.055
0.206 -0.128 0.054
0.205 -0.125 0.053
0.204 -0.122 0.053
0.202 -0.119 0.052
0.168 -0.095 0.043
0.168 -0.093 0.043
0.169 -0.092 0.043
0.168 -0.089 0.043
0.169 -0.088 0.043
0.170 -0.087 0.043
0.171 -0.085 0.043
0.174 -0.085 0.044
0.177 -0.085 0.045
0.184 -0.086 0.047
0.187 -0.086 0.047
0.190 -0.085 0.048
0.191 -0.084 0.048
0.190 -0.081 0.048
0.188 -0.078 0.047
0.181 -0.074 0.045
0.181 -0.072 0.045
0.181 -0.070 0.045
0.182 -0.069 0.045
0.183 -0.067 0.046
0.184 -0.066 0.046
0.185 -0.065 0.046
0.190 -0.064 0.047
0.193 -0.063 0.048
0.215 -0.069 0.053
0.229 -0.071 0.057
0.236 -0.071 0.058
0.246 -0.071 0.060
0.263 -0.074 0.065
0.277 -0.075 0.068
0.317 -0.083 0.078
0.322 -0.081 0.079
0.321 -0.078 0.079
0.321 -0.075 0.079
0.321 -0.072 0.078
0.314 -0.068 0.077
0.310 -0.064 0.076
0.314 -0.062 0.076
0.308 -0.058 0.075
0.300 -0.053 0.073
0.293 -0.049 0.071
0.281 -0.045 0.068
0.274 -0.041 0.067
0.274 -0.039 0.067
0.276 -0.036 0.067
0.285 -0.035 0.069
0.287 -0.033 0.070
0.286 -0.030 0.069
0.283 -0.027 0.069
0.282 -0.024 0.068
0.281 -0.022 0.068
0.281 -0.019 0.068
0.285 -0.017 0.069
0.284 -0.014 0.069
0.282 -0.012 0.068
0.280 -0.009 0.068
0.282 -0.006 0.068
0.291 -0.004 0.070
0.281 -0.001 0.068
0.280 0.001 0.068
0.281 0.004 0.068
0.279 0.006 0.068
0.285 0.009 0.069
0.273 0.011 0.066
0.267 0.013 0.065
0.268 0.016 0.065
0.276 0.019 0.067
0.287 0.022 0.070
0.285 0.025 0.069
0.276 0.026 0.067
0.283 0.030 0.069
0.279 0.032 0.068
0.285 0.035 0.069
0.287 0.038 0.070
0.288 0.041 0.070
0.283 0.043 0.069
0.291 0.047 0.071
0.298 0.050 0.073
0.300 0.054 0.073
0.295 0.055 0.072
0.291 0.057 0.071
0.282 0.058 0.069
0.285 0.062 0.070
0.291 0.066 0.071
0.292 0.069 0.072
0.292 0.071 0.072
0.283 0.072 0.070
0.281 0.074 0.069
0.265 0.072 0.065
0.256 0.072 0.063
0.260 0.076 0.064
0.274 0.083 0.068
0.278 0.087 0.069
0.286 0.092 0.071
0.295 0.098 0.073
0.294 0.100 0.073
0.293 0.103 0.073
0.295 0.106 0.074
0.294 0.109 0.074
0.290 0.111 0.073
0.290 0.113 0.073
0.287 0.115 0.072
0.291 0.120 0.073
0.298 0.125 0.075
0.290 0.125 0.073
0.270 0.119 0.068
0.296 0.140 0.075
0.293 0.142 0.075
0.295 0.146 0.076
0.290 0.147 0.074
0.289 0.149 0.074
0.292 0.154 0.075
0.295 0.159 0.076
0.294 0.161 0.076
0.295 0.165 0.077
0.292 0.167 0.076
0.288 0.168 0.075
0.288 0.172 0.076
0.285 0.173 0.075
0.282 0.174 0.074
0.279 0.176 0.074
0.277 0.178 0.073
0.273 0.179 0.073
0.270 0.180 0.072
0.267 0.181 0.072
0.265 0.183 0.071
0.264 0.185 0.071
0.261 0.187 0.071
0.260 0.190 0.071
0.260 0.193 0.071
0.260 0.196 0.071
0.259 0.199 0.071
0.259 0.203 0.072
0.260 0.206 0.072
0.258 0.209 0.072
0.257 0.211 0.072
0.255 0.214 0.072
0.254 0.216 0.072
0.252 0.218 0.071
0.250 0.220 0.071
0.246 0.220 0.071
0.238 0.217 0.068
0.233 0.216 0.067
0.230 0.217 0.067
0.225 0.216 0.066
0.221 0.216 0.065
0.212 0.210 0.063
0.207 0.209 0.062
0.205 0.210 0.061
0.203 0.212 0.061
0.203 0.215 0.062
0.201 0.216 0.061
0.200 0.220 0.062
0.197 0.220 0.061
0.200 0.227 0.062
0.202 0.232 0.063
0.205 0.240 0.065
0.220 0.262 0.070
0.226 0.273 0.072
0.216 0.265 0.069
0.211 0.264 0.068
0.212 0.269 0.069
0.206 0.265 0.067
0.195 0.259 0.065
0.099 -0.136 0.034
0.100 -0.136 0.034
0.101 -0.136 0.034
0.102 -0.136 0.034
0.102 -0.134 0.034
0.102 -0.132 0.034
0.102 -0.131 0.034
0.103 -0.129 0.034
0.102 -0.127 0.034
0.102 -0.125 0.033
0.103 -0.124 0.033
0.103 -0.123 0.033
0.103 -0.121 0.033
0.103 -0.119 0.033
0.102 -0.116 0.032
0.101 -0.113 0.032
0.102 -0.112 0.032
0.105 -0.114 0.033
0.106 -0.114 0.033
0.109 -0.114 0.033
0.265 -0.267 0.081
0.272 -0.269 0.082
0.278 -0.270 0.083
0.282 -0.270 0.084
0.280 -0.264 0.083
0.275 -0.255 0.081
0.275 -0.252 0.081
0.280 -0.252 0.082
0.280 -0.248 0.082
0.277 -0.241 0.081
0.275 -0.236 0.080
0.274 -0.232 0.079
0.275 -0.228 0.079
0.276 -0.225 0.079
0.210 -0.163 0.059
0.205 -0.157 0.058
0.199 -0.150 0.056
0.196 -0.145 0.055
0.196 -0.142 0.055
0.200 -0.143 0.056
0.198 -0.139 0.055
0.200 -0.138 0.055
0.201 -0.137 0.055
0.201 -0.134 0.055
0.202 -0.132 0.055
0.207 -0.133 0.057
0.209 -0.132 0.057
0.206 -0.128 0.056
0.197 -0.120 0.053
0.197 -0.118 0.053
0.169 -0.099 0.045
0.168 -0.096 0.045
0.168 -0.095 0.045
0.168 -0.093 0.045
0.169 -0.092 0.045
0.170 -0.090 0.045
0.171 -0.089 0.045
0.190 -0.097 0.050
0.202 -0.101 0.053
0.203 -0.099 0.054
0.206 -0.099 0.054
0.209 -0.098 0.055
0.209 -0.096 0.055
0.211 -0.095 0.055
0.197 -0.086 0.051
0.209 -0.089 0.054
0.200 -0.084 0.052
0.205 -0.084 0.053
0.211 -0.084 0.055
0.205 -0.079 0.053
0.191 -0.072 0.049
0.190 -0.070 0.049
0.185 -0.066 0.048
0.185 -0.064 0.048
0.186 -0.063 0.048
0.188 -0.062 0.048
0.188 -0.060 0.048
0.199 -0.062 0.051
0.228 -0.069 0.058
0.240 -0.070 0.061
0.303 -0.080 0.077
0.305 -0.077 0.078
0.308 -0.075 0.078
0.314 -0.073 0.080
0.313 -0.070 0.079
0.310 -0.067 0.079
0.307 -0.063 0.078
0.303 -0.060 0.077
0.299 -0.056 0.076
0.294 -0.053 0.074
0.293 -0.050 0.074
0.277 -0.044 0.070
0.273 -0.041 0.069
0.274 -0.039 0.069
0.277 -0.037 0.070
0.276 -0.034 0.069
0.281 -0.032 0.071
0.280 -0.029 0.070
0.282 -0.027 0.071
0.281 -0.024 0.071
0.282 -0.022 0.071
0.282 -0.019 0.071
0.285 -0.017 0.072
0.284 -0.014 0.071
0.282 -0.012 0.071
0.281 -0.009 0.071
0.287 -0.007 0.072
0.281 -0.004 0.071
0.276 -0.001 0.069
0.279 0.001 0.070
0.282 0.004 0.071
0.288 0.007 0.072
0.283 0.009 0.071
0.275 0.011 0.069
0.265 0.013 0.067
0.264 0.016 0.067
0.270 0.018 0.068
0.278 0.022 0.070
0.287 0.025 0.072
0.287 0.027 0.072
0.263 0.028 0.066
0.268 0.031 0.068
0.279 0.034 0.071
0.287 0.038 0.072
0.291 0.041 0.074
0.285 0.043 0.072
0.280 0.045 0.071
0.290 0.049 0.073
0.292 0.052 0.074
0.290 0.055 0.074
0.288 0.057 0.073
0.286 0.059 0.073
0.289 0.062 0.073
0.291 0.066 0.074
0.291 0.068 0.074
0.281 0.069 0.072
0.275 0.070 0.070
0.269 0.071 0.069
0.249 0.068 0.064
0.240 0.068 0.061
0.258 0.076 0.066
0.264 0.080 0.068
0.267 0.083 0.069
0.280 0.090 0.072
0.292 0.097 0.075
0.291 0.100 0.075
0.289 0.102 0.075
0.288 0.104 0.075
0.284 0.106 0.074
0.283 0.108 0.073
0.285 0.112 0.074
0.286 0.115 0.075
0.283 0.116 0.074
0.285 0.120 0.075
0.297 0.128 0.078
0.292 0.129 0.077
0.279 0.126 0.074
0.257 0.119 0.068
0.267 0.127 0.071
0.273 0.132 0.072
0.280 0.139 0.075
0.286 0.145 0.076
0.286 0.148 0.076
0.284 0.150 0.076
0.283 0.153 0.076
0.287 0.158 0.077
0.288 0.162 0.078
0.285 0.163 0.077
0.284 0.166 0.077
0.283 0.168 0.077
0.281 0.171 0.077
0.279 0.172 0.076
0.277 0.175 0.076
0.272 0.175 0.075
0.268 0.176 0.074
0.266 0.177 0.074
0.265 0.180 0.074
0.264 0.182 0.074
0.261 0.184 0.073
0.260 0.187 0.073
0.258 0.189 0.073
0.257 0.191 0.073
0.258 0.195 0.073
0.257 0.198 0.073
0.255 0.200 0.073
0.256 0.204 0.074
0.256 0.207 0.074
0.254 0.209 0.074
0.253 0.213 0.074
0.252 0.215 0.074
0.249 0.216 0.073
0.245 0.217 0.073
0.243 0.218 0.072
0.236 0.215 0.071
0.232 0.216 0.070
0.230 0.217 0.070
0.226 0.217 0.069
0.222 0.217 0.068
0.220 0.219 0.068
0.212 0.214 0.066
0.209 0.215 0.065
0.204 0.213 0.064
0.203 0.216 0.064
0.201 0.218 0.064
0.197 0.217 0.063
0.196 0.219 0.063
0.201 0.228 0.065
0.200 0.231 0.065
0.197 0.231 0.065
0.202 0.241 0.067
0.207 0.251 0.069
0.207 0.255 0.069
0.203 0.254 0.068
0.200 0.255 0.068
0.197 0.255 0.067
0.187 0.245 0.064
0.178 0.236 0.061
0.098 -0.136 0.035
0.100 -0.136 0.035
0.101 -0.136 0.035
0.102 -0.136 0.035
0.102 -0.134 0.035
0.102 -0.132 0.035
0.103 -0.131 0.035
0.102 -0.129 0.035
0.103 -0.127 0.035
0.102 -0.125 0.035
0.103 -0.125 0.035
0.104 -0.123 0.035
0.104 -0.121 0.034
0.103 -0.119 0.034
0.102 -0.117 0.034
0.102 -0.114 0.033
0.103 -0.114 0.034
0.106 -0.115 0.034
0.108 -0.115 0.035
0.107 -0.113 0.034
0.110 -0.114 0.035
0.267 -0.265 0.084
0.274 -0.267 0.085
0.278 -0.267 0.086
0.271 -0.256 0.084
0.274 -0.255 0.084
0.276 -0.253 0.085
0.276 -0.248 0.084
0.276 -0.244 0.084
0.275 -0.240 0.083
0.275 -0.236 0.083
0.273 -0.231 0.082
0.275 -0.229 0.082
0.275 -0.225 0.082
0.270 -0.217 0.080
0.219 -0.170 0.064
0.207 -0.159 0.061
0.200 -0.151 0.058
0.196 -0.145 0.057
0.196 -0.143 0.057
0.197 -0.141 0.057
0.197 -0.138 0.057
0.199 -0.138 0.057
0.204 -0.138 0.058
0.207 -0.138 0.059
0.210 -0.138 0.060
0.210 -0.135 0.060
0.207 -0.131 0.059
0.206 -0.128 0.058
0.170 -0.102 0.047
0.167 -0.098 0.047
0.167 -0.096 0.047
0.167 -0.095 0.047
0.168 -0.093 0.047
0.183 -0.099 0.051
0.205 -0.109 0.057
0.205 -0.107 0.057
0.204 -0.105 0.056
0.203 -0.101 0.056
0.206 -0.101 0.056
0.207 -0.099 0.057
0.210 -0.098 0.057
0.210 -0.097 0.057
0.209 -0.094 0.057
0.209 -0.092 0.057
0.207 -0.089 0.056
0.208 -0.087 0.056
0.205 -0.084 0.055
0.210 -0.084 0.057
0.209 -0.081 0.056
0.212 -0.080 0.057
0.211 -0.078 0.057
0.210 -0.075 0.056
0.194 -0.068 0.052
0.187 -0.064 0.050
0.188 -0.062 0.050
0.188 -0.060 0.050
0.189 -0.059 0.050
0.191 -0.058 0.051
0.192 -0.056 0.051
0.198 -0.056 0.052
0.289 -0.076 0.076
0.299 -0.076 0.079
0.301 -0.073 0.079
0.300 -0.070 0.079
0.300 -0.068 0.079
0.298 -0.064 0.078
0.295 -0.061 0.078
0.294 -0.058 0.077
0.292 -0.055 0.077
0.290 -0.052 0.076
0.287 -0.049 0.075
0.275 -0.044 0.072
0.272 -0.041 0.071
0.273 -0.039 0.071
0.273 -0.036 0.071
0.274 -0.034 0.072
0.274 -0.031 0.072
0.276 -0.029 0.072
0.280 -0.027 0.073
0.284 -0.025 0.074
0.281 -0.022 0.073
0.282 -0.019 0.074
0.284 -0.017 0.074
0.282 -0.014 0.073
0.280 -0.011 0.073
0.281 -0.009 0.073
0.282 -0.006 0.074
0.280 -0.004 0.073
0.280 -0.001 0.073
0.282 0.001 0.073
0.288 0.004 0.075
0.289 0.007 0.075
0.284 0.009 0.074
0.278 0.011 0.073
0.273 0.014 0.071
0.268 0.016 0.070
0.260 0.018 0.068
0.274 0.021 0.071
0.287 0.025 0.075
0.282 0.027 0.074
0.268 0.028 0.070
0.265 0.030 0.069
0.276 0.034 0.072
0.284 0.038 0.075
0.286 0.041 0.075
0.279 0.042 0.073
0.276 0.044 0.072
0.280 0.048 0.074
0.287 0.051 0.076
0.286 0.054 0.075
0.286 0.057 0.075
0.285 0.059 0.075
0.287 0.062 0.076
0.288 0.065 0.076
0.284 0.067 0.075
0.272 0.067 0.072
0.263 0.067 0.070
0.255 0.067 0.068
0.244 0.067 0.065
0.262 0.077 0.070
0.266 0.081 0.071
0.268 0.084 0.071
0.280 0.090 0.075
0.288 0.096 0.077
0.287 0.098 0.077
0.285 0.100 0.077
0.283 0.102 0.076
0.279 0.104 0.075
0.278 0.106 0.075
0.281 0.110 0.076
0.279 0.112 0.076
0.278 0.114 0.075
0.279 0.118 0.076
0.284 0.123 0.077
0.288 0.128 0.079
0.277 0.126 0.076
0.271 0.126 0.074
0.261 0.124 0.072
0.260 0.126 0.072
0.262 0.130 0.072
0.266 0.135 0.073
0.269 0.139 0.075
0.270 0.143 0.075
0.277 0.149 0.077
0.277 0.153 0.077
0.281 0.158 0.079
0.279 0.160 0.078
0.277 0.162 0.078
0.277 0.165 0.078
0.273 0.166 0.077
0.276 0.171 0.078
0.275 0.174 0.078
0.267 0.172 0.076
0.262 0.172 0.075
0.264 0.176 0.076
0.262 0.178 0.076
0.259 0.180 0.075
0.257 0.181 0.075
0.256 0.184 0.075
0.256 0.187 0.075
0.256 0.190 0.075
0.255 0.193 0.075
0.254 0.196 0.075
0.252 0.198 0.075
0.252 0.201 0.075
0.252 0.205 0.076
0.252 0.208 0.076
0.251 0.210 0.076
0.250 0.214 0.076
0.248 0.215 0.076
0.243 0.215 0.075
0.238 0.214 0.074
0.236 0.216 0.073
0.231 0.215 0.072
0.227 0.214 0.071
0.221 0.213 0.070
0.217 0.212 0.069
0.215 0.214 0.069
0.218 0.221 0.070
0.214 0.220 0.069
0.207 0.217 0.067
0.206 0.219 0.067
0.202 0.219 0.067
0.198 0.218 0.066
0.198 0.222 0.066
0.198 0.225 0.066
0.196 0.227 0.066
0.196 0.230 0.067
0.201 0.240 0.069
0.203 0.246 0.070
0.202 0.249 0.070
0.200 0.250 0.070
0.198 0.252 0.069
0.191 0.247 0.068
0.184 0.242 0.065
0.179 0.238 0.064
0.099 -0.136 0.036
0.101 -0.136 0.037
0.101 -0.135 0.037
0.101 -0.133 0.036
0.102 -0.132 0.036
0.102 -0.131 0.036
0.103 -0.130 0.036
0.103 -0.128 0.036
0.104 -0.127 0.036
0.103 -0.125 0.036
0.103 -0.123 0.036
0.103 -0.121 0.035
0.103 -0.119 0.035
0.104 -0.118 0.035
0.105 -0.118 0.036
0.104 -0.115 0.035
0.109 -0.119 0.037
0.109 -0.117 0.036
0.106 -0.112 0.035
0.108 -0.112 0.036
0.115 -0.117 0.038
0.267 -0.261 0.086
0.268 -0.258 0.086
0.269 -0.254 0.086
0.272 -0.253 0.087
0.273 -0.251 0.087
0.270 -0.244 0.085
0.272 -0.242 0.086
0.273 -0.239 0.086
0.272 -0.234 0.085
0.273 -0.231 0.085
0.271 -0.226 0.084
0.274 -0.224 0.084
0.262 -0.211 0.080
0.197 -0.149 0.060
0.197 -0.146 0.059
0.199 -0.145 0.060
0.199 -0.142 0.059
0.197 -0.139 0.059
0.204 -0.141 0.061
0.206 -0.140 0.061
0.209 -0.139 0.062
0.210 -0.138 0.062
0.206 -0.133 0.060
0.202 -0.128 0.059
0.181 -0.112 0.053
0.170 -0.104 0.049
0.170 -0.102 0.049
0.171 -0.100 0.049
0.174 -0.100 0.050
0.204 -0.113 0.059
0.206 -0.112 0.059
0.206 -0.110 0.059
0.206 -0.108 0.059
0.206 -0.106 0.059
0.205 -0.103 0.058
0.205 -0.101 0.058
0.206 -0.099 0.058
0.205 -0.097 0.058
0.206 -0.094 0.058
0.208 -0.093 0.058
0.207 -0.091 0.058
0.201 -0.086 0.056
0.208 -0.087 0.058
0.210 -0.086 0.059
0.203 -0.081 0.057
0.211 -0.082 0.059
0.211 -0.080 0.059
0.213 -0.079 0.059
0.211 -0.076 0.058
0.211 -0.074 0.058
0.212 -0.072 0.058
0.214 -0.071 0.059
0.196 -0.063 0.054
0.190 -0.059 0.052
0.191 -0.058 0.053
0.192 -0.056 0.053
0.193 -0.054 0.053
0.194 -0.053 0.053
0.195 -0.051 0.053
0.206 -0.052 0.056
0.213 -0.052 0.058
0.282 -0.061 0.077
0.287 -0.059 0.078
0.289 -0.057 0.079
0.289 -0.054 0.079
0.288 -0.052 0.078
0.280 -0.047 0.076
0.278 -0.045 0.075
0.274 -0.041 0.074
0.272 -0.039 0.074
0.274 -0.036 0.074
0.273 -0.034 0.074
0.275 -0.031 0.075
0.275 -0.029 0.074
0.278 -0.027 0.075
0.286 -0.025 0.077
0.273 -0.021 0.074
0.278 -0.019 0.075
0.280 -0.017 0.076
0.278 -0.014 0.075
0.278 -0.011 0.075
0.282 -0.009 0.076
0.281 -0.006 0.076
0.282 -0.004 0.076
0.283 -0.001 0.077
0.285 0.001 0.077
0.287 0.004 0.078
0.287 0.007 0.078
0.279 0.009 0.075
0.279 0.011 0.075
0.279 0.014 0.076
0.274 0.016 0.074
0.266 0.018 0.072
0.264 0.021 0.072
0.276 0.024 0.075
0.274 0.026 0.074
0.270 0.028 0.073
0.269 0.031 0.073
0.275 0.034 0.075
0.281 0.037 0.076
0.282 0.040 0.077
0.272 0.041 0.074
0.270 0.043 0.073
0.280 0.048 0.076
0.283 0.051 0.077
0.284 0.054 0.077
0.284 0.056 0.077
0.283 0.059 0.077
0.284 0.062 0.078
0.280 0.063 0.077
0.267 0.063 0.073
0.255 0.063 0.070
0.248 0.063 0.068
0.248 0.066 0.068
0.244 0.067 0.067
0.246 0.070 0.068
0.260 0.076 0.072
0.271 0.082 0.075
0.275 0.086 0.076
0.278 0.090 0.077
0.282 0.094 0.078
0.282 0.096 0.078
0.279 0.098 0.078
0.278 0.101 0.078
0.275 0.102 0.077
0.273 0.104 0.076
0.272 0.107 0.076
0.273 0.110 0.077
0.275 0.113 0.077
0.273 0.115 0.077
0.270 0.117 0.076
0.270 0.120 0.076
0.273 0.124 0.077
0.271 0.126 0.077
0.266 0.126 0.076
0.261 0.127 0.075
0.261 0.130 0.075
0.259 0.131 0.074
0.261 0.135 0.075
0.263 0.139 0.076
0.265 0.143 0.076
0.266 0.147 0.077
0.270 0.152 0.078
0.272 0.156 0.079
0.271 0.159 0.079
0.268 0.160 0.078
0.265 0.161 0.078
0.257 0.160 0.076
0.259 0.164 0.076
0.256 0.165 0.076
0.257 0.169 0.076
0.258 0.173 0.077
0.260 0.177 0.078
0.256 0.178 0.077
0.255 0.180 0.077
0.253 0.182 0.076
0.253 0.185 0.077
0.253 0.189 0.077
0.253 0.192 0.078
0.251 0.194 0.077
0.251 0.197 0.077
0.249 0.199 0.077
0.248 0.201 0.077
0.248 0.205 0.078
0.249 0.209 0.078
0.248 0.212 0.078
0.245 0.213 0.078
0.240 0.213 0.077
0.236 0.213 0.076
0.233 0.213 0.075
0.225 0.210 0.073
0.215 0.204 0.070
0.210 0.203 0.069
0.207 0.203 0.068
0.202 0.201 0.067
0.210 0.213 0.070
0.213 0.220 0.071
0.208 0.218 0.070
0.206 0.220 0.070
0.203 0.220 0.069
0.197 0.217 0.068
0.196 0.220 0.068
0.194 0.221 0.068
0.190 0.221 0.067
0.196 0.231 0.069
0.200 0.240 0.071
0.202 0.245 0.072
0.201 0.248 0.072
0.199 0.250 0.072
0.196 0.250 0.071
0.198 0.256 0.072
0.187 0.246 0.069
0.171 0.229 0.063
0.100 -0.137 0.038
0.101 -0.137 0.038
0.102 -0.136 0.038
0.101 -0.132 0.037
0.101 -0.131 0.037
0.102 -0.131 0.038
0.103 -0.130 0.038
0.104 -0.129 0.038
0.104 -0.127 0.038
0.103 -0.125 0.037
0.103 -0.123 0.037
0.103 -0.121 0.037
0.103 -0.120 0.037
0.104 -0.119 0.037
0.103 -0.116 0.036
0.106 -0.117 0.037
0.110 -0.120 0.038
0.106 -0.114 0.037
0.102 -0.108 0.035
0.111 -0.115 0.038
0.108 -0.111 0.037
0.118 -0.119 0.040
0.258 -0.252 0.086
0.261 -0.251 0.087
0.264 -0.251 0.088
0.268 -0.250 0.088
0.267 -0.245 0.088
0.267 -0.242 0.087
0.268 -0.239 0.087
0.268 -0.234 0.087
0.268 -0.231 0.087
0.269 -0.228 0.086
0.270 -0.225 0.086
0.265 -0.218 0.085
0.259 -0.209 0.082
0.249 -0.198 0.079
0.213 -0.163 0.067
0.201 -0.152 0.063
0.199 -0.148 0.062
0.202 -0.147 0.063
0.199 -0.143 0.062
0.198 -0.140 0.061
0.198 -0.137 0.061
0.204 -0.139 0.062
0.204 -0.137 0.062
0.203 -0.134 0.062
0.202 -0.130 0.061
0.170 -0.106 0.051
0.170 -0.104 0.051
0.170 -0.102 0.051
0.179 -0.106 0.054
0.198 -0.115 0.059
0.206 -0.117 0.061
0.207 -0.115 0.062
0.204 -0.111 0.060
0.205 -0.110 0.061
0.205 -0.107 0.060
0.205 -0.105 0.060
0.206 -0.103 0.060
0.201 -0.099 0.059
0.205 -0.099 0.060
0.205 -0.096 0.060
0.205 -0.095 0.060
0.207 -0.093 0.060
0.208 -0.091 0.060
0.209 -0.090 0.061
0.198 -0.083 0.057
0.208 -0.085 0.060
0.210 -0.084 0.061
0.210 -0.082 0.061
0.210 -0.080 0.061
0.212 -0.078 0.061
0.219 -0.079 0.063
0.214 -0.075 0.061
0.215 -0.073 0.062
0.217 -0.072 0.062
0.223 -0.072 0.064
0.223 -0.070 0.064
0.218 -0.066 0.062
0.193 -0.056 0.055
0.193 -0.055 0.055
0.194 -0.053 0.055
0.195 -0.051 0.055
0.196 -0.050 0.055
0.197 -0.048 0.056
0.198 -0.046 0.056
0.200 -0.045 0.056
0.202 -0.044 0.057
0.210 -0.043 0.059
0.212 -0.042 0.060
0.277 -0.044 0.078
0.274 -0.041 0.077
0.270 -0.038 0.076
0.270 -0.036 0.076
0.272 -0.034 0.076
0.274 -0.031 0.077
0.277 -0.029 0.078
0.281 -0.027 0.079
0.269 -0.023 0.075
0.273 -0.021 0.076
0.274 -0.019 0.077
0.276 -0.016 0.077
0.276 -0.014 0.077
0.277 -0.011 0.077
0.281 -0.009 0.078
0.282 -0.006 0.079
0.281 -0.004 0.079
0.284 -0.001 0.079
0.285 0.001 0.080
0.284 0.004 0.079
0.280 0.006 0.078
0.278 0.009 0.078
0.280 0.012 0.078
0.281 0.014 0.079
0.279 0.017 0.078
0.275 0.019 0.077
0.270 0.021 0.076
0.255 0.022 0.072
0.267 0.026 0.075
0.270 0.028 0.076
0.272 0.031 0.076
0.274 0.034 0.077
0.279 0.037 0.078
0.281 0.040 0.079
0.276 0.042 0.078
0.266 0.043 0.075
0.275 0.047 0.078
0.286 0.051 0.081
0.284 0.054 0.080
0.282 0.056 0.080
0.285 0.059 0.081
0.281 0.061 0.080
0.266 0.060 0.075
0.253 0.060 0.072
0.244 0.060 0.069
0.244 0.062 0.069
0.241 0.064 0.069
0.245 0.067 0.070
0.249 0.071 0.071
0.260 0.076 0.074
0.272 0.083 0.078
0.276 0.087 0.079
0.280 0.090 0.080
0.279 0.093 0.080
0.273 0.094 0.079
0.269 0.095 0.078
0.270 0.098 0.078
0.271 0.101 0.078
0.260 0.099 0.075
0.264 0.104 0.076
0.268 0.108 0.078
0.269 0.111 0.078
0.258 0.109 0.075
0.257 0.112 0.075
0.260 0.115 0.076
0.259 0.118 0.076
0.259 0.120 0.076
0.261 0.124 0.077
0.261 0.127 0.077
0.259 0.129 0.077
0.258 0.131 0.077
0.258 0.134 0.077
0.260 0.138 0.077
0.259 0.140 0.077
0.257 0.142 0.077
0.256 0.144 0.077
0.254 0.146 0.076
0.247 0.145 0.075
0.250 0.150 0.076
0.251 0.153 0.076
0.249 0.155 0.076
0.250 0.159 0.077
0.252 0.163 0.077
0.253 0.166 0.078
0.260 0.174 0.080
0.256 0.175 0.079
0.257 0.179 0.080
0.252 0.178 0.079
0.250 0.180 0.078
0.250 0.183 0.079
0.250 0.187 0.079
0.249 0.189 0.079
0.250 0.193 0.080
0.249 0.196 0.079
0.247 0.198 0.079
0.245 0.200 0.079
0.245 0.203 0.079
0.245 0.207 0.080
0.239 0.205 0.078
0.234 0.204 0.077
0.225 0.204 0.075
0.226 0.208 0.075
0.214 0.200 0.072
0.203 0.193 0.069
0.201 0.194 0.068
0.200 0.197 0.068
0.197 0.196 0.067
0.193 0.197 0.067
0.205 0.212 0.071
0.204 0.215 0.071
0.204 0.218 0.072
0.201 0.219 0.071
0.197 0.218 0.070
0.193 0.217 0.069
0.190 0.217 0.068
0.188 0.218 0.068
0.190 0.224 0.069
0.195 0.234 0.072
0.198 0.242 0.073
0.197 0.244 0.073
0.198 0.249 0.074
0.196 0.250 0.074
0.189 0.245 0.072
0.192 0.253 0.073
0.178 0.238 0.068
0.100 -0.137 0.039
0.101 -0.137 0.039
0.102 -0.136 0.039
0.102 -0.134 0.039
0.101 -0.131 0.039
0.102 -0.131 0.039
0.104 -0.131 0.039
0.104 -0.129 0.039
0.104 -0.128 0.039
0.104 -0.127 0.039
0.104 -0.124 0.039
0.104 -0.123 0.038
0.104 -0.121 0.038
0.104 -0.119 0.038
0.103 -0.117 0.038
0.112 -0.124 0.040
0.108 -0.118 0.039
0.107 -0.115 0.038
0.101 -0.107 0.036
0.112 -0.117 0.040
0.113 -0.116 0.040
0.117 -0.118 0.041
0.121 -0.120 0.042
0.255 -0.246 0.088
0.257 -0.244 0.088
0.258 -0.241 0.088
0.262 -0.241 0.089
0.266 -0.241 0.090
0.264 -0.235 0.089
0.264 -0.231 0.088
0.264 -0.228 0.088
0.265 -0.225 0.088
0.262 -0.219 0.087
0.261 -0.215 0.086
0.260 -0.210 0.085
0.254 -0.202 0.083
0.205 -0.158 0.067
0.196 -0.148 0.063
0.203 -0.151 0.066
0.204 -0.149 0.066
0.201 -0.144 0.064
0.197 -0.139 0.063
0.199 -0.138 0.063
0.202 -0.138 0.064
0.205 -0.138 0.065
0.201 -0.132 0.063
0.193 -0.125 0.061
0.175 -0.111 0.055
0.173 -0.108 0.054
0.173 -0.106 0.054
0.191 -0.115 0.059
0.201 -0.119 0.062
0.207 -0.120 0.064
0.208 -0.118 0.064
0.209 -0.116 0.064
0.207 -0.113 0.063
0.205 -0.109 0.063
0.205 -0.107 0.063
0.203 -0.104 0.062
0.200 -0.101 0.061
0.206 -0.101 0.062
0.207 -0.100 0.063
0.209 -0.098 0.063
0.207 -0.095 0.062
0.208 -0.094 0.063
0.207 -0.091 0.062
0.205 -0.088 0.061
0.209 -0.088 0.063
0.208 -0.085 0.062
0.208 -0.083 0.062
0.209 -0.082 0.062
0.209 -0.080 0.062
0.211 -0.078 0.063
0.214 -0.077 0.063
0.221 -0.077 0.065
0.217 -0.074 0.064
0.221 -0.073 0.065
0.225 -0.072 0.066
0.225 -0.070 0.066
0.223 -0.067 0.066
0.230 -0.067 0.067
0.234 -0.066 0.069
0.207 -0.055 0.061
0.201 -0.051 0.059
0.199 -0.049 0.058
0.199 -0.047 0.058
0.201 -0.045 0.059
0.200 -0.043 0.058
0.201 -0.042 0.059
0.202 -0.040 0.059
0.206 -0.039 0.060
0.207 -0.037 0.060
0.208 -0.035 0.060
0.210 -0.034 0.061
0.212 -0.032 0.062
0.223 -0.032 0.065
0.267 -0.033 0.078
0.274 -0.031 0.079
0.273 -0.029 0.079
0.273 -0.026 0.079
0.276 -0.024 0.080
0.271 -0.021 0.078
0.272 -0.019 0.079
0.273 -0.016 0.079
0.275 -0.014 0.080
0.275 -0.011 0.080
0.277 -0.009 0.080
0.276 -0.006 0.080
0.278 -0.004 0.080
0.278 -0.001 0.080
0.280 0.001 0.081
0.277 0.004 0.080
0.275 0.006 0.080
0.278 0.009 0.080
0.282 0.012 0.082
0.280 0.014 0.081
0.275 0.016 0.080
0.273 0.019 0.079
0.264 0.021 0.076
0.253 0.022 0.073
0.259 0.025 0.075
0.267 0.028 0.078
0.270 0.031 0.078
0.272 0.034 0.079
0.276 0.037 0.080
0.281 0.040 0.082
0.280 0.042 0.081
0.278 0.045 0.081
0.283 0.048 0.082
0.282 0.051 0.082
0.282 0.053 0.082
0.281 0.056 0.082
0.278 0.058 0.081
0.278 0.061 0.081
0.264 0.060 0.077
0.252 0.060 0.074
0.244 0.060 0.072
0.237 0.061 0.070
0.235 0.062 0.069
0.241 0.066 0.071
0.255 0.073 0.075
0.267 0.078 0.079
0.270 0.082 0.080
0.279 0.088 0.083
0.279 0.090 0.083
0.275 0.092 0.082
0.258 0.089 0.077
0.260 0.092 0.077
0.259 0.094 0.077
0.254 0.095 0.076
0.250 0.096 0.075
0.251 0.099 0.075
0.257 0.104 0.077
0.255 0.106 0.077
0.250 0.106 0.075
0.250 0.109 0.075
0.253 0.113 0.077
0.252 0.115 0.076
0.250 0.117 0.076
0.253 0.121 0.077
0.255 0.124 0.078
0.254 0.127 0.078
0.254 0.130 0.078
0.258 0.134 0.079
0.256 0.136 0.079
0.254 0.138 0.079
0.251 0.139 0.078
0.248 0.140 0.077
0.244 0.140 0.076
0.243 0.143 0.076
0.240 0.144 0.075
0.245 0.150 0.077
0.247 0.154 0.078
0.247 0.157 0.078
0.248 0.160 0.079
0.250 0.165 0.080
0.254 0.171 0.081
0.259 0.177 0.083
0.252 0.175 0.081
0.247 0.175 0.080
0.247 0.178 0.080
0.248 0.182 0.080
0.247 0.185 0.081
0.248 0.188 0.081
0.248 0.192 0.082
0.247 0.195 0.082
0.245 0.197 0.081
0.240 0.196 0.080
0.234 0.194 0.078
0.218 0.187 0.074
0.212 0.185 0.072
0.209 0.186 0.071
0.216 0.195 0.074
0.216 0.199 0.075
0.208 0.194 0.072
0.200 0.191 0.070
0.199 0.192 0.070
0.199 0.196 0.070
0.197 0.198 0.070
0.197 0.201 0.070
0.198 0.205 0.071
0.200 0.211 0.072
0.202 0.217 0.074
0.199 0.217 0.073
0.199 0.220 0.073
0.192 0.217 0.071
0.193 0.220 0.072
0.188 0.219 0.071
0.191 0.226 0.072
0.195 0.234 0.074
0.197 0.240 0.075
0.196 0.243 0.075
0.198 0.249 0.077
0.194 0.248 0.075
0.191 0.248 0.075
0.185 0.245 0.073
0.185 0.248 0.073
0.101 -0.137 0.040
0.102 -0.136 0.041
0.103 -0.135 0.041
0.103 -0.134 0.041
0.103 -0.133 0.041
0.104 -0.132 0.041
0.104 -0.130 0.040
0.104 -0.128 0.040
0.106 -0.128 0.041
0.105 -0.126 0.040
0.104 -0.123 0.040
0.104 -0.121 0.040
0.104 -0.119 0.039
0.108 -0.122 0.040
0.110 -0.122 0.041
0.104 -0.114 0.038
0.102 -0.110 0.037
0.100 -0.106 0.037
0.109 -0.114 0.040
0.117 -0.121 0.043
0.116 -0.117 0.042
0.117 -0.117 0.042
0.117 -0.115 0.042
0.252 -0.239 0.089
0.253 -0.237 0.089
0.255 -0.235 0.089
0.260 -0.236 0.091
0.258 -0.230 0.090
0.257 -0.225 0.089
0.259 -0.224 0.089
0.258 -0.219 0.089
0.257 -0.215 0.088
0.256 -0.210 0.087
0.251 -0.203 0.085
0.248 -0.198 0.084
0.237 -0.186 0.080
0.226 -0.174 0.076
0.195 -0.148 0.065
0.197 -0.147 0.066
0.200 -0.146 0.066
0.200 -0.144 0.066
0.200 -0.142 0.066
0.201 -0.140 0.066
0.205 -0.140 0.067
0.204 -0.137 0.067
0.202 -0.133 0.066
0.181 -0.117 0.059
0.175 -0.111 0.057
0.175 -0.109 0.056
0.196 -0.120 0.063
0.202 -0.121 0.065
0.204 -0.121 0.065
0.207 -0.120 0.066
0.209 -0.119 0.067
0.209 -0.117 0.066
0.208 -0.114 0.066
0.208 -0.111 0.066
0.205 -0.108 0.065
0.203 -0.104 0.064
0.200 -0.101 0.063
0.203 -0.100 0.064
0.208 -0.100 0.065
0.208 -0.098 0.065
