VERSION .7
FIELDS x y z
SIZE 4 4 4
TYPE F F F
COUNT 1 1 1
WIDTH     2563
HEIGHT 1
VIEWPOINT 0 0 0 1 0 0 0
POINTS     2563
DATA ascii
0.415 -0.104 -0.005
0.425 -0.102 -0.005
0.429 -0.099 -0.005
0.410 -0.091 -0.005
0.410 -0.087 -0.005
0.405 -0.082 -0.005
0.390 -0.076 -0.005
0.287 -0.048 -0.004
0.287 -0.045 -0.004
0.291 -0.043 -0.004
0.290 -0.040 -0.004
0.292 -0.038 -0.004
0.297 -0.036 -0.004
0.292 -0.033 -0.004
0.285 -0.030 -0.004
0.287 -0.027 -0.004
0.297 -0.025 -0.004
0.319 -0.024 -0.004
0.325 -0.022 -0.004
0.318 -0.019 -0.004
0.315 -0.016 -0.004
0.312 -0.013 -0.004
0.301 -0.010 -0.004
0.301 -0.007 -0.004
0.316 -0.004 -0.004
0.312 -0.001 -0.004
0.301 0.001 -0.004
0.304 0.004 -0.004
0.306 0.007 -0.004
0.307 0.010 -0.004
0.307 0.012 -0.004
0.311 0.015 -0.004
0.312 0.018 -0.004
0.313 0.021 -0.004
0.313 0.024 -0.004
0.315 0.027 -0.004
0.316 0.030 -0.004
0.318 0.033 -0.004
0.317 0.036 -0.004
0.317 0.038 -0.004
0.317 0.041 -0.004
0.318 0.044 -0.004
0.317 0.047 -0.004
0.315 0.050 -0.004
0.316 0.053 -0.004
0.318 0.056 -0.004
0.318 0.059 -0.004
0.317 0.062 -0.004
0.315 0.064 -0.004
0.314 0.067 -0.004
0.315 0.070 -0.004
0.314 0.073 -0.004
0.313 0.075 -0.004
0.321 0.080 -0.004
0.323 0.084 -0.004
0.330 0.089 -0.004
0.333 0.093 -0.004
0.327 0.094 -0.004
0.309 0.092 -0.004
0.294 0.090 -0.004
0.304 0.096 -0.004
0.350 0.118 -0.004
0.346 0.120 -0.004
0.329 0.117 -0.004
0.338 0.124 -0.004
0.351 0.132 -0.004
0.353 0.136 -0.004
0.345 0.136 -0.004
0.332 0.134 -0.004
0.328 0.136 -0.004
0.362 0.158 -0.005
0.356 0.159 -0.004
0.347 0.180 -0.004
0.340 0.180 -0.004
0.337 0.186 -0.004
0.329 0.185 -0.004
0.331 0.190 -0.004
0.332 0.194 -0.004
0.327 0.195 -0.004
0.324 0.197 -0.004
0.323 0.200 -0.004
0.321 0.202 -0.004
0.318 0.204 -0.004
0.316 0.207 -0.004
0.314 0.209 -0.004
0.308 0.209 -0.004
0.311 0.214 -0.004
0.311 0.218 -0.004
0.300 0.214 -0.004
1.305 1.017 -0.017
1.318 1.045 -0.017
1.304 1.052 -0.017
1.295 1.062 -0.017
1.304 1.087 -0.017
1.315 1.115 -0.017
1.305 1.126 -0.017
1.319 1.156 -0.017
1.320 1.177 -0.017
1.316 1.193 -0.017
1.315 1.212 -0.017
1.310 1.227 -0.017
1.305 1.244 -0.017
1.327 1.285 -0.017
1.367 1.415 -0.018
0.456 0.505 -0.006
0.454 0.510 -0.006
0.509 0.592 -0.007
0.508 0.599 -0.006
0.498 0.598 -0.006
0.488 0.596 -0.006
0.334 0.434 -0.004
0.165 -0.227 -0.000
0.163 -0.221 -0.000
0.168 -0.226 -0.000
0.177 -0.234 -0.000
0.184 -0.240 -0.000
0.189 -0.243 -0.000
0.191 -0.242 -0.000
0.191 -0.239 -0.000
0.187 -0.230 -0.000
0.189 -0.230 -0.000
0.192 -0.230 -0.000
0.194 -0.229 -0.000
0.195 -0.227 -0.000
0.197 -0.225 -0.000
0.199 -0.225 -0.000
0.202 -0.224 -0.000
0.204 -0.223 -0.000
0.205 -0.221 -0.000
0.208 -0.220 -0.000
0.210 -0.220 -0.000
0.213 -0.219 -0.000
0.215 -0.217 -0.000
0.217 -0.217 -0.000
0.219 -0.216 -0.000
0.222 -0.215 -0.000
0.225 -0.215 -0.000
0.228 -0.214 -0.000
0.230 -0.212 -0.001
0.232 -0.211 -0.001
0.235 -0.210 -0.001
0.237 -0.209 -0.001
0.240 -0.208 -0.001
0.243 -0.207 -0.001
0.246 -0.207 -0.001
0.249 -0.206 -0.001
0.251 -0.204 -0.001
0.254 -0.203 -0.001
0.244 -0.192 -0.001
0.215 -0.167 -0.001
0.213 -0.163 -0.001
0.216 -0.162 -0.001
0.214 -0.158 -0.001
0.214 -0.156 -0.001
0.210 -0.150 -0.001
0.211 -0.148 -0.001
0.209 -0.144 -0.001
0.208 -0.141 -0.001
0.205 -0.137 -0.001
0.215 -0.141 -0.001
0.218 -0.141 -0.001
0.216 -0.137 -0.001
0.220 -0.136 -0.001
0.220 -0.134 -0.001
0.229 -0.137 -0.001
0.231 -0.136 -0.001
0.227 -0.131 -0.001
0.223 -0.127 -0.001
0.219 -0.122 -0.001
0.213 -0.116 -0.001
0.218 -0.116 -0.001
0.214 -0.112 -0.001
0.212 -0.109 -0.001
0.214 -0.108 -0.001
0.215 -0.106 -0.001
0.207 -0.100 -0.001
0.209 -0.099 -0.001
0.215 -0.099 -0.001
0.221 -0.100 -0.001
0.225 -0.099 -0.001
0.227 -0.098 -0.001
0.226 -0.095 -0.001
0.224 -0.092 -0.001
0.222 -0.089 -0.001
0.219 -0.086 -0.001
0.218 -0.083 -0.001
0.226 -0.084 -0.001
0.243 -0.088 -0.001
0.242 -0.086 -0.001
0.240 -0.083 -0.001
0.242 -0.081 -0.001
0.254 -0.083 -0.001
0.256 -0.081 -0.001
0.263 -0.080 -0.001
0.268 -0.079 -0.001
0.283 -0.081 -0.001
0.402 -0.108 -0.001
0.406 -0.105 -0.001
0.411 -0.103 -0.001
0.423 -0.102 -0.001
0.430 -0.099 -0.001
0.418 -0.093 -0.001
0.408 -0.087 -0.001
0.400 -0.081 -0.001
0.389 -0.076 -0.001
0.285 -0.048 -0.001
0.287 -0.045 -0.001
0.288 -0.043 -0.001
0.287 -0.040 -0.001
0.290 -0.038 -0.001
0.297 -0.036 -0.001
0.301 -0.034 -0.001
0.287 -0.030 -0.001
0.286 -0.027 -0.001
0.291 -0.025 -0.001
0.306 -0.023 -0.001
0.318 -0.022 -0.001
0.323 -0.019 -0.001
0.317 -0.016 -0.001
0.330 -0.013 -0.001
0.304 -0.010 -0.001
0.294 -0.007 -0.001
0.301 -0.004 -0.001
0.321 -0.002 -0.001
0.311 0.001 -0.001
0.301 0.004 -0.001
0.305 0.007 -0.001
0.305 0.009 -0.001
0.307 0.012 -0.001
0.308 0.015 -0.001
0.311 0.018 -0.001
0.312 0.021 -0.001
0.312 0.024 -0.001
0.312 0.027 -0.001
0.313 0.030 -0.001
0.315 0.033 -0.001
0.316 0.035 -0.001
0.316 0.038 -0.001
0.317 0.041 -0.001
0.317 0.044 -0.001
0.316 0.047 -0.001
0.315 0.050 -0.001
0.314 0.053 -0.001
0.316 0.056 -0.001
0.316 0.059 -0.001
0.315 0.061 -0.001
0.314 0.064 -0.001
0.314 0.067 -0.001
0.314 0.070 -0.001
0.312 0.072 -0.001
0.313 0.075 -0.001
0.324 0.081 -0.001
0.327 0.085 -0.001
0.334 0.090 -0.001
0.334 0.093 -0.001
0.331 0.095 -0.001
0.325 0.097 -0.001
0.309 0.095 -0.001
0.302 0.096 -0.001
0.340 0.111 -0.001
0.347 0.116 -0.001
0.334 0.115 -0.001
0.340 0.121 -0.001
0.345 0.126 -0.001
0.346 0.130 -0.001
0.344 0.133 -0.001
0.330 0.130 -0.001
0.329 0.133 -0.001
0.327 0.136 -0.001
0.347 0.166 -0.001
0.351 0.171 -0.001
0.346 0.172 -0.001
0.323 0.167 -0.001
0.351 0.186 -0.001
0.361 0.195 -0.001
0.338 0.194 -0.001
0.332 0.194 -0.001
0.327 0.195 -0.001
0.324 0.197 -0.001
0.323 0.200 -0.001
0.320 0.202 -0.001
0.318 0.204 -0.001
0.316 0.206 -0.001
0.315 0.210 -0.001
0.313 0.212 -0.001
0.312 0.215 -0.001
0.311 0.218 -0.001
0.304 0.217 -0.001
1.299 0.995 -0.003
1.294 1.008 -0.003
1.306 1.053 -0.003
1.292 1.060 -0.003
1.291 1.077 -0.003
1.305 1.107 -0.003
1.304 1.124 -0.003
1.297 1.137 -0.003
1.307 1.166 -0.003
1.314 1.192 -0.003
1.316 1.213 -0.003
1.333 1.312 -0.003
1.331 1.333 -0.003
1.346 1.393 -0.002
1.356 1.427 -0.002
0.489 0.532 -0.001
0.487 0.539 -0.001
0.499 0.589 -0.001
0.496 0.595 -0.001
0.369 0.458 -0.000
0.363 0.457 -0.000
0.354 0.453 -0.000
0.350 0.455 -0.000
0.181 -0.249 0.002
0.171 -0.232 0.002
0.177 -0.238 0.002
0.184 -0.244 0.002
0.187 -0.243 0.002
0.189 -0.244 0.002
0.189 -0.239 0.002
0.185 -0.231 0.002
0.187 -0.230 0.002
0.190 -0.231 0.002
0.193 -0.231 0.002
0.194 -0.229 0.002
0.195 -0.227 0.002
0.197 -0.225 0.002
0.200 -0.225 0.002
0.202 -0.224 0.002
0.204 -0.223 0.002
0.205 -0.221 0.002
0.207 -0.220 0.002
0.209 -0.219 0.002
0.212 -0.218 0.002
0.215 -0.218 0.002
0.217 -0.217 0.002
0.219 -0.216 0.002
0.222 -0.215 0.002
0.224 -0.214 0.002
0.227 -0.213 0.002
0.229 -0.211 0.002
0.232 -0.211 0.002
0.234 -0.210 0.002
0.237 -0.209 0.002
0.240 -0.208 0.002
0.243 -0.207 0.002
0.246 -0.207 0.002
0.248 -0.205 0.002
0.250 -0.203 0.002
0.252 -0.202 0.002
0.221 -0.172 0.002
0.217 -0.165 0.002
0.220 -0.165 0.002
0.222 -0.164 0.002
0.211 -0.153 0.002
0.215 -0.154 0.002
0.214 -0.150 0.002
0.213 -0.147 0.001
0.209 -0.142 0.001
0.215 -0.143 0.001
0.200 -0.131 0.001
0.207 -0.133 0.001
0.220 -0.139 0.001
0.212 -0.131 0.001
0.216 -0.132 0.001
0.228 -0.137 0.002
0.229 -0.135 0.002
0.224 -0.129 0.001
0.225 -0.127 0.001
0.215 -0.119 0.001
0.218 -0.119 0.001
0.218 -0.116 0.001
0.201 -0.105 0.001
0.210 -0.108 0.001
0.211 -0.106 0.001
0.212 -0.105 0.001
0.211 -0.102 0.001
0.212 -0.100 0.001
0.215 -0.099 0.001
0.218 -0.098 0.001
0.226 -0.100 0.001
0.228 -0.098 0.001
0.225 -0.095 0.001
0.225 -0.093 0.001
0.224 -0.090 0.001
0.224 -0.088 0.001
0.211 -0.081 0.001
0.203 -0.076 0.001
0.233 -0.085 0.001
0.246 -0.087 0.001
0.250 -0.086 0.001
0.256 -0.085 0.001
0.257 -0.083 0.002
0.252 -0.079 0.001
0.262 -0.080 0.002
0.274 -0.081 0.002
0.269 -0.077 0.002
0.399 -0.107 0.002
0.404 -0.105 0.002
0.415 -0.104 0.002
0.428 -0.103 0.002
0.430 -0.099 0.002
0.425 -0.094 0.002
0.411 -0.087 0.002
0.400 -0.081 0.002
0.395 -0.077 0.002
0.302 -0.053 0.002
0.286 -0.048 0.002
0.286 -0.045 0.002
0.285 -0.042 0.002
0.291 -0.041 0.002
0.290 -0.038 0.002
0.296 -0.036 0.002
0.296 -0.033 0.002
0.288 -0.030 0.002
0.288 -0.027 0.002
0.290 -0.025 0.002
0.299 -0.023 0.002
0.313 -0.021 0.002
0.324 -0.019 0.002
0.322 -0.016 0.002
0.307 -0.012 0.002
0.301 -0.007 0.002
0.296 -0.004 0.002
0.308 -0.001 0.002
0.324 0.001 0.002
0.316 0.004 0.002
0.302 0.007 0.002
0.304 0.009 0.002
0.306 0.012 0.002
0.307 0.015 0.002
0.308 0.018 0.002
0.310 0.021 0.002
0.311 0.024 0.002
0.311 0.026 0.002
0.311 0.029 0.002
0.313 0.032 0.002
0.313 0.035 0.002
0.313 0.038 0.002
0.316 0.041 0.002
0.316 0.044 0.002
0.315 0.047 0.002
0.314 0.050 0.002
0.314 0.052 0.002
0.314 0.055 0.002
0.315 0.058 0.002
0.314 0.061 0.002
0.313 0.064 0.002
0.313 0.067 0.002
0.313 0.070 0.002
0.312 0.072 0.002
0.329 0.079 0.002
0.328 0.082 0.002
0.334 0.087 0.002
0.337 0.091 0.002
0.337 0.094 0.002
0.325 0.094 0.002
0.336 0.100 0.002
0.333 0.102 0.002
0.326 0.103 0.002
0.339 0.111 0.002
0.339 0.114 0.002
0.335 0.116 0.002
0.341 0.121 0.002
0.344 0.126 0.002
0.337 0.127 0.002
0.334 0.129 0.002
0.327 0.129 0.002
0.332 0.135 0.002
0.346 0.144 0.002
0.361 0.154 0.002
0.361 0.157 0.002
0.349 0.155 0.002
0.339 0.155 0.002
0.351 0.178 0.002
0.334 0.173 0.002
0.334 0.180 0.002
0.332 0.183 0.002
0.334 0.188 0.002
0.336 0.193 0.002
0.331 0.194 0.002
0.327 0.195 0.002
0.324 0.197 0.002
0.323 0.200 0.002
0.320 0.202 0.002
0.317 0.204 0.002
0.315 0.206 0.002
0.313 0.209 0.002
0.314 0.213 0.002
0.312 0.215 0.002
0.309 0.217 0.002
0.303 0.216 0.002
1.307 1.001 0.010
1.303 1.015 0.010
1.304 1.034 0.010
1.301 1.067 0.010
1.303 1.086 0.010
1.296 1.099 0.010
1.290 1.112 0.010
1.294 1.134 0.010
1.313 1.170 0.011
1.314 1.191 0.011
1.303 1.201 0.011
1.326 1.263 0.011
1.333 1.291 0.012
0.363 0.436 0.004
0.362 0.441 0.004
0.363 0.450 0.004
0.359 0.452 0.004
0.354 0.452 0.004
0.356 0.463 0.004
0.166 -0.229 0.004
0.176 -0.239 0.004
0.182 -0.244 0.004
0.186 -0.246 0.004
0.187 -0.244 0.004
0.184 -0.237 0.004
0.184 -0.233 0.004
0.185 -0.232 0.004
0.188 -0.231 0.004
0.190 -0.231 0.004
0.192 -0.230 0.004
0.193 -0.228 0.004
0.195 -0.226 0.004
0.197 -0.225 0.004
0.199 -0.225 0.004
0.202 -0.224 0.004
0.204 -0.223 0.004
0.205 -0.222 0.004
0.207 -0.220 0.004
0.210 -0.219 0.004
0.212 -0.218 0.004
0.214 -0.217 0.004
0.216 -0.216 0.004
0.219 -0.215 0.004
0.222 -0.215 0.004
0.224 -0.213 0.004
0.225 -0.212 0.004
0.229 -0.212 0.004
0.232 -0.211 0.004
0.234 -0.210 0.004
0.237 -0.209 0.004
0.239 -0.208 0.004
0.243 -0.208 0.004
0.246 -0.207 0.004
0.247 -0.204 0.004
0.250 -0.203 0.004
0.251 -0.201 0.004
0.248 -0.195 0.004
0.230 -0.178 0.004
0.224 -0.171 0.004
0.222 -0.167 0.004
0.219 -0.162 0.004
0.219 -0.159 0.004
0.219 -0.156 0.004
0.223 -0.156 0.004
0.220 -0.152 0.004
0.218 -0.148 0.004
0.218 -0.145 0.004
0.215 -0.141 0.004
0.202 -0.130 0.003
0.207 -0.131 0.003
0.220 -0.137 0.004
0.226 -0.138 0.004
0.231 -0.138 0.004
0.222 -0.130 0.004
0.222 -0.128 0.004
0.218 -0.123 0.003
0.219 -0.122 0.003
0.221 -0.120 0.004
0.220 -0.118 0.003
0.203 -0.107 0.003
0.199 -0.102 0.003
0.211 -0.106 0.003
0.208 -0.103 0.003
0.204 -0.098 0.003
0.203 -0.096 0.003
0.205 -0.095 0.003
0.217 -0.098 0.003
0.223 -0.098 0.003
0.227 -0.098 0.003
0.226 -0.095 0.003
0.223 -0.092 0.003
0.231 -0.093 0.004
0.222 -0.087 0.003
0.225 -0.086 0.003
0.214 -0.080 0.003
0.226 -0.082 0.003
0.233 -0.083 0.004
0.252 -0.087 0.004
0.254 -0.085 0.004
0.255 -0.083 0.004
0.261 -0.082 0.004
0.269 -0.082 0.004
0.272 -0.081 0.004
0.278 -0.080 0.004
0.387 -0.107 0.006
0.399 -0.107 0.006
0.405 -0.105 0.006
0.417 -0.104 0.006
0.423 -0.102 0.006
0.429 -0.099 0.006
0.426 -0.094 0.006
0.408 -0.087 0.006
0.398 -0.081 0.006
0.397 -0.077 0.006
0.382 -0.071 0.006
0.298 -0.053 0.004
0.293 -0.049 0.004
0.284 -0.045 0.004
0.295 -0.044 0.004
0.289 -0.040 0.004
0.292 -0.038 0.004
0.293 -0.036 0.004
0.294 -0.033 0.004
0.293 -0.030 0.004
0.289 -0.027 0.004
0.290 -0.025 0.004
0.294 -0.023 0.004
0.308 -0.021 0.004
0.320 -0.019 0.005
0.324 -0.016 0.005
0.316 -0.013 0.005
0.307 -0.010 0.004
0.308 -0.007 0.004
0.302 -0.004 0.004
0.304 -0.001 0.004
0.312 0.001 0.005
0.322 0.004 0.005
0.321 0.007 0.005
0.303 0.009 0.004
0.304 0.012 0.004
0.306 0.015 0.004
0.306 0.018 0.004
0.307 0.021 0.004
0.309 0.024 0.005
0.310 0.026 0.005
0.311 0.029 0.005
0.311 0.032 0.005
0.311 0.035 0.005
0.311 0.038 0.005
0.312 0.041 0.005
0.313 0.044 0.005
0.313 0.047 0.005
0.313 0.049 0.005
0.313 0.052 0.005
0.313 0.055 0.005
0.313 0.058 0.005
0.311 0.060 0.005
0.311 0.063 0.005
0.312 0.067 0.005
0.314 0.070 0.005
0.334 0.077 0.005
0.328 0.079 0.005
0.328 0.082 0.005
0.333 0.086 0.005
0.341 0.092 0.005
0.323 0.090 0.005
0.333 0.096 0.005
0.322 0.096 0.005
0.330 0.101 0.005
0.324 0.103 0.005
0.318 0.104 0.005
0.323 0.108 0.005
0.358 0.124 0.005
0.351 0.125 0.005
0.341 0.125 0.005
0.336 0.126 0.005
0.335 0.129 0.005
0.333 0.132 0.005
0.346 0.140 0.005
0.357 0.148 0.005
0.353 0.150 0.005
0.349 0.152 0.005
0.352 0.157 0.005
0.347 0.165 0.005
0.351 0.171 0.006
0.364 0.181 0.006
0.337 0.179 0.005
0.333 0.180 0.005
0.326 0.180 0.005
0.330 0.186 0.005
0.331 0.190 0.005
0.331 0.193 0.005
0.328 0.195 0.005
0.325 0.197 0.005
0.323 0.200 0.005
0.320 0.202 0.005
0.318 0.204 0.005
0.316 0.206 0.005
0.314 0.209 0.005
0.312 0.211 0.005
0.311 0.215 0.005
0.307 0.216 0.005
0.297 0.212 0.005
1.321 1.012 0.023
1.319 1.029 0.023
1.322 1.084 0.024
1.306 1.090 0.024
1.283 1.106 0.024
1.295 1.136 0.024
1.336 1.295 0.026
1.347 1.394 0.027
0.359 0.410 0.008
0.362 0.420 0.008
0.362 0.434 0.008
0.366 0.447 0.008
0.363 0.450 0.008
0.348 0.439 0.008
0.350 0.447 0.008
0.398 0.518 0.009
0.168 -0.231 0.006
0.176 -0.240 0.006
0.181 -0.242 0.006
0.183 -0.242 0.006
0.182 -0.237 0.006
0.183 -0.235 0.006
0.185 -0.235 0.006
0.186 -0.233 0.006
0.188 -0.232 0.006
0.190 -0.230 0.006
0.191 -0.229 0.006
0.193 -0.228 0.006
0.195 -0.226 0.006
0.197 -0.225 0.006
0.199 -0.224 0.006
0.201 -0.223 0.006
0.203 -0.222 0.006
0.205 -0.221 0.006
0.208 -0.220 0.006
0.210 -0.219 0.006
0.212 -0.218 0.006
0.214 -0.217 0.007
0.216 -0.216 0.007
0.219 -0.215 0.007
0.221 -0.214 0.007
0.224 -0.214 0.007
0.226 -0.212 0.007
0.228 -0.211 0.007
0.232 -0.211 0.007
0.235 -0.211 0.007
0.237 -0.209 0.007
0.240 -0.209 0.007
0.243 -0.208 0.007
0.246 -0.207 0.007
0.247 -0.205 0.007
0.248 -0.202 0.007
0.252 -0.202 0.007
0.246 -0.194 0.007
0.234 -0.182 0.006
0.225 -0.172 0.006
0.217 -0.163 0.006
0.221 -0.163 0.006
0.220 -0.160 0.006
0.220 -0.157 0.006
0.219 -0.154 0.006
0.223 -0.154 0.006
0.221 -0.150 0.006
0.215 -0.143 0.006
0.213 -0.139 0.006
0.207 -0.133 0.005
0.211 -0.134 0.006
0.217 -0.135 0.006
0.219 -0.134 0.006
0.217 -0.130 0.006
0.216 -0.127 0.006
0.218 -0.126 0.006
0.220 -0.125 0.006
0.219 -0.121 0.006
0.220 -0.120 0.006
0.220 -0.118 0.006
0.218 -0.114 0.006
0.216 -0.111 0.005
0.214 -0.107 0.005
0.212 -0.105 0.005
0.210 -0.101 0.005
0.215 -0.102 0.005
0.216 -0.100 0.005
0.216 -0.098 0.005
0.221 -0.098 0.005
0.227 -0.098 0.006
0.228 -0.096 0.006
0.230 -0.095 0.006
0.222 -0.089 0.005
0.225 -0.088 0.006
0.220 -0.084 0.005
0.224 -0.084 0.005
0.231 -0.084 0.006
0.242 -0.085 0.006
0.237 -0.081 0.006
0.241 -0.080 0.006
0.242 -0.079 0.006
0.256 -0.081 0.006
0.267 -0.082 0.006
0.276 -0.082 0.007
0.283 -0.081 0.007
0.398 -0.107 0.010
0.409 -0.106 0.010
0.415 -0.104 0.010
0.420 -0.101 0.010
0.425 -0.098 0.010
0.420 -0.093 0.010
0.405 -0.086 0.010
0.397 -0.081 0.009
0.393 -0.076 0.009
0.299 -0.053 0.007
0.288 -0.048 0.007
0.288 -0.046 0.007
0.291 -0.043 0.007
0.292 -0.041 0.007
0.293 -0.038 0.007
0.292 -0.036 0.007
0.294 -0.033 0.007
0.296 -0.031 0.007
0.290 -0.027 0.007
0.291 -0.025 0.007
0.294 -0.022 0.007
0.297 -0.020 0.007
0.302 -0.018 0.007
0.310 -0.015 0.007
0.316 -0.013 0.007
0.309 -0.010 0.007
0.311 -0.007 0.007
0.309 -0.004 0.007
0.305 -0.001 0.007
0.308 0.001 0.007
0.316 0.004 0.007
0.320 0.007 0.008
0.322 0.010 0.008
0.305 0.012 0.007
0.304 0.015 0.007
0.305 0.018 0.007
0.305 0.021 0.007
0.308 0.023 0.007
0.310 0.026 0.007
0.309 0.029 0.007
0.309 0.032 0.007
0.310 0.035 0.007
0.311 0.038 0.007
0.311 0.041 0.007
0.311 0.043 0.007
0.312 0.046 0.007
0.311 0.049 0.007
0.311 0.052 0.007
0.312 0.055 0.007
0.310 0.058 0.007
0.308 0.060 0.007
0.309 0.063 0.007
0.318 0.068 0.008
0.330 0.073 0.008
0.327 0.076 0.008
0.324 0.078 0.008
0.328 0.082 0.008
0.339 0.088 0.008
0.344 0.093 0.008
0.339 0.095 0.008
0.320 0.092 0.008
0.323 0.096 0.008
0.321 0.099 0.008
0.313 0.099 0.008
0.307 0.100 0.007
0.346 0.120 0.008
0.348 0.124 0.008
0.343 0.125 0.008
0.343 0.129 0.008
0.347 0.134 0.009
0.349 0.138 0.009
0.357 0.144 0.009
0.368 0.153 0.009
0.366 0.156 0.009
0.361 0.157 0.009
0.359 0.160 0.009
0.346 0.158 0.009
0.345 0.161 0.009
0.350 0.167 0.009
0.358 0.174 0.009
0.354 0.176 0.009
0.350 0.178 0.009
0.343 0.182 0.009
0.338 0.183 0.009
0.328 0.181 0.008
0.321 0.181 0.008
0.328 0.188 0.008
0.330 0.193 0.009
0.329 0.196 0.009
0.325 0.197 0.008
0.322 0.199 0.008
0.320 0.202 0.008
0.318 0.205 0.008
0.317 0.207 0.008
0.315 0.210 0.008
0.312 0.212 0.008
0.309 0.213 0.008
0.307 0.216 0.008
0.309 0.221 0.008
0.351 0.388 0.011
0.355 0.399 0.012
0.363 0.415 0.012
0.361 0.420 0.012
0.415 0.540 0.015
0.170 -0.234 0.008
0.175 -0.238 0.008
0.179 -0.241 0.008
0.180 -0.238 0.008
0.180 -0.235 0.008
0.182 -0.234 0.008
0.184 -0.234 0.008
0.186 -0.233 0.008
0.188 -0.231 0.008
0.189 -0.230 0.008
0.191 -0.229 0.009
0.193 -0.228 0.009
0.195 -0.227 0.009
0.197 -0.226 0.009
0.199 -0.224 0.009
0.200 -0.223 0.009
0.203 -0.222 0.009
0.205 -0.221 0.009
0.207 -0.220 0.009
0.209 -0.219 0.009
0.211 -0.218 0.009
0.214 -0.217 0.009
0.216 -0.216 0.009
0.219 -0.215 0.009
0.221 -0.214 0.009
0.225 -0.214 0.009
0.227 -0.213 0.009
0.229 -0.211 0.009
0.231 -0.210 0.009
0.234 -0.209 0.009
0.238 -0.210 0.009
0.241 -0.209 0.009
0.243 -0.208 0.009
0.246 -0.207 0.009
0.248 -0.205 0.009
0.249 -0.203 0.009
0.253 -0.203 0.010
0.245 -0.193 0.009
0.232 -0.180 0.009
0.223 -0.170 0.008
0.220 -0.165 0.008
0.228 -0.169 0.008
0.229 -0.166 0.008
0.216 -0.154 0.008
0.214 -0.150 0.008
0.213 -0.147 0.008
0.214 -0.145 0.008
0.213 -0.142 0.008
0.207 -0.136 0.007
0.206 -0.133 0.007
0.206 -0.130 0.007
0.208 -0.129 0.007
0.216 -0.132 0.008
0.217 -0.130 0.008
0.217 -0.128 0.008
0.218 -0.126 0.008
0.219 -0.124 0.008
0.219 -0.121 0.008
0.217 -0.118 0.008
0.221 -0.118 0.008
0.208 -0.109 0.007
0.201 -0.103 0.007
0.200 -0.101 0.007
0.214 -0.105 0.007
0.204 -0.099 0.007
0.206 -0.097 0.007
0.207 -0.095 0.007
0.211 -0.095 0.007
0.223 -0.098 0.008
0.226 -0.097 0.008
0.228 -0.096 0.008
0.225 -0.093 0.008
0.221 -0.089 0.007
0.220 -0.086 0.007
0.212 -0.081 0.007
0.208 -0.077 0.007
0.238 -0.087 0.008
0.248 -0.088 0.008
0.249 -0.086 0.008
0.240 -0.080 0.008
0.242 -0.079 0.008
0.247 -0.078 0.008
0.265 -0.081 0.009
0.273 -0.081 0.009
0.287 -0.083 0.010
0.393 -0.106 0.013
0.408 -0.106 0.013
0.417 -0.104 0.014
0.423 -0.102 0.014
0.427 -0.099 0.014
0.418 -0.093 0.014
0.402 -0.085 0.013
0.387 -0.079 0.013
0.380 -0.074 0.012
0.371 -0.069 0.012
0.287 -0.048 0.009
0.287 -0.045 0.009
0.288 -0.043 0.009
0.290 -0.041 0.009
0.290 -0.038 0.009
0.292 -0.036 0.010
0.290 -0.033 0.009
0.291 -0.030 0.009
0.293 -0.028 0.010
0.292 -0.025 0.010
0.294 -0.023 0.010
0.292 -0.020 0.009
0.299 -0.018 0.010
0.308 -0.015 0.010
0.308 -0.013 0.010
0.320 -0.010 0.010
0.318 -0.007 0.010
0.315 -0.004 0.010
0.314 -0.002 0.010
0.312 0.001 0.010
0.313 0.004 0.010
0.318 0.007 0.010
0.317 0.010 0.010
0.318 0.013 0.010
0.318 0.016 0.010
0.304 0.018 0.010
0.304 0.020 0.010
0.304 0.023 0.010
0.304 0.026 0.010
0.307 0.029 0.010
0.307 0.032 0.010
0.308 0.035 0.010
0.309 0.038 0.010
0.307 0.040 0.010
0.309 0.043 0.010
0.310 0.046 0.010
0.308 0.049 0.010
0.308 0.051 0.010
0.306 0.054 0.010
0.304 0.056 0.010
0.313 0.061 0.010
0.331 0.067 0.011
0.325 0.069 0.011
0.322 0.072 0.011
0.321 0.074 0.011
0.321 0.077 0.011
0.326 0.082 0.011
0.337 0.088 0.011
0.343 0.092 0.011
0.333 0.093 0.011
0.318 0.092 0.011
0.319 0.095 0.011
0.322 0.099 0.011
0.313 0.099 0.010
0.313 0.102 0.010
0.327 0.110 0.011
0.329 0.114 0.011
0.331 0.118 0.011
0.336 0.123 0.011
0.342 0.128 0.012
0.348 0.134 0.012
0.357 0.141 0.012
0.370 0.150 0.013
0.364 0.162 0.012
0.364 0.173 0.013
0.364 0.177 0.013
0.365 0.182 0.013
0.353 0.180 0.012
0.340 0.176 0.012
0.345 0.183 0.012
0.349 0.189 0.012
0.332 0.183 0.012
0.322 0.181 0.011
0.331 0.190 0.012
0.334 0.195 0.012
0.328 0.195 0.012
0.323 0.196 0.012
0.321 0.199 0.012
0.319 0.202 0.012
0.318 0.205 0.012
0.317 0.208 0.012
0.315 0.210 0.012
0.313 0.212 0.011
0.310 0.214 0.011
0.308 0.217 0.011
0.313 0.224 0.012
0.342 0.249 0.013
0.343 0.254 0.013
0.376 0.293 0.014
0.410 0.336 0.016
0.424 0.354 0.016
0.431 0.366 0.017
0.435 0.429 0.018
0.358 0.396 0.016
0.366 0.412 0.016
0.368 0.421 0.016
0.497 0.587 0.022
0.496 0.595 0.023
0.162 -0.223 0.010
0.177 -0.240 0.011
0.179 -0.240 0.011
0.179 -0.237 0.011
0.180 -0.234 0.010
0.181 -0.233 0.011
0.184 -0.234 0.011
0.186 -0.233 0.011
0.187 -0.231 0.011
0.189 -0.230 0.011
0.191 -0.229 0.011
0.193 -0.228 0.011
0.195 -0.227 0.011
0.198 -0.227 0.011
0.199 -0.225 0.011
0.200 -0.223 0.011
0.202 -0.221 0.011
0.205 -0.222 0.011
0.208 -0.221 0.011
0.209 -0.219 0.011
0.211 -0.217 0.011
0.213 -0.217 0.011
0.216 -0.216 0.011
0.219 -0.215 0.011
0.221 -0.214 0.011
0.224 -0.214 0.011
0.227 -0.213 0.011
0.230 -0.212 0.012
0.231 -0.210 0.012
0.234 -0.210 0.012
0.238 -0.210 0.012
0.240 -0.209 0.012
0.243 -0.207 0.012
0.245 -0.206 0.012
0.248 -0.205 0.012
0.252 -0.205 0.012
0.255 -0.204 0.012
0.249 -0.197 0.012
0.231 -0.179 0.011
0.224 -0.171 0.011
0.225 -0.169 0.011
0.221 -0.163 0.010
0.221 -0.161 0.010
0.225 -0.161 0.011
0.212 -0.149 0.010
0.210 -0.145 0.010
0.212 -0.144 0.010
0.211 -0.141 0.010
0.211 -0.139 0.010
0.208 -0.134 0.010
0.207 -0.131 0.009
0.212 -0.132 0.010
0.215 -0.131 0.010
0.220 -0.132 0.010
0.221 -0.130 0.010
0.221 -0.128 0.010
0.220 -0.124 0.010
0.219 -0.122 0.010
0.219 -0.119 0.010
0.219 -0.117 0.010
0.218 -0.114 0.010
0.200 -0.103 0.009
0.202 -0.102 0.009
0.202 -0.100 0.009
0.217 -0.105 0.009
0.206 -0.097 0.009
0.207 -0.096 0.009
0.209 -0.095 0.009
0.221 -0.098 0.010
0.227 -0.098 0.010
0.225 -0.095 0.010
0.223 -0.092 0.010
0.224 -0.090 0.010
0.218 -0.085 0.009
0.217 -0.083 0.009
0.210 -0.078 0.009
0.235 -0.085 0.010
0.242 -0.086 0.010
0.239 -0.082 0.010
0.250 -0.084 0.011
0.253 -0.082 0.011
0.255 -0.080 0.011
0.258 -0.079 0.011
0.266 -0.079 0.011
0.272 -0.078 0.011
0.401 -0.108 0.017
0.405 -0.105 0.017
0.415 -0.104 0.017
0.428 -0.103 0.018
0.432 -0.100 0.018
0.424 -0.094 0.018
0.403 -0.086 0.017
0.388 -0.079 0.016
0.384 -0.075 0.016
0.286 -0.048 0.012
0.285 -0.045 0.012
0.285 -0.042 0.012
0.287 -0.040 0.012
0.288 -0.038 0.012
0.290 -0.035 0.012
0.290 -0.033 0.012
0.290 -0.030 0.012
0.292 -0.028 0.012
0.295 -0.025 0.012
0.293 -0.022 0.012
0.294 -0.020 0.012
0.299 -0.018 0.012
0.303 -0.015 0.013
0.316 -0.013 0.013
0.316 -0.010 0.013
0.321 -0.007 0.013
0.315 -0.004 0.013
0.314 -0.002 0.013
0.316 0.001 0.013
0.319 0.004 0.013
0.310 0.007 0.013
0.316 0.010 0.013
0.312 0.013 0.013
0.316 0.016 0.013
0.320 0.019 0.013
0.323 0.022 0.013
0.307 0.023 0.013
0.305 0.026 0.013
0.305 0.029 0.013
0.305 0.032 0.013
0.305 0.034 0.013
0.305 0.037 0.013
0.306 0.040 0.013
0.307 0.043 0.013
0.308 0.046 0.013
0.306 0.048 0.013
0.305 0.051 0.013
0.327 0.058 0.014
0.329 0.061 0.014
0.335 0.065 0.014
0.332 0.068 0.014
0.327 0.070 0.014
0.317 0.070 0.013
0.318 0.074 0.013
0.320 0.077 0.013
0.325 0.081 0.014
0.327 0.085 0.014
0.331 0.089 0.014
0.312 0.087 0.013
0.320 0.092 0.014
0.314 0.093 0.013
0.329 0.101 0.014
0.320 0.102 0.014
0.334 0.109 0.014
0.338 0.114 0.014
0.331 0.115 0.014
0.325 0.116 0.014
0.332 0.121 0.014
0.336 0.126 0.014
0.342 0.132 0.015
0.357 0.141 0.015
0.413 0.172 0.018
0.414 0.176 0.018
0.410 0.179 0.018
0.397 0.177 0.017
0.389 0.178 0.017
0.382 0.178 0.017
0.382 0.182 0.017
0.382 0.186 0.017
0.378 0.188 0.017
0.372 0.189 0.016
0.359 0.187 0.016
0.350 0.185 0.016
0.353 0.191 0.016
0.346 0.191 0.016
0.352 0.198 0.016
0.333 0.191 0.015
0.333 0.195 0.015
0.325 0.194 0.015
0.322 0.196 0.015
0.320 0.198 0.015
0.319 0.201 0.015
0.318 0.205 0.015
0.317 0.207 0.015
0.315 0.210 0.015
0.311 0.211 0.014
0.310 0.214 0.014
0.308 0.216 0.014
0.320 0.229 0.015
0.343 0.250 0.016
0.339 0.251 0.016
0.315 0.242 0.015
0.316 0.247 0.015
0.420 0.339 0.020
0.423 0.347 0.021
0.437 0.365 0.022
0.441 0.374 0.022
0.447 0.419 0.023
0.451 0.430 0.023
0.449 0.436 0.023
0.447 0.441 0.023
0.447 0.448 0.024
0.453 0.461 0.024
0.447 0.464 0.024
0.431 0.485 0.024
0.433 0.495 0.024
0.497 0.588 0.028
0.493 0.592 0.028
0.368 0.471 0.022
0.388 0.504 0.023
0.178 -0.245 0.013
0.181 -0.246 0.013
0.178 -0.239 0.013
0.179 -0.237 0.013
0.180 -0.234 0.013
0.182 -0.234 0.013
0.184 -0.234 0.013
0.187 -0.234 0.013
0.188 -0.232 0.013
0.188 -0.229 0.013
0.191 -0.229 0.013
0.193 -0.228 0.013
0.195 -0.227 0.013
0.198 -0.227 0.013
0.199 -0.224 0.013
0.200 -0.222 0.013
0.202 -0.222 0.013
0.206 -0.222 0.013
0.208 -0.221 0.013
0.209 -0.219 0.013
0.212 -0.218 0.013
0.213 -0.216 0.013
0.216 -0.216 0.013
0.218 -0.215 0.014
0.221 -0.214 0.014
0.223 -0.213 0.014
0.227 -0.213 0.014
0.230 -0.212 0.014
0.233 -0.212 0.014
0.235 -0.211 0.014
0.238 -0.210 0.014
0.240 -0.209 0.014
0.242 -0.207 0.014
0.245 -0.206 0.014
0.248 -0.205 0.015
0.251 -0.205 0.015
0.254 -0.204 0.015
0.247 -0.195 0.014
0.229 -0.178 0.013
0.225 -0.172 0.013
0.220 -0.165 0.013
0.211 -0.156 0.012
0.212 -0.154 0.012
0.212 -0.151 0.012
0.214 -0.150 0.012
0.213 -0.147 0.012
0.208 -0.142 0.012
0.211 -0.141 0.012
0.213 -0.140 0.012
0.211 -0.136 0.012
0.211 -0.134 0.012
0.212 -0.132 0.012
0.214 -0.131 0.012
0.217 -0.130 0.012
0.221 -0.130 0.012
0.222 -0.128 0.012
0.219 -0.124 0.012
0.222 -0.123 0.012
0.222 -0.121 0.012
0.220 -0.118 0.012
0.219 -0.115 0.012
0.217 -0.111 0.012
0.219 -0.108 0.012
0.217 -0.105 0.012
0.217 -0.103 0.012
0.213 -0.099 0.011
0.212 -0.096 0.011
0.222 -0.098 0.012
0.225 -0.097 0.012
0.226 -0.095 0.012
0.223 -0.092 0.012
0.222 -0.089 0.012
0.222 -0.087 0.012
0.217 -0.083 0.011
0.217 -0.081 0.011
0.233 -0.085 0.012
0.240 -0.085 0.012
0.243 -0.084 0.013
0.246 -0.082 0.013
0.252 -0.082 0.013
0.256 -0.081 0.013
0.258 -0.079 0.013
0.262 -0.078 0.013
0.264 -0.076 0.014
0.402 -0.108 0.021
0.407 -0.105 0.021
0.417 -0.104 0.021
0.426 -0.103 0.022
0.433 -0.100 0.022
0.424 -0.094 0.022
0.404 -0.086 0.021
0.393 -0.080 0.020
0.390 -0.076 0.020
0.289 -0.048 0.015
0.288 -0.045 0.015
0.284 -0.042 0.014
0.285 -0.040 0.014
0.288 -0.038 0.015
0.289 -0.035 0.015
0.289 -0.033 0.015
0.291 -0.030 0.015
0.292 -0.028 0.015
0.299 -0.026 0.015
0.301 -0.023 0.015
0.296 -0.020 0.015
0.294 -0.017 0.015
0.297 -0.015 0.015
0.305 -0.012 0.015
0.314 -0.010 0.016
0.311 -0.007 0.016
0.308 -0.004 0.016
0.313 -0.001 0.016
0.318 0.001 0.016
0.314 0.004 0.016
0.320 0.007 0.016
0.312 0.010 0.016
0.309 0.012 0.016
0.311 0.015 0.016
0.317 0.018 0.016
0.319 0.021 0.016
0.320 0.024 0.016
0.326 0.028 0.017
0.331 0.031 0.017
0.328 0.034 0.017
0.314 0.035 0.016
0.311 0.038 0.016
0.311 0.041 0.016
0.313 0.044 0.016
0.323 0.048 0.016
0.328 0.052 0.017
0.332 0.055 0.017
0.328 0.058 0.017
0.331 0.061 0.017
0.335 0.065 0.017
0.334 0.068 0.017
0.332 0.071 0.017
0.325 0.072 0.017
0.321 0.074 0.016
0.323 0.078 0.017
0.324 0.081 0.017
0.321 0.084 0.017
0.318 0.089 0.016
0.318 0.092 0.016
0.337 0.101 0.017
0.337 0.104 0.017
0.338 0.107 0.018
0.347 0.113 0.018
0.347 0.117 0.018
0.339 0.117 0.018
0.332 0.118 0.017
0.331 0.121 0.017
0.329 0.124 0.017
0.334 0.129 0.018
0.410 0.166 0.022
0.425 0.177 0.022
0.428 0.182 0.023
0.420 0.183 0.022
0.403 0.180 0.021
0.397 0.181 0.021
0.392 0.183 0.021
0.385 0.184 0.021
0.382 0.186 0.020
0.376 0.187 0.020
0.366 0.186 0.020
0.360 0.187 0.019
0.350 0.185 0.019
0.345 0.186 0.019
0.343 0.189 0.019
0.338 0.190 0.018
0.337 0.193 0.018
0.329 0.192 0.018
0.325 0.194 0.018
0.322 0.196 0.018
0.321 0.199 0.018
0.320 0.202 0.018
0.318 0.205 0.018
0.316 0.207 0.018
0.313 0.208 0.018
0.310 0.211 0.018
0.308 0.213 0.017
0.306 0.215 0.017
0.322 0.231 0.018
0.310 0.237 0.018
0.307 0.240 0.018
0.441 0.368 0.026
0.440 0.374 0.026
0.451 0.430 0.028
0.450 0.437 0.028
0.448 0.442 0.028
0.456 0.457 0.029
0.451 0.460 0.029
0.448 0.464 0.029
0.432 0.486 0.029
0.438 0.502 0.030
0.369 0.480 0.026
0.182 -0.251 0.015
0.180 -0.245 0.015
0.178 -0.239 0.015
0.178 -0.236 0.015
0.180 -0.236 0.015
0.183 -0.235 0.015
0.185 -0.235 0.015
0.187 -0.234 0.015
0.188 -0.232 0.015
0.189 -0.231 0.015
0.191 -0.230 0.015
0.193 -0.228 0.015
0.195 -0.227 0.015
0.196 -0.225 0.015
0.198 -0.223 0.015
0.200 -0.222 0.015
0.202 -0.222 0.015
0.205 -0.221 0.015
0.207 -0.220 0.016
0.209 -0.219 0.016
0.211 -0.218 0.016
0.214 -0.217 0.016
0.215 -0.215 0.016
0.218 -0.215 0.016
0.220 -0.214 0.016
0.223 -0.213 0.016
0.226 -0.212 0.016
0.229 -0.212 0.016
0.233 -0.212 0.017
0.235 -0.211 0.017
0.238 -0.210 0.017
0.240 -0.208 0.017
0.242 -0.207 0.017
0.245 -0.206 0.017
0.248 -0.205 0.017
0.251 -0.204 0.017
0.253 -0.203 0.017
0.243 -0.192 0.017
0.230 -0.179 0.016
0.224 -0.171 0.015
0.219 -0.165 0.015
0.212 -0.157 0.014
0.209 -0.152 0.014
0.213 -0.152 0.014
0.219 -0.154 0.014
0.211 -0.146 0.014
0.211 -0.143 0.014
0.208 -0.139 0.014
0.212 -0.139 0.014
0.215 -0.139 0.014
0.215 -0.136 0.014
0.199 -0.124 0.013
0.210 -0.128 0.014
0.212 -0.127 0.014
0.217 -0.128 0.014
0.223 -0.129 0.014
0.226 -0.128 0.014
0.224 -0.125 0.014
0.224 -0.122 0.014
0.227 -0.121 0.014
0.219 -0.115 0.014
0.220 -0.113 0.014
0.199 -0.100 0.013
0.203 -0.100 0.013
0.203 -0.098 0.013
0.210 -0.099 0.013
0.205 -0.095 0.013
0.205 -0.093 0.013
0.209 -0.092 0.013
0.224 -0.097 0.014
0.224 -0.095 0.014
0.224 -0.092 0.014
0.223 -0.090 0.014
0.223 -0.087 0.014
0.216 -0.083 0.013
0.215 -0.080 0.013
0.219 -0.080 0.013
0.233 -0.083 0.014
0.246 -0.085 0.015
0.252 -0.084 0.015
0.252 -0.082 0.015
0.251 -0.079 0.015
0.258 -0.079 0.016
0.261 -0.077 0.016
0.263 -0.075 0.016
0.398 -0.107 0.024
0.413 -0.107 0.025
0.418 -0.104 0.025
0.428 -0.103 0.026
0.431 -0.100 0.026
0.419 -0.093 0.025
0.391 -0.080 0.023
0.380 -0.074 0.023
0.365 -0.068 0.022
0.303 -0.053 0.018
0.291 -0.049 0.017
0.290 -0.046 0.017
0.286 -0.043 0.017
0.283 -0.040 0.017
0.287 -0.038 0.017
0.289 -0.035 0.017
0.289 -0.033 0.017
0.288 -0.030 0.017
0.293 -0.028 0.017
0.301 -0.026 0.018
0.304 -0.023 0.018
0.300 -0.020 0.018
0.294 -0.017 0.017
0.293 -0.015 0.017
0.297 -0.012 0.018
0.306 -0.010 0.018
0.306 -0.007 0.018
0.308 -0.004 0.018
0.318 -0.002 0.019
0.319 0.001 0.019
0.316 0.004 0.019
0.318 0.007 0.019
0.317 0.010 0.019
0.306 0.012 0.018
0.310 0.015 0.018
0.311 0.018 0.019
0.314 0.021 0.019
0.315 0.024 0.019
0.323 0.028 0.019
0.326 0.031 0.019
0.322 0.033 0.019
0.314 0.035 0.019
0.309 0.038 0.018
0.309 0.040 0.018
0.313 0.044 0.019
0.316 0.047 0.019
0.330 0.052 0.020
0.331 0.055 0.020
0.326 0.057 0.020
0.325 0.060 0.020
0.330 0.064 0.020
0.331 0.068 0.020
0.332 0.071 0.020
0.327 0.073 0.020
0.328 0.076 0.020
0.331 0.080 0.020
0.333 0.084 0.020
0.317 0.083 0.019
0.324 0.087 0.020
0.334 0.093 0.020
0.316 0.091 0.019
0.331 0.099 0.020
0.340 0.104 0.021
0.346 0.110 0.021
0.347 0.113 0.021
0.346 0.116 0.021
0.339 0.117 0.021
0.336 0.120 0.021
0.331 0.121 0.020
0.323 0.121 0.020
0.329 0.127 0.020
0.426 0.177 0.026
0.428 0.182 0.027
0.418 0.182 0.026
0.409 0.182 0.026
0.400 0.183 0.025
0.392 0.183 0.025
0.383 0.183 0.024
0.375 0.183 0.024
0.366 0.182 0.023
0.363 0.184 0.023
0.353 0.183 0.022
0.343 0.182 0.022
0.337 0.182 0.022
0.334 0.184 0.021
0.332 0.187 0.021
0.328 0.188 0.021
0.327 0.192 0.021
0.324 0.193 0.021
0.320 0.195 0.021
0.320 0.198 0.021
0.320 0.202 0.021
0.316 0.203 0.021
0.309 0.203 0.020
0.312 0.208 0.021
0.309 0.210 0.020
0.306 0.211 0.020
0.305 0.214 0.020
0.301 0.216 0.020
0.298 0.217 0.020
0.296 0.220 0.020
0.295 0.223 0.020
0.295 0.226 0.020
0.297 0.232 0.020
0.295 0.234 0.020
0.281 0.247 0.020
0.277 0.248 0.020
0.276 0.251 0.020
0.450 0.437 0.033
0.447 0.441 0.033
0.445 0.446 0.033
0.387 0.401 0.029
0.424 0.461 0.033
0.422 0.468 0.033
0.424 0.478 0.033
0.312 0.406 0.026
0.181 -0.249 0.017
0.179 -0.243 0.017
0.177 -0.238 0.017
0.179 -0.237 0.017
0.181 -0.236 0.017
0.182 -0.235 0.017
0.184 -0.234 0.017
0.186 -0.233 0.017
0.188 -0.232 0.017
0.190 -0.232 0.017
0.192 -0.230 0.017
0.193 -0.228 0.017
0.194 -0.226 0.017
0.196 -0.224 0.017
0.197 -0.223 0.017
0.199 -0.222 0.017
0.202 -0.222 0.018
0.204 -0.221 0.018
0.207 -0.220 0.018
0.209 -0.219 0.018
0.211 -0.218 0.018
0.213 -0.217 0.018
0.216 -0.216 0.018
0.218 -0.215 0.018
0.220 -0.214 0.018
0.223 -0.213 0.018
0.225 -0.212 0.019
0.228 -0.211 0.019
0.231 -0.211 0.019
0.235 -0.211 0.019
0.236 -0.209 0.019
0.239 -0.208 0.019
0.242 -0.207 0.019
0.245 -0.206 0.019
0.248 -0.205 0.020
0.250 -0.204 0.020
0.253 -0.203 0.020
0.250 -0.197 0.020
0.227 -0.177 0.018
0.221 -0.169 0.017
0.218 -0.164 0.017
0.214 -0.159 0.016
0.214 -0.156 0.016
0.218 -0.156 0.017
0.221 -0.155 0.017
0.217 -0.150 0.016
0.209 -0.142 0.016
0.209 -0.139 0.016
0.211 -0.138 0.016
0.224 -0.145 0.017
0.225 -0.142 0.017
0.214 -0.133 0.016
0.207 -0.127 0.015
0.211 -0.126 0.016
0.215 -0.127 0.016
0.224 -0.129 0.016
0.224 -0.127 0.016
0.223 -0.124 0.016
0.223 -0.122 0.016
0.225 -0.121 0.016
0.225 -0.118 0.016
0.213 -0.109 0.015
0.208 -0.105 0.015
0.200 -0.099 0.014
0.215 -0.104 0.015
0.205 -0.097 0.015
0.212 -0.098 0.015
0.204 -0.092 0.015
0.206 -0.091 0.015
0.217 -0.094 0.015
0.221 -0.093 0.016
0.223 -0.092 0.016
0.225 -0.091 0.016
0.228 -0.089 0.016
0.232 -0.089 0.016
0.216 -0.081 0.015
0.225 -0.082 0.016
0.230 -0.081 0.016
0.241 -0.083 0.017
0.252 -0.085 0.018
0.254 -0.083 0.018
0.254 -0.080 0.018
0.257 -0.079 0.018
0.266 -0.079 0.019
0.266 -0.076 0.019
0.397 -0.107 0.028
0.411 -0.107 0.029
0.423 -0.106 0.029
0.429 -0.103 0.030
0.428 -0.099 0.030
0.388 -0.083 0.027
0.380 -0.077 0.026
0.384 -0.075 0.027
0.369 -0.068 0.025
0.293 -0.049 0.020
0.292 -0.046 0.020
0.288 -0.043 0.020
0.288 -0.040 0.020
0.286 -0.037 0.020
0.288 -0.035 0.020
0.289 -0.033 0.020
0.290 -0.030 0.020
0.292 -0.028 0.020
0.299 -0.026 0.021
0.302 -0.023 0.021
0.304 -0.021 0.021
0.299 -0.018 0.020
0.297 -0.015 0.020
0.301 -0.012 0.021
0.307 -0.010 0.021
0.313 -0.007 0.021
0.309 -0.004 0.021
0.317 -0.002 0.022
0.329 0.001 0.023
0.334 0.004 0.023
0.321 0.007 0.022
0.308 0.010 0.021
0.308 0.012 0.021
0.312 0.015 0.021
0.311 0.018 0.021
0.309 0.021 0.021
0.312 0.024 0.021
0.315 0.027 0.022
0.314 0.030 0.022
0.312 0.032 0.021
0.311 0.035 0.021
0.305 0.037 0.021
0.306 0.040 0.021
0.306 0.043 0.021
0.313 0.047 0.022
0.317 0.050 0.022
0.335 0.056 0.023
0.325 0.057 0.022
0.310 0.057 0.021
0.329 0.064 0.023
0.329 0.067 0.023
0.320 0.068 0.022
0.325 0.072 0.023
0.324 0.075 0.022
0.334 0.081 0.023
0.328 0.082 0.023
0.325 0.085 0.023
0.322 0.087 0.022
0.318 0.089 0.022
0.300 0.087 0.021
0.344 0.106 0.024
0.338 0.107 0.024
0.339 0.111 0.024
0.337 0.113 0.024
0.336 0.116 0.024
0.333 0.119 0.024
0.326 0.119 0.023
0.316 0.119 0.022
0.325 0.125 0.023
0.425 0.177 0.030
0.426 0.182 0.031
0.420 0.183 0.030
0.410 0.183 0.029
0.401 0.183 0.029
0.392 0.183 0.028
0.383 0.183 0.028
0.373 0.182 0.027
0.367 0.183 0.027
0.358 0.182 0.026
0.351 0.183 0.026
0.342 0.181 0.025
0.336 0.182 0.025
0.332 0.183 0.024
0.329 0.185 0.024
0.322 0.185 0.024
0.316 0.185 0.023
0.313 0.187 0.023
0.311 0.189 0.023
0.310 0.192 0.023
0.308 0.195 0.023
0.309 0.199 0.023
0.304 0.199 0.023
0.305 0.203 0.023
0.305 0.207 0.023
0.302 0.209 0.023
0.301 0.212 0.023
0.300 0.215 0.023
0.298 0.217 0.023
0.295 0.219 0.023
0.294 0.222 0.023
0.292 0.224 0.023
0.290 0.226 0.023
0.289 0.230 0.023
0.269 0.229 0.022
0.266 0.230 0.022
0.271 0.238 0.022
0.269 0.240 0.022
0.273 0.248 0.022
0.389 0.404 0.034
0.433 0.456 0.038
0.425 0.456 0.037
0.414 0.452 0.037
0.413 0.457 0.037
0.348 0.393 0.031
0.339 0.389 0.031
0.327 0.381 0.030
0.320 0.397 0.030
0.316 0.400 0.030
0.311 0.399 0.030
0.311 0.405 0.030
0.177 -0.244 0.019
0.178 -0.243 0.019
0.178 -0.240 0.019
0.179 -0.238 0.019
0.181 -0.236 0.019
0.182 -0.235 0.019
0.184 -0.234 0.019
0.186 -0.233 0.019
0.188 -0.232 0.019
0.189 -0.231 0.019
0.192 -0.231 0.020
0.192 -0.228 0.019
0.194 -0.226 0.020
0.196 -0.225 0.020
0.198 -0.224 0.020
0.200 -0.223 0.020
0.201 -0.221 0.020
0.204 -0.220 0.020
0.206 -0.220 0.020
0.209 -0.219 0.020
0.211 -0.218 0.020
0.214 -0.217 0.020
0.217 -0.217 0.021
0.218 -0.215 0.021
0.221 -0.214 0.021
0.223 -0.214 0.021
0.226 -0.212 0.021
0.228 -0.211 0.021
0.231 -0.211 0.021
0.234 -0.210 0.021
0.238 -0.210 0.022
0.241 -0.210 0.022
0.242 -0.208 0.022
0.245 -0.207 0.022
0.248 -0.206 0.022
0.251 -0.205 0.022
0.253 -0.203 0.022
0.256 -0.202 0.023
0.223 -0.173 0.020
0.219 -0.167 0.019
0.216 -0.163 0.019
0.215 -0.159 0.019
0.218 -0.159 0.019
0.220 -0.158 0.019
0.222 -0.156 0.019
0.219 -0.152 0.019
0.211 -0.143 0.018
0.206 -0.138 0.018
0.218 -0.143 0.019
0.220 -0.142 0.019
0.220 -0.139 0.019
0.218 -0.135 0.018
0.208 -0.127 0.017
0.209 -0.125 0.017
0.214 -0.126 0.018
0.220 -0.127 0.018
0.221 -0.125 0.018
0.215 -0.119 0.018
0.212 -0.115 0.017
0.217 -0.116 0.018
0.220 -0.115 0.018
0.215 -0.111 0.018
0.209 -0.105 0.017
0.208 -0.103 0.017
0.219 -0.106 0.018
0.215 -0.101 0.017
0.211 -0.098 0.017
0.217 -0.098 0.018
0.214 -0.095 0.017
0.215 -0.093 0.017
0.219 -0.093 0.018
0.221 -0.091 0.018
0.223 -0.090 0.018
0.224 -0.088 0.018
0.219 -0.084 0.018
0.219 -0.082 0.017
0.226 -0.082 0.018
0.235 -0.083 0.019
0.237 -0.082 0.019
0.238 -0.080 0.019
0.247 -0.080 0.020
0.256 -0.081 0.020
0.263 -0.081 0.021
0.268 -0.080 0.021
0.279 -0.080 0.022
0.411 -0.111 0.032
0.417 -0.108 0.033
0.424 -0.106 0.033
0.430 -0.104 0.034
0.425 -0.098 0.033
0.367 -0.078 0.029
0.382 -0.078 0.030
0.390 -0.076 0.030
0.385 -0.071 0.030
0.294 -0.049 0.023
0.292 -0.046 0.023
0.291 -0.043 0.023
0.288 -0.040 0.022
0.288 -0.038 0.022
0.286 -0.035 0.022
0.289 -0.033 0.022
0.292 -0.030 0.023
0.292 -0.028 0.023
0.294 -0.025 0.023
0.299 -0.023 0.023
0.304 -0.021 0.024
0.307 -0.018 0.024
0.304 -0.015 0.024
0.306 -0.012 0.024
0.309 -0.010 0.024
0.298 -0.007 0.023
0.298 -0.004 0.023
0.311 -0.001 0.024
0.327 0.001 0.025
0.332 0.004 0.026
0.326 0.007 0.025
0.315 0.010 0.024
0.314 0.013 0.024
0.319 0.016 0.025
0.315 0.018 0.024
0.309 0.021 0.024
0.311 0.024 0.024
0.320 0.027 0.025
0.314 0.030 0.024
0.318 0.033 0.025
0.311 0.035 0.024
0.311 0.038 0.024
0.307 0.040 0.024
0.311 0.044 0.024
0.312 0.046 0.024
0.324 0.051 0.025
0.324 0.054 0.025
0.330 0.061 0.026
0.328 0.064 0.026
0.317 0.065 0.025
0.319 0.068 0.025
0.307 0.068 0.024
0.320 0.074 0.025
0.322 0.078 0.025
0.332 0.083 0.026
0.328 0.085 0.026
0.322 0.087 0.025
0.314 0.088 0.025
0.320 0.092 0.025
0.339 0.101 0.027
0.334 0.103 0.026
0.333 0.106 0.026
0.325 0.106 0.026
0.331 0.112 0.026
0.345 0.120 0.028
0.327 0.117 0.026
0.312 0.114 0.025
0.322 0.121 0.026
0.327 0.126 0.026
0.432 0.180 0.035
0.429 0.183 0.035
0.419 0.183 0.034
0.411 0.183 0.033
0.399 0.182 0.032
0.392 0.183 0.032
0.387 0.185 0.032
0.374 0.183 0.031
0.370 0.185 0.030
0.361 0.184 0.030
0.351 0.182 0.029
0.343 0.182 0.028
0.338 0.183 0.028
0.333 0.184 0.028
0.328 0.185 0.027
0.323 0.186 0.027
0.316 0.185 0.027
0.311 0.186 0.026
0.307 0.187 0.026
0.303 0.188 0.026
0.296 0.187 0.025
0.292 0.188 0.025
0.287 0.188 0.025
0.284 0.190 0.024
0.280 0.190 0.024
0.277 0.191 0.024
0.275 0.194 0.024
0.274 0.197 0.024
0.271 0.198 0.024
0.269 0.199 0.024
0.267 0.201 0.024
0.265 0.203 0.023
0.264 0.206 0.023
0.262 0.208 0.023
0.260 0.210 0.023
0.259 0.213 0.023
0.258 0.216 0.023
0.257 0.219 0.023
0.257 0.223 0.024
0.261 0.229 0.024
0.264 0.236 0.024
0.266 0.242 0.025
0.262 0.242 0.024
0.258 0.242 0.024
0.258 0.246 0.024
0.259 0.252 0.025
0.440 0.457 0.043
0.436 0.461 0.043
0.418 0.448 0.041
0.407 0.444 0.041
0.360 0.399 0.036
0.356 0.402 0.036
0.322 0.394 0.034
0.319 0.397 0.034
0.309 0.390 0.033
0.305 0.391 0.033
0.303 0.395 0.033
0.183 -0.253 0.022
0.178 -0.242 0.021
0.178 -0.240 0.021
0.180 -0.238 0.021
0.181 -0.237 0.021
0.182 -0.235 0.021
0.184 -0.234 0.021
0.186 -0.233 0.021
0.188 -0.232 0.022
0.189 -0.231 0.022
0.191 -0.229 0.022
0.192 -0.227 0.022
0.194 -0.226 0.022
0.196 -0.225 0.022
0.199 -0.225 0.022
0.201 -0.224 0.022
0.202 -0.222 0.022
0.204 -0.220 0.022
0.206 -0.220 0.022
0.209 -0.219 0.022
0.212 -0.219 0.023
0.214 -0.217 0.023
0.216 -0.217 0.023
0.219 -0.216 0.023
0.222 -0.215 0.023
0.223 -0.213 0.023
0.226 -0.212 0.023
0.228 -0.211 0.023
0.231 -0.211 0.024
0.234 -0.210 0.024
0.237 -0.210 0.024
0.240 -0.209 0.024
0.242 -0.208 0.024
0.244 -0.206 0.024
0.248 -0.205 0.025
0.250 -0.204 0.025
0.252 -0.203 0.025
0.248 -0.196 0.024
0.225 -0.175 0.022
0.220 -0.168 0.021
0.217 -0.163 0.021
0.217 -0.161 0.021
0.218 -0.159 0.021
0.220 -0.157 0.021
0.216 -0.152 0.021
0.214 -0.148 0.020
0.212 -0.144 0.020
0.206 -0.138 0.020
0.206 -0.135 0.020
0.213 -0.137 0.020
0.219 -0.139 0.021
0.217 -0.135 0.020
0.213 -0.130 0.020
0.203 -0.122 0.019
0.209 -0.123 0.019
0.214 -0.124 0.020
0.219 -0.124 0.020
0.210 -0.117 0.019
0.210 -0.115 0.019
0.214 -0.114 0.020
0.215 -0.113 0.020
0.215 -0.111 0.020
0.202 -0.102 0.018
0.206 -0.102 0.019
0.209 -0.101 0.019
0.214 -0.101 0.019
0.200 -0.092 0.018
0.204 -0.092 0.018
0.205 -0.091 0.019
0.209 -0.091 0.019
0.217 -0.092 0.019
0.218 -0.090 0.019
0.219 -0.088 0.020
0.221 -0.087 0.020
0.215 -0.082 0.019
0.221 -0.083 0.020
0.220 -0.080 0.020
0.228 -0.081 0.020
0.236 -0.081 0.021
0.238 -0.080 0.021
0.240 -0.078 0.021
0.252 -0.080 0.022
0.264 -0.081 0.023
0.271 -0.080 0.024
0.284 -0.082 0.025
0.414 -0.111 0.036
0.417 -0.108 0.037
0.421 -0.105 0.037
0.425 -0.102 0.037
0.428 -0.099 0.037
0.369 -0.079 0.032
0.381 -0.078 0.033
0.384 -0.075 0.033
0.293 -0.049 0.025
0.289 -0.046 0.025
0.289 -0.043 0.025
0.289 -0.040 0.025
0.286 -0.037 0.025
0.288 -0.035 0.025
0.289 -0.033 0.025
0.291 -0.030 0.025
0.291 -0.028 0.025
0.293 -0.025 0.025
0.293 -0.023 0.025
0.296 -0.020 0.026
0.306 -0.018 0.027
0.309 -0.015 0.027
0.301 -0.012 0.026
0.293 -0.009 0.025
0.289 -0.007 0.025
0.293 -0.004 0.025
0.305 -0.001 0.026
0.316 0.001 0.027
0.318 0.004 0.028
0.317 0.007 0.027
0.321 0.010 0.028
0.314 0.013 0.027
0.317 0.016 0.027
0.317 0.018 0.027
0.309 0.021 0.027
0.322 0.025 0.028
0.335 0.029 0.029
0.338 0.032 0.029
0.327 0.034 0.028
0.328 0.037 0.028
0.321 0.039 0.028
0.324 0.042 0.028
0.325 0.045 0.028
0.327 0.049 0.028
0.325 0.051 0.028
0.327 0.055 0.029
0.328 0.061 0.029
0.319 0.062 0.028
0.319 0.065 0.028
0.297 0.063 0.026
0.312 0.069 0.027
0.302 0.070 0.027
0.320 0.077 0.028
0.326 0.082 0.029
0.338 0.088 0.030
0.328 0.088 0.029
0.324 0.090 0.029
0.329 0.095 0.029
0.337 0.101 0.030
0.338 0.104 0.030
0.323 0.103 0.029
0.320 0.105 0.028
0.338 0.114 0.030
0.343 0.119 0.031
0.318 0.117 0.028
0.326 0.123 0.029
0.332 0.128 0.030
0.345 0.137 0.031
0.430 0.179 0.039
0.427 0.182 0.039
0.418 0.182 0.038
0.406 0.181 0.037
0.398 0.182 0.036
0.391 0.183 0.036
0.385 0.184 0.035
0.378 0.184 0.035
0.369 0.184 0.034
0.359 0.183 0.033
0.348 0.181 0.032
0.344 0.182 0.032
0.340 0.184 0.031
0.334 0.185 0.031
0.328 0.185 0.031
0.322 0.185 0.030
0.317 0.186 0.030
0.309 0.185 0.029
0.304 0.185 0.029
0.300 0.186 0.028
0.295 0.187 0.028
0.287 0.185 0.027
0.286 0.188 0.027
0.282 0.189 0.027
0.277 0.188 0.027
0.269 0.186 0.026
0.265 0.187 0.026
0.263 0.188 0.026
0.261 0.191 0.026
0.262 0.194 0.026
0.263 0.199 0.026
0.262 0.201 0.026
0.261 0.204 0.026
0.261 0.208 0.026
0.260 0.211 0.026
0.259 0.213 0.026
0.258 0.216 0.026
0.257 0.219 0.026
0.257 0.223 0.026
0.260 0.229 0.027
0.259 0.231 0.027
0.258 0.235 0.027
0.258 0.239 0.027
0.256 0.241 0.027
0.255 0.244 0.027
0.258 0.251 0.027
0.257 0.254 0.027
0.439 0.456 0.048
0.435 0.459 0.048
0.357 0.389 0.040
0.350 0.388 0.039
0.362 0.409 0.041
0.369 0.423 0.042
0.329 0.396 0.038
0.328 0.402 0.038
0.321 0.400 0.038
0.306 0.387 0.036
0.303 0.389 0.036
0.298 0.389 0.036
0.179 -0.247 0.024
0.178 -0.243 0.023
0.178 -0.240 0.023
0.179 -0.238 0.023
0.181 -0.236 0.023
0.182 -0.235 0.023
0.183 -0.234 0.023
0.186 -0.233 0.024
0.187 -0.232 0.024
0.189 -0.231 0.024
0.192 -0.230 0.024
0.194 -0.229 0.024
0.194 -0.226 0.024
0.196 -0.225 0.024
0.199 -0.225 0.024
0.201 -0.224 0.024
0.203 -0.223 0.024
0.204 -0.221 0.024
0.206 -0.220 0.025
0.209 -0.220 0.025
0.212 -0.219 0.025
0.214 -0.218 0.025
0.216 -0.217 0.025
0.219 -0.216 0.025
0.221 -0.215 0.025
0.223 -0.213 0.026
0.225 -0.212 0.026
0.228 -0.211 0.026
0.231 -0.211 0.026
0.234 -0.210 0.026
0.236 -0.209 0.026
0.240 -0.209 0.027
0.242 -0.208 0.027
0.244 -0.206 0.027
0.247 -0.205 0.027
0.250 -0.204 0.027
0.251 -0.202 0.027
0.247 -0.196 0.027
0.233 -0.181 0.025
0.223 -0.171 0.024
0.217 -0.164 0.023
0.217 -0.161 0.023
0.218 -0.159 0.023
0.217 -0.155 0.023
0.214 -0.151 0.023
0.215 -0.149 0.023
0.212 -0.144 0.022
0.209 -0.140 0.022
0.208 -0.137 0.022
0.212 -0.137 0.022
0.216 -0.137 0.022
0.218 -0.136 0.023
0.216 -0.132 0.022
0.213 -0.128 0.022
0.206 -0.121 0.021
0.210 -0.122 0.022
0.215 -0.122 0.022
0.221 -0.123 0.023
0.216 -0.118 0.022
0.213 -0.114 0.022
0.213 -0.112 0.022
0.215 -0.111 0.022
0.213 -0.107 0.021
0.209 -0.103 0.021
0.213 -0.103 0.021
0.213 -0.101 0.021
0.212 -0.098 0.021
0.205 -0.093 0.020
0.211 -0.093 0.021
0.209 -0.090 0.021
0.218 -0.092 0.022
0.217 -0.090 0.021
0.219 -0.088 0.022
0.217 -0.085 0.021
0.221 -0.085 0.022
0.214 -0.080 0.021
0.226 -0.082 0.022
0.232 -0.082 0.023
0.233 -0.080 0.023
0.238 -0.080 0.023
0.241 -0.078 0.024
0.246 -0.078 0.024
0.259 -0.079 0.025
0.271 -0.080 0.026
0.281 -0.081 0.027
0.413 -0.111 0.040
0.417 -0.108 0.040
0.420 -0.105 0.041
0.423 -0.102 0.041
0.423 -0.098 0.041
0.384 -0.078 0.037
0.374 -0.073 0.036
0.362 -0.067 0.035
0.347 -0.061 0.033
0.287 -0.048 0.028
0.289 -0.046 0.028
0.288 -0.043 0.028
0.288 -0.040 0.028
0.287 -0.038 0.028
0.289 -0.035 0.028
0.289 -0.033 0.028
0.288 -0.030 0.028
0.292 -0.028 0.028
0.293 -0.025 0.028
0.294 -0.023 0.028
0.294 -0.020 0.028
0.297 -0.017 0.028
0.301 -0.015 0.029
0.295 -0.012 0.028
0.294 -0.009 0.028
0.296 -0.007 0.028
0.303 -0.004 0.029
0.307 -0.001 0.029
0.308 0.001 0.029
0.309 0.004 0.030
0.309 0.007 0.029
0.307 0.010 0.029
0.310 0.012 0.030
0.315 0.016 0.030
0.312 0.018 0.030
0.319 0.021 0.030
0.327 0.025 0.031
0.339 0.029 0.032
0.345 0.033 0.033
0.342 0.035 0.033
0.330 0.037 0.032
0.324 0.039 0.031
0.336 0.044 0.032
0.338 0.047 0.032
0.340 0.051 0.033
0.330 0.052 0.032
0.300 0.050 0.029
0.288 0.051 0.028
0.310 0.063 0.030
0.306 0.065 0.030
0.300 0.067 0.029
0.308 0.071 0.030
0.308 0.074 0.030
0.329 0.083 0.032
0.345 0.090 0.034
0.349 0.094 0.034
0.334 0.093 0.033
0.341 0.098 0.033
0.343 0.102 0.033
0.340 0.105 0.033
0.326 0.103 0.032
0.316 0.103 0.031
0.328 0.111 0.032
0.329 0.114 0.032
0.327 0.117 0.032
0.323 0.118 0.032
0.331 0.125 0.033
0.338 0.131 0.033
0.349 0.138 0.035
0.418 0.174 0.042
0.420 0.179 0.042
0.408 0.178 0.041
0.405 0.181 0.041
0.398 0.182 0.040
0.389 0.182 0.039
0.382 0.182 0.038
0.374 0.183 0.038
0.367 0.183 0.037
0.359 0.183 0.036
0.351 0.182 0.036
0.344 0.183 0.035
0.339 0.184 0.035
0.334 0.184 0.034
0.327 0.185 0.034
0.321 0.185 0.033
0.316 0.186 0.033
0.308 0.184 0.032
0.303 0.185 0.032
0.299 0.186 0.031
0.295 0.187 0.031
0.293 0.189 0.031
0.284 0.186 0.030
0.281 0.188 0.030
0.274 0.187 0.029
0.269 0.187 0.029
0.266 0.187 0.028
0.263 0.189 0.028
0.262 0.191 0.028
0.261 0.194 0.028
0.262 0.198 0.028
0.261 0.201 0.028
0.260 0.203 0.028
0.259 0.206 0.029
0.260 0.211 0.029
0.259 0.214 0.029
0.258 0.216 0.029
0.258 0.220 0.029
0.258 0.223 0.029
0.258 0.227 0.029
0.258 0.231 0.029
0.256 0.233 0.029
0.256 0.237 0.030
0.256 0.241 0.030
0.255 0.244 0.030
0.257 0.250 0.030
0.256 0.253 0.030
0.374 0.429 0.047
0.379 0.442 0.048
0.329 0.403 0.042
0.310 0.385 0.040
0.305 0.385 0.040
0.302 0.388 0.040
0.299 0.391 0.040
0.178 -0.246 0.026
0.178 -0.243 0.026
0.178 -0.239 0.025
0.178 -0.237 0.025
0.179 -0.235 0.025
0.181 -0.234 0.025
0.183 -0.233 0.026
0.185 -0.232 0.026
0.187 -0.232 0.026
0.189 -0.231 0.026
0.191 -0.229 0.026
0.194 -0.229 0.026
0.194 -0.227 0.026
0.196 -0.225 0.026
0.198 -0.224 0.026
0.200 -0.224 0.027
0.203 -0.223 0.027
0.205 -0.222 0.027
0.207 -0.221 0.027
0.210 -0.220 0.027
0.212 -0.219 0.027
0.214 -0.218 0.027
0.216 -0.217 0.027
0.218 -0.216 0.028
0.221 -0.215 0.028
0.223 -0.213 0.028
0.225 -0.212 0.028
0.229 -0.212 0.028
0.232 -0.212 0.029
0.235 -0.211 0.029
0.237 -0.210 0.029
0.242 -0.211 0.029
0.243 -0.208 0.029
0.244 -0.206 0.029
0.249 -0.207 0.030
