VERSION .7
FIELDS x y z
SIZE 4 4 4
TYPE F F F
COUNT 1 1 1
WIDTH     2586
HEIGHT 1
VIEWPOINT 0 0 0 1 0 0 0
POINTS     2586
DATA ascii
0.293 0.031 0.066
0.297 0.034 0.067
0.297 0.037 0.067
0.290 0.038 0.065
0.293 0.041 0.066
0.297 0.045 0.067
0.291 0.046 0.065
0.283 0.048 0.064
0.280 0.050 0.063
0.284 0.053 0.064
0.282 0.056 0.064
0.285 0.059 0.064
0.280 0.060 0.063
0.273 0.061 0.062
0.271 0.064 0.062
0.269 0.066 0.061
0.271 0.069 0.061
0.275 0.072 0.062
0.278 0.076 0.063
0.277 0.078 0.063
0.281 0.082 0.064
0.278 0.084 0.063
0.279 0.087 0.064
0.288 0.093 0.066
0.293 0.097 0.067
0.296 0.101 0.068
0.295 0.103 0.068
0.293 0.106 0.068
0.290 0.107 0.067
0.297 0.113 0.069
0.302 0.118 0.070
0.299 0.120 0.069
0.273 0.112 0.064
0.261 0.110 0.061
0.293 0.126 0.068
0.306 0.135 0.072
0.317 0.143 0.074
0.317 0.146 0.074
0.315 0.149 0.074
0.310 0.150 0.073
0.306 0.151 0.072
0.300 0.151 0.071
0.301 0.155 0.071
0.304 0.160 0.072
0.308 0.165 0.073
0.311 0.171 0.074
0.308 0.172 0.074
0.304 0.174 0.073
0.300 0.175 0.072
0.296 0.176 0.072
0.294 0.178 0.071
0.292 0.180 0.071
0.288 0.181 0.070
0.285 0.182 0.070
0.282 0.184 0.069
0.278 0.184 0.068
0.272 0.184 0.067
0.267 0.184 0.066
0.264 0.185 0.066
0.261 0.187 0.065
0.260 0.189 0.065
0.261 0.193 0.066
0.259 0.195 0.066
0.258 0.198 0.065
0.259 0.202 0.066
0.259 0.205 0.066
0.259 0.209 0.066
0.258 0.212 0.067
0.257 0.214 0.067
0.254 0.216 0.066
0.252 0.218 0.066
0.253 0.222 0.067
0.252 0.226 0.067
0.250 0.227 0.066
0.249 0.230 0.067
0.248 0.233 0.067
0.243 0.232 0.066
0.237 0.230 0.064
0.237 0.234 0.065
0.233 0.234 0.064
0.226 0.231 0.063
0.218 0.227 0.061
0.214 0.226 0.060
0.205 0.220 0.058
0.200 0.219 0.057
0.204 0.226 0.058
0.202 0.228 0.058
0.197 0.226 0.057
0.194 0.226 0.056
0.196 0.232 0.057
0.193 0.233 0.057
0.204 0.251 0.061
0.209 0.260 0.062
0.254 0.336 0.078
0.099 -0.137 0.031
0.100 -0.135 0.031
0.100 -0.135 0.031
0.100 -0.133 0.031
0.100 -0.131 0.031
0.101 -0.130 0.031
0.099 -0.126 0.030
0.100 -0.125 0.030
0.101 -0.125 0.031
0.102 -0.124 0.031
0.102 -0.122 0.031
0.101 -0.120 0.030
0.102 -0.119 0.030
0.102 -0.118 0.030
0.102 -0.115 0.030
0.125 -0.140 0.036
0.125 -0.137 0.036
0.124 -0.134 0.036
0.273 -0.277 0.077
0.273 -0.273 0.077
0.274 -0.270 0.077
0.277 -0.269 0.077
0.280 -0.268 0.078
0.283 -0.266 0.078
0.285 -0.264 0.078
0.285 -0.260 0.078
0.286 -0.257 0.078
0.287 -0.253 0.078
0.285 -0.248 0.077
0.285 -0.244 0.077
0.284 -0.239 0.076
0.281 -0.232 0.075
0.280 -0.228 0.074
0.273 -0.219 0.072
0.269 -0.212 0.071
0.200 -0.153 0.052
0.197 -0.148 0.051
0.196 -0.145 0.051
0.195 -0.141 0.050
0.199 -0.142 0.051
0.191 -0.134 0.049
0.204 -0.140 0.052
0.199 -0.135 0.051
0.199 -0.132 0.051
0.199 -0.130 0.050
0.201 -0.129 0.051
0.196 -0.124 0.049
0.193 -0.119 0.048
0.199 -0.121 0.050
0.204 -0.122 0.051
0.209 -0.122 0.052
0.206 -0.118 0.051
0.207 -0.117 0.051
0.169 -0.092 0.042
0.170 -0.090 0.042
0.169 -0.088 0.042
0.171 -0.087 0.042
0.172 -0.082 0.042
0.172 -0.081 0.042
0.174 -0.079 0.042
0.175 -0.078 0.042
0.176 -0.077 0.043
0.177 -0.076 0.043
0.178 -0.074 0.043
0.179 -0.073 0.043
0.180 -0.072 0.043
0.181 -0.070 0.043
0.182 -0.069 0.044
0.186 -0.068 0.044
0.187 -0.067 0.045
0.215 -0.075 0.051
0.223 -0.075 0.053
0.226 -0.074 0.054
0.223 -0.071 0.053
0.233 -0.072 0.055
0.241 -0.072 0.057
0.245 -0.071 0.058
0.254 -0.071 0.060
0.322 -0.084 0.076
0.326 -0.082 0.077
0.332 -0.081 0.078
0.333 -0.078 0.078
0.330 -0.074 0.078
0.321 -0.069 0.075
0.318 -0.065 0.075
0.323 -0.064 0.076
0.328 -0.061 0.077
0.312 -0.056 0.073
0.291 -0.049 0.068
0.279 -0.045 0.065
0.277 -0.042 0.065
0.280 -0.039 0.065
0.279 -0.037 0.065
0.280 -0.034 0.065
0.279 -0.032 0.065
0.279 -0.029 0.065
0.281 -0.027 0.065
0.282 -0.024 0.066
0.281 -0.022 0.066
0.280 -0.019 0.065
0.283 -0.017 0.066
0.286 -0.014 0.067
0.290 -0.012 0.068
0.290 -0.009 0.067
0.288 -0.007 0.067
0.284 -0.004 0.066
0.282 -0.001 0.066
0.281 0.001 0.065
0.281 0.004 0.066
0.287 0.006 0.067
0.293 0.009 0.068
0.295 0.012 0.069
0.291 0.014 0.068
0.279 0.016 0.065
0.279 0.019 0.065
0.280 0.022 0.065
0.281 0.024 0.065
0.276 0.026 0.064
0.273 0.029 0.064
0.292 0.033 0.068
0.286 0.035 0.067
0.278 0.037 0.065
0.291 0.041 0.068
0.294 0.044 0.069
0.290 0.046 0.068
0.284 0.048 0.067
0.285 0.051 0.067
0.289 0.054 0.068
0.287 0.057 0.067
0.283 0.058 0.067
0.286 0.062 0.067
0.280 0.063 0.066
0.278 0.065 0.065
0.281 0.069 0.066
0.286 0.072 0.068
0.280 0.074 0.066
0.274 0.075 0.065
0.278 0.078 0.066
0.276 0.081 0.066
0.282 0.085 0.067
0.298 0.093 0.071
0.300 0.096 0.072
0.297 0.098 0.071
0.297 0.101 0.071
0.297 0.104 0.071
0.296 0.107 0.071
0.296 0.110 0.071
0.296 0.113 0.071
0.302 0.118 0.073
0.304 0.122 0.073
0.294 0.121 0.071
0.277 0.116 0.067
0.282 0.125 0.069
0.300 0.136 0.073
0.305 0.141 0.075
0.305 0.144 0.075
0.308 0.149 0.076
0.301 0.149 0.074
0.297 0.150 0.073
0.293 0.151 0.073
0.300 0.158 0.074
0.303 0.163 0.075
0.303 0.166 0.076
0.305 0.171 0.076
0.301 0.172 0.075
0.297 0.173 0.075
0.294 0.175 0.074
0.291 0.176 0.074
0.289 0.179 0.073
0.283 0.178 0.072
0.281 0.180 0.072
0.279 0.182 0.071
0.274 0.183 0.070
0.271 0.183 0.070
0.268 0.185 0.069
0.262 0.184 0.068
0.261 0.187 0.068
0.260 0.189 0.068
0.261 0.193 0.068
0.260 0.196 0.068
0.259 0.199 0.068
0.258 0.201 0.068
0.259 0.206 0.069
0.259 0.209 0.069
0.258 0.212 0.069
0.257 0.215 0.069
0.254 0.216 0.069
0.252 0.218 0.069
0.254 0.223 0.070
0.250 0.224 0.069
0.243 0.221 0.067
0.243 0.225 0.068
0.241 0.227 0.067
0.234 0.224 0.066
0.229 0.223 0.065
0.226 0.224 0.064
0.222 0.224 0.064
0.215 0.220 0.062
0.210 0.218 0.061
0.205 0.217 0.060
0.203 0.219 0.060
0.203 0.222 0.060
0.199 0.222 0.059
0.201 0.228 0.060
0.208 0.239 0.063
0.210 0.245 0.064
0.216 0.256 0.066
0.218 0.263 0.067
0.213 0.262 0.066
0.213 0.266 0.066
0.216 0.282 0.068
0.215 0.286 0.069
0.099 -0.137 0.033
0.101 -0.137 0.033
0.101 -0.136 0.033
0.100 -0.133 0.032
0.101 -0.132 0.033
0.102 -0.132 0.033
0.103 -0.131 0.033
0.102 -0.128 0.032
0.102 -0.127 0.032
0.103 -0.126 0.032
0.102 -0.123 0.032
0.102 -0.121 0.032
0.103 -0.120 0.032
0.103 -0.119 0.032
0.103 -0.117 0.031
0.102 -0.114 0.031
0.112 -0.123 0.034
0.111 -0.121 0.033
0.108 -0.116 0.032
0.262 -0.267 0.077
0.270 -0.271 0.079
0.272 -0.269 0.079
0.273 -0.266 0.079
0.276 -0.264 0.079
0.279 -0.263 0.080
0.281 -0.261 0.080
0.282 -0.257 0.080
0.282 -0.253 0.080
0.281 -0.248 0.079
0.282 -0.246 0.079
0.280 -0.240 0.078
0.280 -0.236 0.078
0.280 -0.232 0.077
0.275 -0.224 0.076
0.200 -0.153 0.054
0.197 -0.148 0.053
0.196 -0.145 0.053
0.201 -0.146 0.054
0.202 -0.145 0.054
0.204 -0.143 0.055
0.207 -0.143 0.055
0.204 -0.138 0.054
0.197 -0.131 0.052
0.199 -0.131 0.053
0.198 -0.127 0.052
0.198 -0.125 0.052
0.198 -0.123 0.052
0.196 -0.120 0.051
0.200 -0.119 0.052
0.203 -0.119 0.053
0.168 -0.095 0.043
0.168 -0.093 0.043
0.169 -0.092 0.043
0.169 -0.090 0.043
0.170 -0.088 0.043
0.170 -0.087 0.043
0.171 -0.086 0.044
0.173 -0.085 0.044
0.174 -0.083 0.044
0.184 -0.086 0.046
0.187 -0.086 0.047
0.189 -0.085 0.048
0.189 -0.083 0.047
0.187 -0.080 0.047
0.186 -0.078 0.047
0.182 -0.074 0.045
0.180 -0.071 0.045
0.181 -0.070 0.045
0.182 -0.069 0.045
0.183 -0.067 0.046
0.185 -0.066 0.046
0.186 -0.065 0.046
0.186 -0.063 0.046
0.195 -0.064 0.048
0.221 -0.071 0.055
0.235 -0.073 0.058
0.239 -0.072 0.059
0.241 -0.070 0.059
0.248 -0.070 0.061
0.311 -0.081 0.076
0.320 -0.081 0.078
0.325 -0.079 0.080
0.326 -0.076 0.080
0.321 -0.072 0.078
0.316 -0.068 0.077
0.314 -0.065 0.077
0.311 -0.061 0.076
0.306 -0.057 0.075
0.301 -0.054 0.073
0.285 -0.048 0.069
0.277 -0.044 0.067
0.281 -0.042 0.068
0.282 -0.040 0.068
0.281 -0.037 0.068
0.277 -0.034 0.067
0.275 -0.031 0.067
0.277 -0.029 0.067
0.277 -0.026 0.067
0.276 -0.024 0.067
0.277 -0.021 0.067
0.280 -0.019 0.068
0.281 -0.017 0.068
0.287 -0.014 0.069
0.287 -0.012 0.070
0.292 -0.009 0.071
0.291 -0.007 0.070
0.284 -0.004 0.069
0.281 -0.001 0.068
0.284 0.001 0.069
0.288 0.004 0.070
0.287 0.007 0.070
0.292 0.009 0.071
0.293 0.012 0.071
0.282 0.014 0.068
0.275 0.016 0.067
0.276 0.019 0.067
0.279 0.022 0.068
0.278 0.024 0.067
0.271 0.026 0.066
0.269 0.028 0.065
0.271 0.031 0.066
0.269 0.033 0.065
0.267 0.035 0.065
0.291 0.041 0.071
0.299 0.045 0.073
0.292 0.047 0.071
0.295 0.050 0.072
0.289 0.052 0.070
0.293 0.055 0.072
0.289 0.057 0.071
0.290 0.060 0.071
0.285 0.062 0.070
0.283 0.064 0.069
0.283 0.066 0.069
0.286 0.070 0.070
0.284 0.072 0.070
0.277 0.073 0.068
0.258 0.070 0.064
0.267 0.078 0.066
0.266 0.080 0.066
0.292 0.091 0.072
0.297 0.096 0.074
0.296 0.098 0.073
0.294 0.100 0.073
0.295 0.104 0.074
0.295 0.106 0.074
0.295 0.109 0.074
0.295 0.112 0.074
0.293 0.114 0.073
0.294 0.118 0.074
0.289 0.119 0.073
0.291 0.123 0.073
0.290 0.125 0.073
0.277 0.123 0.070
0.291 0.135 0.074
0.291 0.138 0.074
0.287 0.139 0.073
0.294 0.145 0.075
0.287 0.145 0.074
0.288 0.149 0.074
0.294 0.155 0.076
0.296 0.159 0.076
0.296 0.163 0.077
0.295 0.166 0.077
0.295 0.169 0.077
0.292 0.170 0.076
0.290 0.173 0.076
0.287 0.174 0.075
0.281 0.174 0.074
0.280 0.176 0.074
0.277 0.178 0.074
0.274 0.179 0.073
0.270 0.180 0.072
0.268 0.182 0.072
0.267 0.184 0.072
0.265 0.186 0.072
0.262 0.188 0.071
0.261 0.191 0.071
0.261 0.194 0.071
0.260 0.196 0.071
0.258 0.199 0.071
0.258 0.202 0.071
0.260 0.207 0.072
0.259 0.209 0.072
0.258 0.212 0.072
0.257 0.215 0.072
0.257 0.219 0.072
0.254 0.220 0.072
0.253 0.223 0.072
0.250 0.224 0.072
0.241 0.220 0.070
0.236 0.219 0.068
0.234 0.221 0.068
0.229 0.219 0.067
0.224 0.219 0.066
0.219 0.218 0.065
0.215 0.217 0.064
0.208 0.213 0.062
0.199 0.207 0.060
0.205 0.217 0.062
0.208 0.224 0.063
0.207 0.227 0.064
0.204 0.228 0.063
0.207 0.235 0.064
0.204 0.235 0.064
0.205 0.241 0.065
0.210 0.250 0.067
0.211 0.255 0.067
0.202 0.248 0.065
0.201 0.255 0.065
0.204 0.268 0.067
0.196 0.260 0.065
0.099 -0.137 0.034
0.101 -0.137 0.034
0.101 -0.136 0.034
0.101 -0.134 0.034
0.102 -0.133 0.034
0.102 -0.132 0.034
0.103 -0.131 0.034
0.103 -0.129 0.034
0.103 -0.127 0.034
0.103 -0.126 0.033
0.103 -0.124 0.033
0.103 -0.122 0.033
0.103 -0.121 0.033
0.104 -0.120 0.033
0.105 -0.119 0.033
0.104 -0.117 0.033
0.104 -0.115 0.033
0.107 -0.116 0.033
0.106 -0.113 0.033
0.109 -0.115 0.034
0.269 -0.271 0.082
0.272 -0.269 0.082
0.272 -0.265 0.082
0.273 -0.262 0.082
0.276 -0.261 0.082
0.277 -0.257 0.082
0.277 -0.254 0.082
0.278 -0.250 0.081
0.279 -0.247 0.081
0.276 -0.241 0.080
0.276 -0.237 0.080
0.276 -0.233 0.080
0.277 -0.230 0.079
0.274 -0.224 0.079
0.258 -0.207 0.074
0.249 -0.197 0.071
0.199 -0.153 0.056
0.198 -0.149 0.056
0.202 -0.149 0.056
0.204 -0.149 0.057
0.203 -0.145 0.057
0.205 -0.144 0.057
0.206 -0.142 0.057
0.204 -0.139 0.056
0.201 -0.134 0.055
0.196 -0.129 0.054
0.198 -0.128 0.054
0.198 -0.125 0.054
0.199 -0.123 0.054
0.195 -0.119 0.053
0.200 -0.120 0.054
0.171 -0.100 0.046
0.167 -0.096 0.045
0.168 -0.095 0.045
0.168 -0.093 0.045
0.169 -0.092 0.045
0.170 -0.091 0.045
0.174 -0.091 0.046
0.206 -0.103 0.054
0.205 -0.100 0.054
0.208 -0.100 0.055
0.210 -0.098 0.055
0.212 -0.097 0.056
0.212 -0.095 0.056
0.198 -0.087 0.052
0.210 -0.090 0.055
0.213 -0.089 0.055
0.214 -0.087 0.056
0.212 -0.084 0.055
0.209 -0.081 0.054
0.198 -0.075 0.051
0.186 -0.068 0.048
0.185 -0.066 0.048
0.185 -0.065 0.048
0.186 -0.063 0.048
0.188 -0.062 0.048
0.189 -0.060 0.048
0.198 -0.061 0.051
0.229 -0.069 0.059
0.236 -0.069 0.060
0.239 -0.067 0.061
0.306 -0.080 0.078
0.308 -0.078 0.078
0.314 -0.076 0.080
0.316 -0.074 0.080
0.311 -0.070 0.079
0.308 -0.066 0.078
0.310 -0.064 0.079
0.304 -0.060 0.077
0.300 -0.056 0.076
0.296 -0.053 0.075
0.284 -0.048 0.072
0.277 -0.044 0.070
0.278 -0.042 0.070
0.279 -0.039 0.070
0.279 -0.037 0.070
0.278 -0.034 0.070
0.277 -0.032 0.070
0.275 -0.029 0.069
0.276 -0.026 0.070
0.278 -0.024 0.070
0.279 -0.022 0.070
0.279 -0.019 0.070
0.281 -0.017 0.071
0.279 -0.014 0.070
0.282 -0.012 0.071
0.283 -0.009 0.071
0.288 -0.007 0.072
0.285 -0.004 0.072
0.282 -0.001 0.071
0.286 0.001 0.072
0.289 0.004 0.073
0.291 0.007 0.073
0.288 0.009 0.072
0.279 0.011 0.070
0.266 0.013 0.067
0.263 0.016 0.066
0.267 0.018 0.067
0.276 0.021 0.069
0.281 0.024 0.071
0.274 0.026 0.069
0.270 0.028 0.068
0.267 0.030 0.067
0.265 0.033 0.067
0.271 0.036 0.069
0.287 0.041 0.073
0.291 0.044 0.074
0.297 0.048 0.075
0.288 0.049 0.073
0.292 0.052 0.074
0.283 0.053 0.072
0.294 0.058 0.075
0.293 0.061 0.074
0.288 0.062 0.073
0.285 0.064 0.073
0.284 0.067 0.072
0.279 0.068 0.071
0.277 0.071 0.071
0.239 0.065 0.061
0.236 0.067 0.061
0.247 0.072 0.063
0.282 0.088 0.073
0.288 0.093 0.074
0.292 0.097 0.075
0.289 0.099 0.075
0.288 0.101 0.075
0.290 0.105 0.075
0.291 0.108 0.076
0.291 0.111 0.076
0.291 0.114 0.076
0.286 0.115 0.075
0.286 0.118 0.075
0.287 0.121 0.075
0.287 0.124 0.075
0.284 0.126 0.075
0.275 0.125 0.072
0.263 0.122 0.069
0.270 0.128 0.072
0.276 0.134 0.073
0.275 0.136 0.073
0.279 0.141 0.074
0.284 0.147 0.076
0.286 0.151 0.077
0.287 0.155 0.077
0.289 0.159 0.078
0.289 0.162 0.078
0.287 0.165 0.078
0.287 0.168 0.078
0.283 0.169 0.077
0.276 0.168 0.075
0.272 0.169 0.075
0.275 0.173 0.075
0.273 0.176 0.075
0.270 0.177 0.075
0.267 0.178 0.074
0.265 0.180 0.074
0.263 0.182 0.073
0.264 0.186 0.074
0.264 0.189 0.074
0.261 0.190 0.074
0.260 0.193 0.074
0.258 0.195 0.073
0.256 0.197 0.073
0.256 0.200 0.073
0.257 0.205 0.074
0.257 0.208 0.074
0.256 0.211 0.074
0.255 0.214 0.074
0.254 0.217 0.075
0.249 0.216 0.073
0.249 0.219 0.074
0.247 0.222 0.074
0.238 0.217 0.071
0.233 0.216 0.070
0.231 0.218 0.070
0.229 0.220 0.070
0.222 0.217 0.068
0.217 0.216 0.067
0.207 0.209 0.064
0.202 0.208 0.063
0.202 0.211 0.063
0.204 0.217 0.064
0.208 0.224 0.066
0.208 0.229 0.066
0.203 0.227 0.065
0.199 0.226 0.064
0.198 0.228 0.064
0.201 0.236 0.066
0.201 0.240 0.066
0.195 0.237 0.065
0.195 0.241 0.065
0.190 0.237 0.064
0.189 0.241 0.064
0.191 0.246 0.065
0.192 0.252 0.066
0.191 0.254 0.066
0.099 -0.137 0.035
0.100 -0.137 0.035
0.102 -0.137 0.036
0.102 -0.135 0.035
0.102 -0.133 0.035
0.102 -0.132 0.035
0.102 -0.131 0.035
0.102 -0.129 0.035
0.103 -0.128 0.035
0.103 -0.126 0.035
0.103 -0.124 0.035
0.103 -0.123 0.034
0.103 -0.121 0.034
0.104 -0.120 0.034
0.105 -0.119 0.034
0.105 -0.117 0.034
0.105 -0.116 0.034
0.106 -0.115 0.034
0.107 -0.115 0.034
0.107 -0.112 0.034
0.109 -0.113 0.035
0.270 -0.267 0.085
0.270 -0.263 0.084
0.270 -0.259 0.084
0.271 -0.257 0.084
0.273 -0.254 0.084
0.274 -0.251 0.084
0.274 -0.247 0.084
0.273 -0.242 0.083
0.273 -0.238 0.082
0.273 -0.235 0.082
0.273 -0.231 0.082
0.273 -0.227 0.081
0.271 -0.222 0.081
0.265 -0.213 0.078
0.249 -0.197 0.073
0.237 -0.185 0.070
0.201 -0.154 0.059
0.199 -0.150 0.058
0.202 -0.150 0.059
0.204 -0.149 0.059
0.203 -0.145 0.058
0.202 -0.142 0.058
0.203 -0.140 0.058
0.203 -0.138 0.058
0.203 -0.135 0.058
0.200 -0.131 0.057
0.200 -0.129 0.057
0.199 -0.126 0.056
0.196 -0.121 0.055
0.190 -0.116 0.053
0.171 -0.102 0.048
0.168 -0.099 0.047
0.168 -0.097 0.047
0.169 -0.095 0.047
0.170 -0.094 0.047
0.200 -0.106 0.055
0.207 -0.108 0.057
0.207 -0.106 0.057
0.208 -0.104 0.057
0.212 -0.104 0.058
0.208 -0.100 0.057
0.210 -0.099 0.057
0.212 -0.098 0.058
0.213 -0.096 0.058
0.207 -0.091 0.056
0.207 -0.089 0.056
0.212 -0.089 0.057
0.214 -0.087 0.058
0.211 -0.084 0.057
0.207 -0.081 0.056
0.205 -0.078 0.055
0.215 -0.079 0.058
0.212 -0.076 0.057
0.198 -0.069 0.053
0.187 -0.063 0.050
0.188 -0.062 0.050
0.189 -0.060 0.050
0.190 -0.059 0.050
0.191 -0.058 0.051
0.193 -0.056 0.051
0.197 -0.056 0.052
0.295 -0.078 0.078
0.302 -0.076 0.080
0.305 -0.074 0.080
0.307 -0.072 0.081
0.301 -0.068 0.079
0.298 -0.064 0.078
0.295 -0.061 0.078
0.296 -0.058 0.078
0.296 -0.056 0.078
0.292 -0.052 0.077
0.289 -0.049 0.076
0.283 -0.045 0.074
0.268 -0.040 0.070
0.269 -0.038 0.070
0.271 -0.036 0.071
0.282 -0.035 0.074
0.278 -0.032 0.073
0.277 -0.029 0.072
0.276 -0.026 0.072
0.277 -0.024 0.072
0.278 -0.022 0.073
0.279 -0.019 0.073
0.280 -0.017 0.073
0.282 -0.014 0.073
0.278 -0.011 0.072
0.280 -0.009 0.073
0.284 -0.006 0.074
0.287 -0.004 0.075
0.286 -0.001 0.075
0.285 0.001 0.074
0.288 0.004 0.075
0.289 0.007 0.075
0.285 0.009 0.074
0.278 0.011 0.072
0.267 0.013 0.070
0.262 0.016 0.068
0.266 0.018 0.070
0.269 0.021 0.070
0.282 0.024 0.074
0.277 0.027 0.072
0.275 0.029 0.072
0.271 0.031 0.071
0.275 0.034 0.072
0.275 0.037 0.072
0.280 0.040 0.074
0.280 0.042 0.074
0.274 0.044 0.072
0.271 0.046 0.071
0.275 0.049 0.072
0.288 0.054 0.076
0.294 0.058 0.077
0.294 0.061 0.078
0.290 0.063 0.077
0.287 0.065 0.076
0.283 0.067 0.075
0.274 0.067 0.073
0.260 0.066 0.069
0.251 0.066 0.067
0.235 0.064 0.062
0.233 0.066 0.062
0.248 0.073 0.066
0.270 0.082 0.072
0.281 0.088 0.075
0.290 0.094 0.078
0.287 0.095 0.077
0.287 0.098 0.077
0.285 0.100 0.076
0.284 0.103 0.077
0.286 0.106 0.077
0.282 0.108 0.076
0.281 0.110 0.076
0.282 0.113 0.076
0.282 0.116 0.077
0.282 0.119 0.077
0.281 0.122 0.077
0.281 0.125 0.077
0.275 0.125 0.075
0.267 0.124 0.073
0.264 0.125 0.073
0.267 0.130 0.073
0.269 0.133 0.074
0.271 0.137 0.075
0.275 0.143 0.076
0.279 0.147 0.077
0.277 0.149 0.077
0.279 0.153 0.078
0.282 0.159 0.079
0.283 0.162 0.080
0.281 0.164 0.079
0.277 0.165 0.078
0.272 0.165 0.077
0.269 0.167 0.076
0.263 0.166 0.075
0.262 0.169 0.075
0.266 0.175 0.076
0.265 0.177 0.076
0.260 0.177 0.075
0.256 0.178 0.074
0.256 0.181 0.074
0.260 0.186 0.076
0.259 0.189 0.076
0.257 0.191 0.075
0.255 0.193 0.075
0.254 0.196 0.075
0.253 0.199 0.075
0.254 0.203 0.076
0.254 0.206 0.076
0.253 0.209 0.076
0.250 0.210 0.076
0.246 0.211 0.075
0.244 0.212 0.075
0.243 0.215 0.075
0.240 0.216 0.074
0.234 0.214 0.073
0.228 0.212 0.071
0.229 0.216 0.072
0.226 0.218 0.071
0.222 0.217 0.070
0.211 0.210 0.067
0.205 0.208 0.066
0.197 0.203 0.064
0.197 0.206 0.064
0.199 0.212 0.065
0.201 0.218 0.066
0.201 0.222 0.067
0.197 0.221 0.066
0.195 0.222 0.066
0.202 0.234 0.068
0.204 0.240 0.069
0.197 0.236 0.068
0.194 0.236 0.067
0.187 0.230 0.065
0.189 0.237 0.066
0.188 0.239 0.066
0.188 0.243 0.066
0.189 0.248 0.067
0.194 0.258 0.069
0.100 -0.137 0.037
0.102 -0.137 0.037
0.103 -0.137 0.037
0.101 -0.133 0.036
0.102 -0.132 0.036
0.102 -0.130 0.036
0.102 -0.129 0.036
0.103 -0.128 0.036
0.104 -0.127 0.036
0.104 -0.126 0.036
0.103 -0.123 0.036
0.103 -0.121 0.036
0.104 -0.120 0.035
0.104 -0.118 0.035
0.104 -0.117 0.035
0.105 -0.116 0.035
0.110 -0.120 0.037
0.108 -0.116 0.036
0.107 -0.113 0.036
0.107 -0.111 0.035
0.117 -0.120 0.039
0.266 -0.260 0.086
0.268 -0.257 0.086
0.269 -0.255 0.086
0.270 -0.251 0.086
0.270 -0.248 0.086
0.271 -0.244 0.085
0.271 -0.241 0.085
0.271 -0.237 0.085
0.270 -0.233 0.084
0.270 -0.229 0.084
0.270 -0.225 0.084
0.269 -0.220 0.083
0.260 -0.210 0.080
0.209 -0.161 0.063
0.201 -0.152 0.061
0.199 -0.148 0.060
0.200 -0.146 0.060
0.200 -0.143 0.060
0.200 -0.141 0.060
0.200 -0.139 0.059
0.203 -0.138 0.060
0.206 -0.138 0.061
0.206 -0.135 0.061
0.203 -0.131 0.060
0.202 -0.128 0.059
0.184 -0.115 0.054
0.171 -0.104 0.050
0.170 -0.102 0.049
0.171 -0.100 0.049
0.173 -0.100 0.050
0.183 -0.103 0.053
0.213 -0.118 0.061
0.201 -0.109 0.058
0.199 -0.106 0.057
0.202 -0.106 0.058
0.205 -0.105 0.058
0.208 -0.104 0.059
0.212 -0.104 0.060
0.207 -0.099 0.059
0.210 -0.099 0.059
0.212 -0.098 0.060
0.207 -0.093 0.058
0.206 -0.091 0.058
0.197 -0.085 0.055
0.210 -0.088 0.059
0.211 -0.086 0.059
0.208 -0.083 0.058
0.206 -0.080 0.057
0.210 -0.080 0.058
0.213 -0.079 0.059
0.212 -0.076 0.059
0.217 -0.076 0.060
0.225 -0.076 0.062
0.222 -0.073 0.061
0.195 -0.062 0.054
0.190 -0.059 0.052
0.191 -0.058 0.053
0.192 -0.056 0.053
0.193 -0.054 0.053
0.194 -0.053 0.053
0.196 -0.052 0.054
0.208 -0.053 0.057
0.214 -0.052 0.059
0.284 -0.061 0.077
0.287 -0.059 0.078
0.291 -0.057 0.079
0.289 -0.054 0.079
0.287 -0.051 0.078
0.291 -0.049 0.079
0.284 -0.045 0.077
0.266 -0.040 0.072
0.264 -0.037 0.072
0.274 -0.036 0.074
0.276 -0.034 0.075
0.279 -0.032 0.076
0.278 -0.029 0.075
0.277 -0.027 0.075
0.275 -0.024 0.074
0.277 -0.022 0.075
0.278 -0.019 0.075
0.281 -0.017 0.076
0.281 -0.014 0.076
0.284 -0.012 0.077
0.280 -0.009 0.076
0.281 -0.006 0.076
0.284 -0.004 0.077
0.285 -0.001 0.077
0.286 0.001 0.077
0.286 0.004 0.077
0.284 0.006 0.077
0.280 0.009 0.076
0.278 0.011 0.075
0.273 0.014 0.074
0.265 0.016 0.072
0.268 0.018 0.073
0.267 0.021 0.072
0.275 0.024 0.075
0.275 0.026 0.075
0.272 0.029 0.074
0.276 0.032 0.075
0.280 0.035 0.076
0.279 0.037 0.076
0.279 0.040 0.076
0.277 0.042 0.075
0.275 0.044 0.075
0.277 0.047 0.075
0.285 0.051 0.078
0.285 0.054 0.078
0.293 0.058 0.080
0.293 0.061 0.080
0.288 0.062 0.079
0.282 0.064 0.077
0.276 0.065 0.076
0.257 0.063 0.071
0.246 0.063 0.068
0.241 0.064 0.066
0.238 0.065 0.065
0.241 0.068 0.066
0.258 0.076 0.071
0.272 0.082 0.075
0.284 0.089 0.079
0.288 0.093 0.080
0.286 0.095 0.079
0.282 0.097 0.078
0.281 0.099 0.078
0.277 0.100 0.077
0.273 0.102 0.076
0.275 0.105 0.077
0.275 0.108 0.077
0.277 0.111 0.078
0.278 0.115 0.078
0.275 0.116 0.077
0.274 0.119 0.077
0.272 0.121 0.077
0.268 0.122 0.076
0.263 0.122 0.075
0.261 0.124 0.074
0.264 0.128 0.075
0.264 0.131 0.076
0.264 0.134 0.076
0.257 0.133 0.074
0.262 0.139 0.075
0.267 0.144 0.077
0.265 0.146 0.077
0.274 0.154 0.080
0.279 0.160 0.081
0.278 0.163 0.081
0.273 0.163 0.080
0.267 0.163 0.078
0.260 0.162 0.077
0.256 0.162 0.076
0.255 0.165 0.076
0.254 0.167 0.075
0.259 0.173 0.077
0.258 0.175 0.077
0.252 0.175 0.076
0.251 0.177 0.076
0.253 0.182 0.076
0.255 0.187 0.077
0.254 0.189 0.077
0.252 0.191 0.077
0.252 0.194 0.077
0.252 0.198 0.078
0.252 0.201 0.078
0.252 0.205 0.078
0.249 0.206 0.078
0.249 0.209 0.078
0.243 0.208 0.077
0.242 0.210 0.077
0.240 0.213 0.077
0.236 0.213 0.076
0.226 0.207 0.073
0.222 0.207 0.072
0.221 0.209 0.072
0.219 0.211 0.072
0.211 0.207 0.070
0.208 0.207 0.069
0.199 0.201 0.066
0.190 0.196 0.064
0.189 0.198 0.064
0.195 0.208 0.066
0.198 0.214 0.067
0.194 0.214 0.067
0.196 0.220 0.068
0.201 0.229 0.070
0.204 0.236 0.071
0.198 0.233 0.070
0.198 0.237 0.070
0.197 0.239 0.070
0.191 0.237 0.069
0.191 0.240 0.069
0.193 0.246 0.070
0.192 0.248 0.070
0.190 0.250 0.070
0.184 0.246 0.068
0.101 -0.138 0.038
0.102 -0.137 0.038
0.102 -0.136 0.038
0.102 -0.134 0.038
0.102 -0.132 0.038
0.102 -0.131 0.038
0.103 -0.130 0.038
0.103 -0.129 0.038
0.104 -0.128 0.038
0.103 -0.125 0.037
0.103 -0.123 0.037
0.103 -0.122 0.037
0.103 -0.120 0.037
0.103 -0.118 0.036
0.103 -0.116 0.036
0.108 -0.119 0.038
0.110 -0.120 0.038
0.109 -0.117 0.038
0.105 -0.111 0.036
0.108 -0.113 0.037
0.109 -0.112 0.037
0.119 -0.120 0.040
0.259 -0.254 0.087
0.265 -0.255 0.088
0.267 -0.254 0.089
0.264 -0.246 0.087
0.265 -0.243 0.087
0.267 -0.242 0.087
0.269 -0.240 0.088
0.269 -0.235 0.087
0.268 -0.231 0.086
0.268 -0.227 0.086
0.268 -0.223 0.086
0.265 -0.218 0.085
0.260 -0.210 0.082
0.205 -0.158 0.064
0.201 -0.151 0.063
0.199 -0.148 0.062
0.199 -0.145 0.062
0.201 -0.144 0.062
0.200 -0.141 0.062
0.200 -0.139 0.062
0.202 -0.138 0.062
0.208 -0.140 0.064
0.208 -0.137 0.063
0.206 -0.133 0.062
0.172 -0.107 0.052
0.171 -0.105 0.052
0.171 -0.102 0.051
0.181 -0.107 0.054
0.208 -0.120 0.062
0.204 -0.116 0.061
0.213 -0.118 0.063
0.203 -0.110 0.060
0.202 -0.108 0.060
0.202 -0.106 0.060
0.204 -0.105 0.060
0.206 -0.104 0.061
0.206 -0.101 0.060
0.211 -0.101 0.062
0.205 -0.096 0.060
0.205 -0.094 0.060
0.206 -0.093 0.060
0.208 -0.091 0.060
0.214 -0.092 0.062
0.200 -0.084 0.058
0.207 -0.085 0.060
0.207 -0.083 0.060
0.206 -0.080 0.059
0.209 -0.079 0.060
0.214 -0.079 0.061
0.214 -0.077 0.061
0.214 -0.075 0.061
0.223 -0.076 0.064
0.225 -0.074 0.064
0.228 -0.073 0.065
0.231 -0.072 0.066
0.193 -0.056 0.055
0.193 -0.055 0.055
0.194 -0.053 0.055
0.194 -0.051 0.055
0.195 -0.050 0.055
0.197 -0.048 0.056
0.199 -0.047 0.056
0.200 -0.045 0.057
0.201 -0.043 0.057
0.205 -0.042 0.058
0.218 -0.043 0.061
0.266 -0.043 0.075
0.272 -0.041 0.076
0.273 -0.039 0.076
0.274 -0.036 0.077
0.276 -0.034 0.077
0.276 -0.032 0.077
0.277 -0.029 0.078
0.278 -0.027 0.078
0.276 -0.024 0.077
0.274 -0.021 0.077
0.277 -0.019 0.077
0.279 -0.017 0.078
0.283 -0.014 0.079
0.281 -0.012 0.079
0.279 -0.009 0.078
0.277 -0.006 0.078
0.279 -0.004 0.078
0.281 -0.001 0.079
0.284 0.001 0.079
0.284 0.004 0.080
0.281 0.006 0.078
0.276 0.009 0.077
0.273 0.011 0.076
0.273 0.014 0.076
0.276 0.016 0.077
0.257 0.018 0.072
0.268 0.021 0.075
0.267 0.023 0.075
0.261 0.025 0.073
0.274 0.029 0.077
0.280 0.032 0.079
0.281 0.035 0.079
0.277 0.037 0.078
0.280 0.040 0.079
0.279 0.042 0.078
0.277 0.044 0.078
0.278 0.047 0.078
0.283 0.051 0.080
0.289 0.055 0.082
0.289 0.057 0.082
0.289 0.060 0.082
0.281 0.061 0.079
0.275 0.062 0.078
0.263 0.062 0.074
0.251 0.062 0.071
0.238 0.061 0.068
0.231 0.061 0.066
0.234 0.064 0.067
0.248 0.070 0.071
0.259 0.076 0.074
0.271 0.082 0.077
0.283 0.089 0.081
0.287 0.093 0.082
0.285 0.095 0.082
0.271 0.093 0.078
0.270 0.095 0.078
0.268 0.097 0.077
0.265 0.099 0.077
0.267 0.102 0.077
0.269 0.106 0.078
0.270 0.109 0.078
0.265 0.109 0.077
0.263 0.111 0.077
0.260 0.113 0.076
0.260 0.115 0.076
0.259 0.118 0.076
0.257 0.120 0.076
0.257 0.122 0.076
0.260 0.127 0.077
0.262 0.131 0.078
0.256 0.130 0.076
0.257 0.134 0.076
0.259 0.138 0.077
0.258 0.140 0.077
0.255 0.141 0.076
0.252 0.142 0.076
0.248 0.143 0.075
0.244 0.143 0.074
0.247 0.148 0.075
0.251 0.153 0.076
0.249 0.155 0.076
0.251 0.159 0.077
0.253 0.163 0.078
0.254 0.167 0.078
0.255 0.171 0.079
0.255 0.174 0.079
0.250 0.174 0.078
0.248 0.176 0.077
0.250 0.180 0.078
0.251 0.184 0.079
0.250 0.187 0.079
0.249 0.189 0.079
0.249 0.193 0.079
0.250 0.197 0.080
0.251 0.201 0.080
0.250 0.203 0.081
0.249 0.206 0.080
0.242 0.204 0.079
0.239 0.205 0.078
0.236 0.206 0.078
0.232 0.205 0.076
0.210 0.189 0.070
0.215 0.198 0.072
0.211 0.197 0.071
0.212 0.202 0.072
0.211 0.203 0.071
0.205 0.202 0.070
0.198 0.198 0.068
0.194 0.197 0.067
0.188 0.194 0.065
0.192 0.202 0.067
0.197 0.210 0.069
0.195 0.212 0.069
0.195 0.215 0.069
0.196 0.220 0.070
0.196 0.224 0.071
0.194 0.225 0.070
0.193 0.228 0.071
0.195 0.234 0.072
0.198 0.241 0.073
0.196 0.243 0.073
0.192 0.241 0.072
0.191 0.243 0.072
0.195 0.253 0.074
0.190 0.250 0.072
0.177 0.237 0.068
0.102 -0.139 0.040
0.102 -0.138 0.039
0.102 -0.136 0.039
0.102 -0.134 0.039
0.102 -0.132 0.039
0.103 -0.132 0.039
0.103 -0.130 0.039
0.104 -0.130 0.039
0.105 -0.130 0.039
0.105 -0.127 0.039
0.105 -0.125 0.039
0.104 -0.123 0.038
0.104 -0.121 0.038
0.104 -0.119 0.038
0.104 -0.117 0.038
0.113 -0.125 0.041
0.111 -0.121 0.040
0.107 -0.116 0.038
0.103 -0.109 0.036
0.112 -0.117 0.040
0.115 -0.118 0.040
0.120 -0.121 0.042
0.122 -0.122 0.042
0.254 -0.246 0.088
0.257 -0.244 0.088
0.258 -0.241 0.088
0.261 -0.240 0.089
0.263 -0.238 0.089
0.263 -0.235 0.089
0.264 -0.232 0.089
0.265 -0.229 0.089
0.262 -0.223 0.087
0.263 -0.220 0.087
0.262 -0.216 0.086
0.259 -0.209 0.085
0.248 -0.197 0.081
0.208 -0.160 0.068
0.201 -0.152 0.065
0.200 -0.149 0.065
0.202 -0.148 0.065
0.202 -0.145 0.065
0.202 -0.143 0.064
0.199 -0.138 0.063
0.205 -0.140 0.065
0.206 -0.138 0.065
0.207 -0.136 0.065
0.193 -0.125 0.061
0.173 -0.110 0.054
0.173 -0.108 0.054
0.175 -0.107 0.054
0.197 -0.118 0.061
0.208 -0.123 0.064
0.210 -0.122 0.065
0.214 -0.121 0.066
0.213 -0.119 0.066
0.209 -0.114 0.064
0.203 -0.108 0.062
0.205 -0.107 0.063
0.205 -0.105 0.063
0.204 -0.102 0.062
0.206 -0.101 0.062
0.207 -0.100 0.063
0.211 -0.099 0.064
0.207 -0.096 0.063
0.209 -0.094 0.063
0.213 -0.094 0.064
0.206 -0.089 0.062
0.207 -0.087 0.062
0.206 -0.084 0.061
0.207 -0.083 0.062
0.209 -0.081 0.062
0.209 -0.080 0.062
0.211 -0.078 0.063
0.209 -0.075 0.062
0.212 -0.074 0.063
0.219 -0.075 0.065
0.225 -0.074 0.066
0.227 -0.073 0.067
0.230 -0.072 0.068
0.234 -0.071 0.069
0.239 -0.070 0.070
0.202 -0.051 0.059
0.198 -0.048 0.058
0.199 -0.047 0.058
0.200 -0.045 0.058
0.200 -0.043 0.058
0.201 -0.042 0.059
0.202 -0.040 0.059
0.203 -0.038 0.059
0.206 -0.037 0.060
0.208 -0.035 0.060
0.211 -0.034 0.061
0.212 -0.032 0.062
0.222 -0.031 0.064
0.272 -0.031 0.079
0.268 -0.028 0.078
0.273 -0.026 0.079
0.274 -0.024 0.079
0.273 -0.021 0.079
0.273 -0.019 0.079
0.276 -0.016 0.080
0.278 -0.014 0.080
0.277 -0.011 0.080
0.275 -0.009 0.079
0.276 -0.006 0.080
0.275 -0.004 0.080
0.276 -0.001 0.080
0.277 0.001 0.080
0.279 0.004 0.081
0.279 0.006 0.081
0.275 0.009 0.080
0.271 0.011 0.078
0.285 0.014 0.083
0.284 0.017 0.082
0.283 0.019 0.082
0.267 0.021 0.077
0.263 0.023 0.076
0.264 0.025 0.077
0.273 0.029 0.079
0.279 0.032 0.081
0.277 0.034 0.081
0.271 0.036 0.079
0.273 0.039 0.080
0.273 0.041 0.080
0.274 0.044 0.080
0.274 0.047 0.080
0.280 0.050 0.082
0.288 0.054 0.084
0.290 0.058 0.085
0.280 0.058 0.082
0.275 0.060 0.081
0.268 0.061 0.078
0.248 0.059 0.073
0.240 0.059 0.071
0.241 0.062 0.071
0.225 0.060 0.066
0.238 0.065 0.070
0.257 0.073 0.076
0.264 0.078 0.078
0.271 0.082 0.080
0.272 0.085 0.081
0.287 0.093 0.085
0.283 0.094 0.084
0.266 0.091 0.079
0.263 0.093 0.078
0.260 0.095 0.078
0.259 0.097 0.077
0.258 0.099 0.077
0.258 0.101 0.077
0.256 0.103 0.077
0.254 0.105 0.076
0.252 0.107 0.076
0.252 0.110 0.076
0.252 0.112 0.076
0.253 0.115 0.077
0.255 0.119 0.078
0.256 0.122 0.078
0.256 0.125 0.078
0.253 0.126 0.077
0.252 0.128 0.077
0.252 0.131 0.077
0.254 0.135 0.078
0.252 0.136 0.078
0.250 0.139 0.078
0.246 0.139 0.077
0.245 0.141 0.076
0.243 0.143 0.076
0.242 0.145 0.076
0.243 0.148 0.076
0.245 0.153 0.077
0.246 0.156 0.078
0.250 0.162 0.079
0.253 0.166 0.080
0.257 0.172 0.082
0.250 0.171 0.080
0.246 0.171 0.079
0.246 0.174 0.079
0.247 0.178 0.080
0.248 0.182 0.081
0.247 0.185 0.081
0.246 0.187 0.081
0.247 0.191 0.081
0.248 0.196 0.082
0.249 0.199 0.083
0.248 0.202 0.083
0.241 0.200 0.081
0.235 0.198 0.079
0.229 0.197 0.077
0.225 0.197 0.077
0.219 0.194 0.075
0.207 0.188 0.071
0.200 0.184 0.069
0.204 0.191 0.071
0.206 0.197 0.072
0.204 0.198 0.072
0.202 0.199 0.071
0.194 0.195 0.069
0.192 0.196 0.069
0.195 0.201 0.070
0.201 0.212 0.073
0.200 0.214 0.073
0.199 0.217 0.073
0.199 0.221 0.073
0.200 0.225 0.074
0.194 0.222 0.072
0.189 0.220 0.071
0.192 0.227 0.073
0.196 0.236 0.075
0.198 0.241 0.076
0.195 0.242 0.075
0.191 0.240 0.074
0.188 0.241 0.073
0.191 0.248 0.075
0.195 0.257 0.077
0.184 0.246 0.073
0.102 -0.138 0.041
0.102 -0.136 0.041
0.102 -0.134 0.040
0.102 -0.133 0.040
0.104 -0.134 0.041
0.105 -0.133 0.041
0.104 -0.130 0.041
0.105 -0.129 0.041
0.106 -0.128 0.041
0.105 -0.126 0.040
0.105 -0.124 0.040
0.105 -0.122 0.040
0.104 -0.119 0.039
0.108 -0.122 0.041
0.112 -0.124 0.042
0.106 -0.116 0.039
0.107 -0.116 0.040
0.100 -0.106 0.037
0.110 -0.115 0.040
0.115 -0.119 0.042
0.117 -0.118 0.042
0.116 -0.116 0.042
0.116 -0.114 0.042
0.252 -0.240 0.089
0.253 -0.237 0.089
0.250 -0.231 0.088
0.254 -0.231 0.089
0.258 -0.230 0.090
0.258 -0.226 0.089
0.256 -0.221 0.088
0.256 -0.218 0.088
0.257 -0.215 0.088
0.258 -0.213 0.088
0.256 -0.207 0.087
0.203 -0.157 0.068
0.207 -0.157 0.069
0.203 -0.151 0.068
0.199 -0.146 0.066
0.202 -0.145 0.067
0.202 -0.143 0.067
0.201 -0.140 0.066
0.200 -0.137 0.066
0.204 -0.137 0.067
0.199 -0.131 0.065
0.181 -0.117 0.059
0.177 -0.113 0.057
0.176 -0.110 0.057
0.200 -0.122 0.064
0.207 -0.125 0.066
0.209 -0.124 0.067
0.212 -0.123 0.068
0.214 -0.122 0.068
0.212 -0.118 0.067
0.207 -0.113 0.066
0.205 -0.110 0.065
0.206 -0.108 0.065
0.204 -0.105 0.064
0.203 -0.102 0.064
0.207 -0.102 0.065
0.211 -0.102 0.066
0.211 -0.100 0.066
0.208 -0.096 0.065
0.209 -0.094 0.065
0.209 -0.092 0.065
0.203 -0.088 0.063
0.205 -0.086 0.063
0.205 -0.084 0.063
0.209 -0.084 0.064
0.209 -0.082 0.064
0.209 -0.079 0.064
0.209 -0.078 0.064
0.210 -0.076 0.064
0.213 -0.075 0.065
0.218 -0.074 0.067
0.223 -0.074 0.068
0.225 -0.072 0.068
0.231 -0.072 0.070
0.237 -0.072 0.072
0.243 -0.071 0.074
0.258 -0.073 0.078
0.268 -0.073 0.081
0.269 -0.071 0.081
0.270 -0.069 0.082
0.271 -0.066 0.082
0.270 -0.064 0.081
0.214 -0.044 0.064
0.214 -0.042 0.064
0.208 -0.039 0.063
0.208 -0.037 0.062
0.208 -0.035 0.062
0.209 -0.034 0.063
0.209 -0.032 0.063
0.210 -0.030 0.063
0.213 -0.028 0.064
0.215 -0.027 0.064
0.216 -0.025 0.065
0.230 -0.024 0.069
0.264 -0.025 0.079
0.272 -0.024 0.081
0.270 -0.021 0.081
0.270 -0.019 0.081
0.271 -0.016 0.081
0.273 -0.014 0.082
0.274 -0.011 0.082
0.273 -0.009 0.082
0.271 -0.006 0.081
0.272 -0.004 0.081
0.272 -0.001 0.081
0.275 0.001 0.082
0.275 0.004 0.082
0.276 0.006 0.082
0.284 0.009 0.085
0.282 0.012 0.084
0.280 0.014 0.084
0.281 0.017 0.084
0.271 0.019 0.081
0.263 0.021 0.079
0.262 0.023 0.078
0.263 0.025 0.079
0.272 0.029 0.082
0.273 0.031 0.082
0.270 0.033 0.081
0.273 0.036 0.082
0.269 0.038 0.081
0.271 0.041 0.081
0.273 0.044 0.082
0.276 0.047 0.083
0.278 0.050 0.084
0.281 0.053 0.085
0.283 0.056 0.085
0.272 0.057 0.082
0.265 0.058 0.080
0.240 0.055 0.073
0.228 0.054 0.069
0.230 0.057 0.070
0.228 0.058 0.069
0.244 0.065 0.074
0.260 0.072 0.079
0.268 0.076 0.082
0.271 0.080 0.082
0.266 0.081 0.081
0.273 0.086 0.083
0.275 0.089 0.084
0.269 0.090 0.083
0.255 0.088 0.078
0.251 0.089 0.077
0.250 0.091 0.077
0.250 0.093 0.077
0.249 0.095 0.077
0.247 0.097 0.077
0.247 0.100 0.077
0.247 0.102 0.077
0.246 0.104 0.077
0.247 0.107 0.077
0.250 0.112 0.078
0.249 0.114 0.078
0.249 0.116 0.078
0.254 0.121 0.080
0.250 0.122 0.079
0.248 0.124 0.078
0.245 0.125 0.078
0.246 0.128 0.078
0.246 0.131 0.078
0.245 0.133 0.078
0.244 0.135 0.078
0.244 0.138 0.078
0.244 0.141 0.079
0.246 0.145 0.079
0.246 0.147 0.079
0.247 0.151 0.080
0.244 0.152 0.080
0.242 0.154 0.079
0.240 0.155 0.079
0.243 0.160 0.080
0.251 0.169 0.083
0.243 0.166 0.081
0.241 0.168 0.080
0.243 0.173 0.081
0.243 0.176 0.081
0.244 0.180 0.082
0.245 0.184 0.083
0.245 0.187 0.083
0.246 0.191 0.084
0.245 0.194 0.084
0.240 0.193 0.082
0.223 0.183 0.077
0.214 0.178 0.074
0.212 0.186 0.074
0.206 0.184 0.073
0.204 0.185 0.072
0.203 0.187 0.072
0.198 0.186 0.071
0.201 0.192 0.073
0.202 0.196 0.073
0.201 0.198 0.073
0.197 0.198 0.072
0.195 0.199 0.072
0.200 0.207 0.074
0.200 0.211 0.075
0.199 0.213 0.075
0.198 0.216 0.075
0.201 0.224 0.077
0.202 0.228 0.077
0.194 0.223 0.075
0.190 0.221 0.074
0.193 0.229 0.075
0.198 0.238 0.078
0.197 0.241 0.078
0.194 0.242 0.077
0.192 0.243 0.077
0.191 0.245 0.077
0.193 0.251 0.078
0.195 0.257 0.079
0.205 0.275 0.084
0.102 -0.138 0.042
0.102 -0.136 0.042
0.102 -0.135 0.042
0.104 -0.135 0.042
0.104 -0.134 0.042
0.105 -0.133 0.042
0.105 -0.132 0.042
0.105 -0.130 0.042
0.105 -0.128 0.042
0.105 -0.126 0.042
0.105 -0.124 0.041
0.104 -0.121 0.041
0.109 -0.125 0.042
0.115 -0.130 0.045
0.107 -0.119 0.041
0.103 -0.113 0.040
0.098 -0.106 0.038
0.100 -0.106 0.038
0.101 -0.106 0.038
0.117 -0.120 0.044
0.114 -0.115 0.042
0.112 -0.112 0.042
0.109 -0.107 0.040
0.240 -0.229 0.088
0.246 -0.230 0.089
0.248 -0.229 0.090
0.249 -0.226 0.090
0.251 -0.224 0.090
0.252 -0.222 0.090
0.253 -0.219 0.090
0.252 -0.215 0.089
0.253 -0.212 0.089
0.253 -0.209 0.089
0.251 -0.203 0.088
0.251 -0.201 0.088
0.213 -0.165 0.074
0.209 -0.159 0.072
0.198 -0.148 0.068
0.199 -0.146 0.068
0.200 -0.144 0.068
0.201 -0.142 0.068
0.200 -0.139 0.068
0.201 -0.137 0.068
0.197 -0.133 0.067
0.187 -0.123 0.063
0.181 -0.117 0.060
0.178 -0.113 0.059
0.193 -0.121 0.064
0.207 -0.127 0.069
0.207 -0.125 0.069
0.208 -0.123 0.069
0.209 -0.122 0.069
0.210 -0.120 0.069
0.208 -0.116 0.068
0.206 -0.113 0.067
0.206 -0.110 0.067
0.205 -0.108 0.067
0.207 -0.107 0.067
0.208 -0.105 0.067
0.209 -0.103 0.067
0.210 -0.102 0.068
0.210 -0.099 0.068
0.208 -0.096 0.067
0.205 -0.092 0.066
0.207 -0.092 0.066
0.210 -0.091 0.067
0.200 -0.084 0.064
0.205 -0.084 0.065
0.207 -0.083 0.066
0.209 -0.082 0.066
0.209 -0.079 0.066
0.208 -0.077 0.066
0.211 -0.076 0.067
0.213 -0.075 0.067
0.219 -0.075 0.069
0.221 -0.073 0.069
0.225 -0.072 0.071
0.231 -0.072 0.073
0.239 -0.072 0.075
0.247 -0.072 0.077
0.255 -0.072 0.080
0.263 -0.072 0.082
0.268 -0.071 0.084
0.269 -0.069 0.084
0.270 -0.066 0.084
0.271 -0.064 0.084
0.269 -0.061 0.084
0.270 -0.059 0.084
0.271 -0.056 0.084
0.267 -0.053 0.083
0.265 -0.050 0.082
0.261 -0.047 0.081
0.257 -0.044 0.080
0.254 -0.041 0.079
0.221 -0.031 0.068
0.215 -0.029 0.066
0.215 -0.027 0.066
0.215 -0.025 0.066
0.216 -0.023 0.067
0.218 -0.021 0.067
0.221 -0.019 0.068
0.267 -0.018 0.082
0.268 -0.016 0.083
0.270 -0.014 0.083
0.269 -0.011 0.083
0.267 -0.009 0.082
0.267 -0.006 0.082
0.267 -0.004 0.082
0.272 -0.001 0.084
0.273 0.001 0.084
0.270 0.004 0.083
0.288 0.007 0.089
0.288 0.009 0.089
0.279 0.012 0.086
0.272 0.014 0.084
0.261 0.016 0.081
0.252 0.017 0.078
0.257 0.020 0.079
0.263 0.023 0.081
0.265 0.026 0.082
0.265 0.028 0.082
0.263 0.030 0.081
0.269 0.033 0.083
0.269 0.036 0.083
0.272 0.039 0.084
0.269 0.041 0.083
0.274 0.044 0.085
0.276 0.047 0.086
0.276 0.050 0.086
0.278 0.053 0.086
0.274 0.055 0.085
0.265 0.055 0.083
0.249 0.054 0.078
0.228 0.052 0.071
0.219 0.052 0.068
0.218 0.054 0.068
0.228 0.058 0.071
0.262 0.072 0.082
0.271 0.077 0.085
0.274 0.081 0.086
0.270 0.082 0.085
0.266 0.084 0.084
0.263 0.085 0.083
0.253 0.084 0.080
0.245 0.084 0.078
0.244 0.086 0.077
0.246 0.089 0.078
0.243 0.091 0.077
0.242 0.093 0.077
0.241 0.095 0.077
0.243 0.099 0.078
0.243 0.101 0.078
0.243 0.103 0.078
0.243 0.106 0.078
0.244 0.109 0.079
0.244 0.111 0.079
0.241 0.113 0.078
0.242 0.116 0.079
0.247 0.121 0.080
0.244 0.122 0.080
0.242 0.123 0.079
0.240 0.125 0.079
0.240 0.128 0.079
0.241 0.131 0.079
0.240 0.133 0.079
0.241 0.136 0.080
0.242 0.140 0.080
0.245 0.144 0.082
0.247 0.148 0.083
0.246 0.151 0.082
0.244 0.152 0.082
0.240 0.153 0.081
0.238 0.155 0.081
0.240 0.159 0.082
0.248 0.167 0.084
0.240 0.165 0.082
0.236 0.165 0.081
0.241 0.171 0.083
0.242 0.176 0.084
0.245 0.180 0.085
0.247 0.186 0.086
0.243 0.185 0.085
0.240 0.186 0.084
0.237 0.188 0.084
0.224 0.180 0.079
0.213 0.175 0.076
0.205 0.171 0.073
0.201 0.170 0.072
0.200 0.173 0.072
0.197 0.173 0.071
0.198 0.176 0.072
0.201 0.183 0.074
0.203 0.187 0.075
0.202 0.190 0.075
0.200 0.191 0.074
0.201 0.195 0.075
0.202 0.200 0.076
0.201 0.202 0.076
0.202 0.207 0.077
0.201 0.209 0.077
0.200 0.211 0.077
0.199 0.214 0.077
0.199 0.218 0.078
0.202 0.224 0.079
0.200 0.226 0.079
0.197 0.226 0.078
0.193 0.226 0.077
0.196 0.232 0.079
0.197 0.238 0.080
0.197 0.242 0.081
0.197 0.245 0.081
0.195 0.247 0.081
0.195 0.251 0.081
0.193 0.251 0.081
0.193 0.255 0.081
0.196 0.263 0.083
0.102 -0.138 0.043
0.103 -0.138 0.043
0.103 -0.136 0.043
0.104 -0.136 0.044
0.105 -0.135 0.044
0.105 -0.133 0.044
0.105 -0.132 0.043
0.106 -0.131 0.044
0.106 -0.129 0.043
0.105 -0.126 0.043
0.105 -0.124 0.043
0.114 -0.133 0.046
0.114 -0.132 0.046
0.113 -0.128 0.045
0.104 -0.116 0.041
0.102 -0.112 0.040
0.098 -0.106 0.039
0.099 -0.106 0.039
0.101 -0.106 0.039
0.119 -0.123 0.046
0.112 -0.114 0.043
0.110 -0.110 0.042
0.108 -0.106 0.041
0.230 -0.219 0.087
0.237 -0.223 0.089
0.245 -0.227 0.092
0.247 -0.224 0.092
0.248 -0.223 0.092
0.250 -0.221 0.092
0.249 -0.216 0.092
0.250 -0.213 0.091
0.250 -0.210 0.091
0.249 -0.206 0.090
0.250 -0.203 0.090
0.238 -0.190 0.086
0.244 -0.192 0.087
0.201 -0.153 0.072
0.199 -0.149 0.071
0.200 -0.147 0.071
0.200 -0.145 0.071
0.202 -0.144 0.071
0.202 -0.141 0.071
0.200 -0.137 0.070
0.195 -0.131 0.068
0.185 -0.123 0.064
0.184 -0.120 0.064
0.185 -0.118 0.064
0.204 -0.128 0.070
0.204 -0.125 0.070
0.209 -0.126 0.071
0.208 -0.123 0.071
0.207 -0.120 0.070
0.208 -0.118 0.070
0.208 -0.116 0.070
0.207 -0.113 0.070
0.206 -0.111 0.069
0.206 -0.109 0.069
0.208 -0.107 0.070
0.209 -0.106 0.070
0.209 -0.103 0.070
0.209 -0.101 0.069
0.208 -0.099 0.069
0.206 -0.095 0.068
0.206 -0.093 0.068
0.206 -0.091 0.068
0.208 -0.090 0.068
0.207 -0.087 0.068
0.205 -0.084 0.067
0.207 -0.083 0.068
0.209 -0.082 0.068
0.208 -0.079 0.068
0.206 -0.076 0.067
0.206 -0.075 0.067
0.209 -0.074 0.068
0.213 -0.073 0.069
0.220 -0.073 0.071
0.224 -0.072 0.073
0.231 -0.072 0.075
0.240 -0.073 0.078
0.246 -0.072 0.079
0.248 -0.070 0.080
0.249 -0.068 0.080
0.265 -0.070 0.085
0.268 -0.068 0.086
0.266 -0.065 0.086
0.264 -0.062 0.085
0.266 -0.060 0.085
0.268 -0.058 0.086
0.265 -0.055 0.085
0.264 -0.052 0.084
0.260 -0.049 0.083
0.259 -0.047 0.083
0.256 -0.044 0.082
0.254 -0.041 0.081
0.255 -0.039 0.081
0.257 -0.037 0.082
0.258 -0.034 0.082
0.259 -0.032 0.083
0.245 -0.028 0.078
0.219 -0.023 0.070
0.218 -0.021 0.069
0.219 -0.019 0.070
0.220 -0.017 0.070
0.220 -0.015 0.070
0.266 -0.013 0.084
0.264 -0.011 0.084
0.263 -0.008 0.084
0.263 -0.006 0.084
0.264 -0.004 0.084
0.266 -0.001 0.084
0.270 0.001 0.086
0.277 0.004 0.088
0.275 0.009 0.087
0.267 0.011 0.085
0.265 0.013 0.084
0.253 0.015 0.081
0.250 0.017 0.080
0.253 0.020 0.081
0.258 0.023 0.082
0.258 0.025 0.082
0.257 0.027 0.082
0.260 0.030 0.083
0.265 0.033 0.084
0.269 0.036 0.086
0.267 0.038 0.085
0.268 0.041 0.086
0.273 0.044 0.087
0.273 0.047 0.087
0.274 0.049 0.088
0.272 0.052 0.087
0.267 0.053 0.086
0.256 0.054 0.082
0.232 0.051 0.075
0.222 0.051 0.071
0.220 0.052 0.071
0.221 0.055 0.071
0.228 0.058 0.073
0.237 0.063 0.077
0.251 0.069 0.081
0.267 0.076 0.086
0.273 0.081 0.089
0.270 0.082 0.088
0.261 0.082 0.085
0.250 0.081 0.082
0.244 0.082 0.080
0.241 0.083 0.079
0.242 0.086 0.079
0.242 0.088 0.079
0.240 0.090 0.079
0.240 0.092 0.079
0.240 0.095 0.079
0.238 0.096 0.079
0.239 0.099 0.079
0.240 0.102 0.080
0.240 0.105 0.080
0.239 0.107 0.080
0.238 0.109 0.079
0.237 0.111 0.079
0.237 0.113 0.079
0.238 0.117 0.080
0.242 0.121 0.081
0.237 0.121 0.080
0.235 0.123 0.080
0.236 0.126 0.080
0.236 0.129 0.080
0.237 0.132 0.081
0.238 0.135 0.081
0.239 0.139 0.082
0.242 0.143 0.083
0.243 0.146 0.084
0.242 0.149 0.084
0.241 0.151 0.084
0.239 0.153 0.083
0.238 0.154 0.083
0.239 0.158 0.084
0.242 0.163 0.085
0.239 0.164 0.084
0.234 0.164 0.083
0.231 0.165 0.082
0.243 0.176 0.086
0.249 0.184 0.089
0.245 0.184 0.088
0.234 0.179 0.084
0.230 0.179 0.083
0.219 0.173 0.080
0.210 0.170 0.077
0.208 0.170 0.076
0.197 0.165 0.073
0.195 0.166 0.072
0.195 0.169 0.073
0.196 0.173 0.073
0.196 0.176 0.074
0.198 0.180 0.075
0.203 0.188 0.077
0.203 0.191 0.077
0.201 0.192 0.077
0.199 0.193 0.077
0.200 0.199 0.078
0.203 0.205 0.079
0.202 0.207 0.079
0.202 0.210 0.080
0.198 0.210 0.079
0.198 0.213 0.079
0.197 0.216 0.079
0.197 0.220 0.080
0.195 0.221 0.080
0.194 0.224 0.080
0.194 0.228 0.080
0.193 0.229 0.080
0.194 0.235 0.081
0.196 0.240 0.082
0.196 0.245 0.083
0.194 0.246 0.083
0.193 0.248 0.082
0.190 0.248 0.082
0.187 0.248 0.081
0.192 0.258 0.084
0.102 -0.137 0.045
0.103 -0.137 0.045
0.104 -0.136 0.045
0.105 -0.135 0.045
0.105 -0.134 0.045
0.105 -0.131 0.045
0.105 -0.130 0.045
0.106 -0.130 0.045
0.106 -0.128 0.045
0.119 -0.141 0.050
0.115 -0.134 0.048
0.110 -0.127 0.046
0.107 -0.121 0.044
0.105 -0.118 0.043
0.099 -0.108 0.040
0.100 -0.109 0.041
0.100 -0.107 0.040
0.101 -0.106 0.040
0.117 -0.121 0.047
0.111 -0.113 0.044
0.106 -0.106 0.042
0.104 -0.103 0.041
0.110 -0.107 0.043
0.231 -0.217 0.089
0.235 -0.218 0.090
0.244 -0.222 0.094
0.246 -0.221 0.094
0.240 -0.212 0.091
0.247 -0.215 0.094
0.244 -0.209 0.092
0.244 -0.205 0.092
0.243 -0.201 0.091
0.243 -0.198 0.090
0.238 -0.191 0.088
0.227 -0.179 0.084
0.216 -0.168 0.080
0.201 -0.153 0.074
0.197 -0.147 0.072
0.200 -0.147 0.073
0.202 -0.146 0.073
0.204 -0.145 0.074
0.202 -0.141 0.073
0.200 -0.137 0.072
0.189 -0.128 0.068
0.185 -0.122 0.066
0.187 -0.121 0.066
0.203 -0.130 0.072
0.203 -0.128 0.072
0.207 -0.127 0.073
0.207 -0.125 0.073
0.207 -0.123 0.073
0.207 -0.120 0.072
0.207 -0.118 0.072
0.208 -0.116 0.072
0.209 -0.115 0.073
0.210 -0.113 0.073
0.210 -0.110 0.072
0.209 -0.108 0.072
0.208 -0.105 0.071
0.208 -0.103 0.071
0.207 -0.100 0.071
0.206 -0.097 0.070
0.206 -0.095 0.070
0.207 -0.094 0.070
0.207 -0.091 0.070
0.206 -0.089 0.070
0.207 -0.087 0.070
0.208 -0.086 0.070
0.209 -0.084 0.071
0.209 -0.082 0.071
0.209 -0.080 0.070
0.207 -0.077 0.070
0.206 -0.074 0.069
0.208 -0.073 0.070
0.213 -0.073 0.071
0.219 -0.073 0.073
0.225 -0.072 0.075
0.234 -0.073 0.078
0.240 -0.073 0.080
0.244 -0.072 0.081
0.245 -0.070 0.082
0.249 -0.068 0.083
0.254 -0.067 0.084
0.264 -0.067 0.088
0.263 -0.065 0.087
0.260 -0.061 0.086
0.261 -0.059 0.086
0.263 -0.057 0.087
0.262 -0.054 0.086
0.258 -0.051 0.085
0.256 -0.049 0.084
0.256 -0.046 0.084
0.255 -0.043 0.084
0.255 -0.041 0.084
0.254 -0.039 0.084
0.256 -0.036 0.084
0.256 -0.034 0.084
0.252 -0.031 0.083
0.253 -0.029 0.083
0.252 -0.027 0.083
0.251 -0.024 0.082
0.221 -0.019 0.073
0.220 -0.017 0.072
0.219 -0.015 0.072
0.220 -0.013 0.072
0.222 -0.011 0.073
0.253 -0.010 0.083
0.262 -0.008 0.086
0.262 -0.006 0.086
0.263 -0.004 0.086
0.272 -0.001 0.089
0.273 0.001 0.089
0.263 0.004 0.086
0.250 0.008 0.082
0.245 0.010 0.080
0.254 0.013 0.083
0.256 0.015 0.084
0.254 0.018 0.083
0.254 0.020 0.083
0.255 0.022 0.084
0.249 0.024 0.082
0.253 0.027 0.083
0.259 0.030 0.085
0.263 0.033 0.086
0.264 0.035 0.087
0.265 0.038 0.087
0.268 0.041 0.088
0.268 0.043 0.088
0.270 0.046 0.089
0.266 0.048 0.088
0.262 0.050 0.087
0.258 0.052 0.085
0.242 0.051 0.080
0.221 0.048 0.073
0.209 0.048 0.069
0.216 0.051 0.072
0.225 0.056 0.075
0.228 0.059 0.076
0.238 0.064 0.079
0.249 0.069 0.083
0.263 0.075 0.088
0.269 0.080 0.090
0.262 0.080 0.088
0.251 0.079 0.084
0.241 0.078 0.081
0.239 0.080 0.080
0.239 0.083 0.081
0.239 0.085 0.080
0.238 0.087 0.080
0.237 0.089 0.080
0.237 0.091 0.080
0.237 0.094 0.080
0.235 0.095 0.080
0.234 0.098 0.080
0.234 0.100 0.080
0.236 0.103 0.081
0.236 0.105 0.081
0.234 0.107 0.080
0.234 0.110 0.081
0.233 0.112 0.080
0.234 0.115 0.081
0.234 0.117 0.081
0.233 0.119 0.081
0.232 0.121 0.081
0.232 0.124 0.081
0.231 0.126 0.081
0.231 0.129 0.081
0.233 0.133 0.082
0.233 0.135 0.082
0.236 0.140 0.084
0.237 0.143 0.084
0.239 0.147 0.085
0.238 0.149 0.085
0.236 0.151 0.085
0.235 0.153 0.085
0.235 0.156 0.085
0.240 0.162 0.087
0.239 0.164 0.087
0.234 0.164 0.085
0.232 0.166 0.085
0.251 0.182 0.092
0.244 0.180 0.090
0.232 0.175 0.086
0.225 0.173 0.084
0.218 0.170 0.081
0.205 0.163 0.077
0.200 0.161 0.075
0.196 0.161 0.074
0.195 0.163 0.074
0.195 0.166 0.074
0.196 0.170 0.075
0.198 0.175 0.076
0.199 0.178 0.077
0.199 0.181 0.077
0.199 0.184 0.078
0.200 0.189 0.079
0.198 0.190 0.079
0.199 0.194 0.079
0.201 0.200 0.081
0.201 0.203 0.081
0.199 0.204 0.081
0.198 0.207 0.081
0.198 0.211 0.081
0.194 0.210 0.080
0.194 0.213 0.080
0.194 0.216 0.081
0.193 0.219 0.081
0.193 0.223 0.082
0.193 0.226 0.082
0.191 0.228 0.082
0.190 0.230 0.082
0.191 0.236 0.083
0.189 0.236 0.082
0.189 0.240 0.083
0.189 0.244 0.083
0.183 0.239 0.081
0.179 0.238 0.080
0.186 0.250 0.083
0.102 -0.137 0.046
0.103 -0.137 0.046
0.104 -0.137 0.047
0.104 -0.135 0.046
0.105 -0.133 0.046
0.104 -0.131 0.046
0.105 -0.130 0.046
0.112 -0.137 0.049
0.119 -0.143 0.051
0.112 -0.133 0.048
0.107 -0.125 0.046
0.103 -0.119 0.044
0.106 -0.120 0.045
0.097 -0.109 0.041
0.098 -0.108 0.041
0.098 -0.107 0.041
0.099 -0.106 0.041
0.102 -0.107 0.042
0.113 -0.117 0.046
0.111 -0.113 0.045
0.103 -0.104 0.042
0.104 -0.103 0.042
0.108 -0.105 0.043
0.120 -0.115 0.048
0.229 -0.213 0.091
0.231 -0.212 0.091
0.232 -0.208 0.091
0.232 -0.205 0.091
0.233 -0.203 0.091
0.236 -0.202 0.092
0.238 -0.200 0.092
0.239 -0.198 0.092
0.237 -0.194 0.091
0.235 -0.188 0.090
0.225 -0.178 0.086
0.218 -0.169 0.083
0.198 -0.151 0.075
0.196 -0.147 0.074
0.200 -0.148 0.075
0.201 -0.146 0.075
0.202 -0.144 0.075
0.200 -0.140 0.074
0.189 -0.130 0.070
0.189 -0.128 0.070
0.189 -0.125 0.069
0.202 -0.132 0.074
0.201 -0.129 0.074
0.202 -0.127 0.074
0.204 -0.126 0.074
0.206 -0.125 0.075
0.205 -0.122 0.074
0.207 -0.121 0.075
0.206 -0.118 0.074
0.207 -0.116 0.074
0.209 -0.115 0.075
0.214 -0.115 0.076
0.213 -0.112 0.076
0.211 -0.109 0.075
0.208 -0.105 0.074
0.209 -0.103 0.074
0.207 -0.100 0.073
0.205 -0.097 0.072
0.204 -0.095 0.072
0.206 -0.093 0.072
0.206 -0.091 0.072
0.206 -0.089 0.072
0.207 -0.087 0.072
0.207 -0.085 0.072
0.205 -0.083 0.071
0.206 -0.081 0.071
0.209 -0.080 0.073
0.209 -0.078 0.072
0.208 -0.076 0.072
0.210 -0.074 0.072
0.212 -0.073 0.073
0.216 -0.072 0.074
0.225 -0.073 0.077
0.232 -0.073 0.080
0.239 -0.073 0.082
0.242 -0.071 0.083
0.243 -0.069 0.083
0.247 -0.068 0.084
0.249 -0.066 0.085
0.257 -0.066 0.088
0.258 -0.064 0.088
0.256 -0.060 0.087
0.255 -0.058 0.087
0.258 -0.056 0.088
0.258 -0.054 0.087
0.252 -0.050 0.086
0.252 -0.048 0.085
0.252 -0.045 0.085
0.252 -0.043 0.085
0.253 -0.041 0.086
0.252 -0.038 0.085
0.252 -0.036 0.085
0.250 -0.033 0.085
0.249 -0.031 0.084
0.251 -0.029 0.085
0.251 -0.027 0.085
0.248 -0.024 0.084
0.247 -0.022 0.083
0.247 -0.019 0.083
0.224 -0.015 0.076
0.220 -0.013 0.074
0.220 -0.011 0.074
0.219 -0.009 0.074
0.261 -0.006 0.088
0.266 -0.004 0.090
0.281 -0.001 0.095
0.274 0.001 0.092
0.261 0.004 0.088
0.245 0.006 0.083
0.237 0.008 0.080
0.236 0.010 0.080
0.245 0.012 0.083
0.253 0.015 0.085
0.252 0.017 0.085
0.249 0.020 0.084
0.246 0.022 0.083
0.247 0.024 0.083
0.251 0.027 0.085
0.256 0.030 0.087
