VERSION .7
FIELDS x y z
SIZE 4 4 4
TYPE F F F
COUNT 1 1 1
WIDTH     2586
HEIGHT 1
VIEWPOINT 0 0 0 1 0 0 0
POINTS     2586
DATA ascii
0.393 0.176 0.054
0.395 0.181 0.055
0.387 0.181 0.054
0.376 0.180 0.052
0.371 0.182 0.052
0.364 0.182 0.051
0.357 0.183 0.050
0.352 0.184 0.049
0.345 0.183 0.048
0.333 0.181 0.047
0.329 0.182 0.046
0.322 0.182 0.046
0.318 0.183 0.045
0.314 0.185 0.045
0.309 0.185 0.044
0.303 0.185 0.043
0.297 0.185 0.043
0.293 0.186 0.042
0.288 0.186 0.042
0.283 0.186 0.041
0.279 0.187 0.041
0.276 0.188 0.040
0.269 0.187 0.039
0.266 0.188 0.039
0.263 0.189 0.039
0.261 0.191 0.039
0.261 0.195 0.039
0.261 0.198 0.039
0.261 0.201 0.039
0.261 0.205 0.039
0.259 0.207 0.039
0.259 0.210 0.039
0.259 0.214 0.040
0.258 0.216 0.040
0.258 0.220 0.040
0.257 0.223 0.040
0.257 0.227 0.040
0.257 0.231 0.040
0.256 0.234 0.040
0.255 0.237 0.040
0.255 0.241 0.041
0.256 0.246 0.041
0.256 0.250 0.041
0.255 0.253 0.041
0.265 0.268 0.043
0.332 0.340 0.054
0.315 0.346 0.053
0.310 0.345 0.052
0.295 0.334 0.050
0.289 0.333 0.050
0.292 0.342 0.050
0.290 0.346 0.050
0.289 0.350 0.051
0.304 0.374 0.054
0.305 0.380 0.054
0.300 0.381 0.054
0.297 0.383 0.053
0.293 0.383 0.053
0.182 -0.252 0.035
0.180 -0.246 0.035
0.186 -0.252 0.036
0.190 -0.253 0.036
0.271 -0.356 0.051
0.277 -0.358 0.052
0.280 -0.358 0.052
0.278 -0.351 0.052
0.283 -0.352 0.052
0.283 -0.346 0.052
0.285 -0.344 0.052
0.283 -0.337 0.051
0.283 -0.331 0.051
0.286 -0.329 0.051
0.285 -0.324 0.051
0.285 -0.319 0.051
0.289 -0.318 0.051
0.291 -0.316 0.051
0.291 -0.311 0.051
0.288 -0.304 0.050
0.290 -0.301 0.050
0.290 -0.297 0.050
0.289 -0.291 0.049
0.290 -0.288 0.049
0.291 -0.283 0.049
0.289 -0.277 0.049
0.289 -0.273 0.048
0.291 -0.271 0.048
0.290 -0.266 0.048
0.292 -0.263 0.048
0.292 -0.259 0.048
0.289 -0.253 0.047
0.288 -0.248 0.047
0.290 -0.246 0.047
0.291 -0.242 0.047
0.286 -0.234 0.046
0.277 -0.223 0.044
0.211 -0.162 0.033
0.209 -0.158 0.033
0.209 -0.155 0.033
0.211 -0.154 0.033
0.210 -0.151 0.033
0.203 -0.144 0.032
0.204 -0.141 0.032
0.212 -0.145 0.033
0.218 -0.146 0.034
0.215 -0.141 0.033
0.207 -0.134 0.032
0.204 -0.130 0.031
0.207 -0.129 0.032
0.206 -0.127 0.031
0.208 -0.125 0.032
0.212 -0.125 0.032
0.214 -0.124 0.032
0.200 -0.114 0.030
0.210 -0.117 0.031
0.198 -0.108 0.030
0.205 -0.110 0.031
0.209 -0.110 0.031
0.210 -0.109 0.031
0.215 -0.109 0.032
0.213 -0.105 0.031
0.203 -0.099 0.030
0.202 -0.096 0.030
0.203 -0.094 0.030
0.213 -0.097 0.031
0.203 -0.090 0.030
0.205 -0.089 0.030
0.202 -0.086 0.029
0.213 -0.088 0.031
0.216 -0.087 0.031
0.215 -0.085 0.031
0.212 -0.081 0.031
0.201 -0.075 0.029
0.216 -0.079 0.031
0.225 -0.080 0.033
0.229 -0.079 0.033
0.227 -0.076 0.033
0.229 -0.075 0.033
0.239 -0.076 0.034
0.245 -0.075 0.035
0.258 -0.077 0.037
0.263 -0.076 0.038
0.264 -0.074 0.038
0.409 -0.110 0.058
0.416 -0.108 0.059
0.415 -0.104 0.059
0.410 -0.099 0.058
0.411 -0.096 0.059
0.416 -0.093 0.059
0.400 -0.085 0.057
0.383 -0.078 0.054
0.366 -0.071 0.052
0.352 -0.066 0.050
0.288 -0.048 0.041
0.287 -0.045 0.041
0.288 -0.043 0.041
0.284 -0.040 0.040
0.283 -0.037 0.040
0.288 -0.035 0.041
0.291 -0.033 0.041
0.289 -0.030 0.041
0.289 -0.027 0.041
0.289 -0.025 0.041
0.290 -0.022 0.041
0.289 -0.020 0.041
0.289 -0.017 0.041
0.290 -0.014 0.041
0.294 -0.012 0.041
0.296 -0.009 0.042
0.297 -0.007 0.042
0.300 -0.004 0.042
0.301 -0.001 0.042
0.295 0.001 0.042
0.290 0.004 0.041
0.294 0.007 0.041
0.305 0.010 0.043
0.309 0.012 0.044
0.307 0.015 0.043
0.306 0.018 0.043
0.301 0.020 0.042
0.292 0.022 0.041
0.291 0.025 0.041
0.299 0.028 0.042
0.298 0.031 0.042
0.297 0.034 0.042
0.301 0.037 0.043
0.309 0.040 0.044
0.307 0.043 0.043
0.306 0.046 0.043
0.311 0.049 0.044
0.311 0.052 0.044
0.318 0.056 0.045
0.313 0.058 0.045
0.308 0.060 0.044
0.308 0.063 0.044
0.316 0.068 0.045
0.319 0.071 0.045
0.322 0.075 0.046
0.321 0.078 0.046
0.307 0.077 0.044
0.309 0.081 0.044
0.316 0.086 0.045
0.311 0.087 0.045
0.296 0.086 0.043
0.306 0.091 0.044
0.313 0.097 0.045
0.323 0.103 0.047
0.309 0.101 0.045
0.301 0.102 0.044
0.298 0.104 0.043
0.307 0.110 0.045
0.321 0.118 0.047
0.324 0.122 0.047
0.324 0.125 0.047
0.316 0.126 0.046
0.319 0.130 0.047
0.323 0.135 0.047
0.395 0.177 0.058
0.393 0.180 0.058
0.389 0.182 0.058
0.377 0.181 0.056
0.370 0.181 0.055
0.365 0.183 0.054
0.358 0.183 0.054
0.351 0.183 0.053
0.345 0.184 0.052
0.334 0.182 0.050
0.328 0.182 0.049
0.322 0.182 0.049
0.318 0.183 0.048
0.313 0.184 0.048
0.309 0.185 0.047
0.303 0.185 0.046
0.299 0.186 0.046
0.291 0.185 0.045
0.287 0.186 0.044
0.284 0.187 0.044
0.280 0.188 0.044
0.274 0.187 0.043
0.270 0.187 0.042
0.265 0.187 0.042
0.262 0.189 0.041
0.262 0.192 0.042
0.262 0.195 0.042
0.262 0.199 0.042
0.262 0.202 0.042
0.260 0.204 0.042
0.259 0.207 0.042
0.258 0.210 0.042
0.259 0.214 0.042
0.259 0.218 0.042
0.258 0.221 0.043
0.257 0.224 0.043
0.257 0.227 0.043
0.257 0.231 0.043
0.256 0.234 0.043
0.255 0.237 0.043
0.255 0.241 0.043
0.255 0.245 0.044
0.255 0.249 0.044
0.255 0.253 0.044
0.264 0.267 0.046
0.270 0.277 0.047
0.294 0.312 0.052
0.293 0.316 0.052
0.295 0.323 0.053
0.290 0.324 0.053
0.285 0.323 0.052
0.279 0.322 0.051
0.291 0.342 0.054
0.290 0.345 0.054
0.289 0.350 0.054
0.306 0.377 0.058
0.302 0.378 0.057
0.299 0.380 0.057
0.296 0.382 0.057
0.295 0.386 0.057
0.176 -0.243 0.036
0.180 -0.246 0.037
0.187 -0.253 0.038
0.278 -0.360 0.056
0.281 -0.359 0.056
0.284 -0.358 0.056
0.286 -0.355 0.056
0.287 -0.351 0.056
0.287 -0.346 0.056
0.287 -0.342 0.056
0.289 -0.339 0.056
0.292 -0.337 0.056
0.292 -0.332 0.055
0.290 -0.325 0.055
0.292 -0.322 0.055
0.293 -0.319 0.055
0.291 -0.312 0.054
0.291 -0.307 0.054
0.291 -0.303 0.054
0.292 -0.298 0.053
0.291 -0.293 0.053
0.290 -0.287 0.052
0.290 -0.283 0.052
0.289 -0.278 0.052
0.288 -0.272 0.051
0.288 -0.268 0.051
0.288 -0.264 0.051
0.289 -0.261 0.051
0.289 -0.257 0.051
0.285 -0.250 0.050
0.286 -0.246 0.050
0.286 -0.242 0.049
0.285 -0.238 0.049
0.282 -0.231 0.048
0.278 -0.225 0.047
0.268 -0.213 0.046
0.210 -0.162 0.035
0.207 -0.157 0.035
0.205 -0.153 0.034
0.204 -0.149 0.034
0.206 -0.148 0.034
0.205 -0.145 0.034
0.204 -0.142 0.034
0.213 -0.146 0.035
0.218 -0.146 0.036
0.214 -0.141 0.035
0.207 -0.134 0.034
0.205 -0.130 0.033
0.208 -0.130 0.034
0.213 -0.131 0.034
0.206 -0.124 0.033
0.212 -0.125 0.034
0.212 -0.123 0.034
0.209 -0.119 0.034
0.207 -0.116 0.033
0.207 -0.113 0.033
0.199 -0.107 0.032
0.206 -0.109 0.033
0.214 -0.110 0.034
0.211 -0.107 0.033
0.214 -0.106 0.034
0.215 -0.105 0.034
0.215 -0.102 0.034
0.206 -0.096 0.032
0.208 -0.095 0.033
0.213 -0.095 0.033
0.203 -0.088 0.032
0.220 -0.093 0.034
0.213 -0.088 0.033
0.215 -0.087 0.033
0.217 -0.085 0.033
0.215 -0.083 0.033
0.212 -0.080 0.033
0.215 -0.078 0.033
0.225 -0.080 0.035
0.226 -0.078 0.035
0.229 -0.077 0.035
0.234 -0.076 0.036
0.240 -0.076 0.037
0.251 -0.077 0.038
0.260 -0.078 0.040
0.258 -0.074 0.039
0.272 -0.076 0.041
0.411 -0.111 0.062
0.406 -0.106 0.062
0.405 -0.102 0.061
0.405 -0.098 0.061
0.413 -0.096 0.062
0.418 -0.093 0.063
0.406 -0.087 0.061
0.381 -0.078 0.058
0.365 -0.071 0.055
0.356 -0.066 0.054
0.283 -0.048 0.043
0.287 -0.046 0.043
0.286 -0.043 0.043
0.286 -0.040 0.043
0.286 -0.038 0.043
0.291 -0.036 0.044
0.292 -0.033 0.044
0.292 -0.030 0.044
0.290 -0.028 0.044
0.289 -0.025 0.043
0.288 -0.022 0.043
0.290 -0.020 0.044
0.290 -0.017 0.044
0.288 -0.014 0.043
0.287 -0.012 0.043
0.293 -0.009 0.044
0.295 -0.007 0.044
0.299 -0.004 0.045
0.297 -0.001 0.045
0.294 0.001 0.044
0.292 0.004 0.044
0.294 0.007 0.044
0.298 0.009 0.045
0.310 0.013 0.047
0.306 0.015 0.046
0.303 0.018 0.046
0.292 0.020 0.044
0.286 0.022 0.043
0.286 0.025 0.043
0.301 0.029 0.045
0.308 0.032 0.046
0.290 0.033 0.044
0.295 0.036 0.044
0.303 0.040 0.046
0.303 0.042 0.046
0.300 0.045 0.045
0.304 0.048 0.046
0.313 0.053 0.047
0.314 0.056 0.048
0.318 0.059 0.048
0.308 0.060 0.047
0.300 0.061 0.045
0.312 0.067 0.047
0.318 0.071 0.048
0.321 0.075 0.049
0.319 0.077 0.048
0.309 0.078 0.047
0.305 0.080 0.047
0.309 0.084 0.047
0.297 0.083 0.045
0.298 0.086 0.046
0.301 0.090 0.046
0.308 0.095 0.047
0.303 0.097 0.047
0.310 0.102 0.048
0.302 0.102 0.046
0.302 0.105 0.047
0.310 0.111 0.048
0.318 0.117 0.049
0.324 0.122 0.050
0.324 0.126 0.050
0.326 0.129 0.051
0.320 0.131 0.050
0.329 0.138 0.051
0.344 0.147 0.054
0.392 0.176 0.062
0.395 0.181 0.062
0.386 0.181 0.061
0.376 0.180 0.059
0.371 0.182 0.059
0.365 0.183 0.058
0.358 0.183 0.057
0.350 0.183 0.056
0.344 0.183 0.055
0.337 0.183 0.054
0.327 0.182 0.053
0.323 0.183 0.052
0.319 0.184 0.052
0.313 0.185 0.051
0.306 0.184 0.050
0.303 0.185 0.049
0.299 0.186 0.049
0.293 0.186 0.048
0.288 0.186 0.047
0.284 0.187 0.047
0.278 0.186 0.046
0.271 0.185 0.045
0.268 0.186 0.045
0.264 0.187 0.044
0.262 0.189 0.044
0.262 0.192 0.044
0.262 0.196 0.044
0.262 0.199 0.045
0.261 0.202 0.045
0.260 0.204 0.045
0.258 0.206 0.044
0.258 0.210 0.045
0.258 0.213 0.045
0.258 0.217 0.045
0.258 0.221 0.045
0.258 0.224 0.045
0.257 0.228 0.046
0.257 0.231 0.046
0.256 0.234 0.046
0.256 0.238 0.046
0.255 0.241 0.046
0.255 0.245 0.046
0.254 0.248 0.047
0.254 0.252 0.047
0.260 0.263 0.048
0.271 0.279 0.051
0.281 0.294 0.053
0.284 0.302 0.054
0.285 0.308 0.054
0.283 0.311 0.054
0.283 0.316 0.054
0.279 0.317 0.054
0.285 0.329 0.056
0.291 0.341 0.057
0.290 0.345 0.057
0.298 0.361 0.059
0.303 0.374 0.061
0.301 0.377 0.061
0.294 0.374 0.060
0.296 0.382 0.060
0.294 0.385 0.060
0.132 -0.183 0.029
0.174 -0.239 0.038
0.186 -0.252 0.040
0.278 -0.361 0.059
0.280 -0.358 0.059
0.283 -0.357 0.059
0.284 -0.354 0.059
0.286 -0.350 0.059
0.287 -0.347 0.059
0.289 -0.344 0.059
0.291 -0.341 0.059
0.292 -0.338 0.059
0.293 -0.334 0.059
0.293 -0.328 0.059
0.293 -0.323 0.058
0.293 -0.319 0.058
0.292 -0.313 0.057
0.292 -0.308 0.057
0.291 -0.303 0.057
0.292 -0.298 0.057
0.292 -0.294 0.056
0.292 -0.289 0.056
0.291 -0.284 0.056
0.291 -0.280 0.055
0.289 -0.274 0.055
0.287 -0.268 0.054
0.288 -0.264 0.054
0.288 -0.260 0.054
0.288 -0.256 0.053
0.288 -0.252 0.053
0.284 -0.245 0.052
0.285 -0.241 0.052
0.284 -0.237 0.052
0.282 -0.231 0.051
0.280 -0.226 0.051
0.272 -0.216 0.049
0.209 -0.161 0.037
0.202 -0.153 0.036
0.202 -0.150 0.036
0.204 -0.149 0.036
0.204 -0.147 0.036
0.206 -0.146 0.036
0.208 -0.145 0.036
0.213 -0.145 0.037
0.215 -0.144 0.037
0.211 -0.139 0.037
0.208 -0.135 0.036
0.209 -0.133 0.036
0.209 -0.131 0.036
0.206 -0.127 0.035
0.210 -0.127 0.036
0.205 -0.121 0.035
0.208 -0.121 0.035
0.207 -0.118 0.035
0.208 -0.116 0.035
0.209 -0.115 0.035
0.203 -0.109 0.034
0.209 -0.110 0.035
0.209 -0.108 0.035
0.217 -0.110 0.036
0.218 -0.108 0.036
0.210 -0.102 0.035
0.203 -0.096 0.034
0.205 -0.095 0.034
0.208 -0.094 0.034
0.212 -0.094 0.035
0.200 -0.087 0.033
0.217 -0.092 0.036
0.206 -0.085 0.034
0.215 -0.087 0.035
0.214 -0.085 0.035
0.210 -0.081 0.034
0.215 -0.081 0.035
0.212 -0.078 0.035
0.221 -0.079 0.036
0.230 -0.080 0.037
0.229 -0.077 0.037
0.232 -0.076 0.038
0.237 -0.075 0.038
0.243 -0.075 0.039
0.248 -0.074 0.040
0.262 -0.076 0.042
0.268 -0.075 0.043
0.384 -0.104 0.062
0.394 -0.103 0.064
0.401 -0.101 0.065
0.406 -0.098 0.065
0.408 -0.095 0.066
0.409 -0.091 0.066
0.372 -0.076 0.060
0.366 -0.071 0.059
0.354 -0.066 0.057
0.287 -0.048 0.046
0.283 -0.045 0.045
0.281 -0.042 0.045
0.283 -0.040 0.045
0.287 -0.038 0.046
0.289 -0.035 0.046
0.289 -0.033 0.046
0.289 -0.030 0.046
0.292 -0.028 0.047
0.291 -0.025 0.046
0.290 -0.022 0.046
0.292 -0.020 0.046
0.295 -0.017 0.047
0.289 -0.014 0.046
0.287 -0.012 0.046
0.289 -0.009 0.046
0.292 -0.007 0.046
0.293 -0.004 0.047
0.296 -0.001 0.047
0.296 0.001 0.047
0.295 0.004 0.047
0.295 0.007 0.047
0.295 0.009 0.047
0.296 0.012 0.047
0.300 0.015 0.048
0.298 0.017 0.047
0.298 0.020 0.047
0.294 0.023 0.047
0.291 0.025 0.046
0.298 0.028 0.048
0.306 0.032 0.049
0.298 0.034 0.048
0.301 0.037 0.048
0.298 0.039 0.048
0.308 0.043 0.049
0.302 0.045 0.048
0.301 0.048 0.048
0.300 0.050 0.048
0.308 0.055 0.049
0.307 0.057 0.049
0.303 0.059 0.049
0.298 0.061 0.048
0.296 0.064 0.048
0.312 0.070 0.050
0.314 0.073 0.051
0.313 0.076 0.050
0.306 0.077 0.049
0.301 0.079 0.049
0.298 0.081 0.048
0.304 0.085 0.049
0.295 0.086 0.048
0.292 0.087 0.047
0.288 0.089 0.047
0.298 0.095 0.049
0.292 0.096 0.048
0.299 0.101 0.049
0.303 0.105 0.050
0.309 0.111 0.051
0.313 0.115 0.051
0.316 0.119 0.052
0.320 0.124 0.053
0.320 0.127 0.053
0.331 0.135 0.055
0.341 0.142 0.056
0.358 0.153 0.059
0.369 0.162 0.061
0.387 0.174 0.065
0.383 0.176 0.064
0.385 0.181 0.064
0.377 0.181 0.063
0.368 0.180 0.062
0.363 0.182 0.061
0.355 0.182 0.060
0.347 0.181 0.059
0.342 0.182 0.058
0.332 0.181 0.057
0.326 0.181 0.056
0.322 0.182 0.055
0.318 0.184 0.055
0.314 0.185 0.054
0.306 0.184 0.053
0.301 0.184 0.052
0.296 0.185 0.051
0.292 0.186 0.051
0.288 0.187 0.050
0.281 0.186 0.049
0.278 0.186 0.049
0.270 0.184 0.048
0.267 0.186 0.047
0.264 0.187 0.047
0.263 0.189 0.047
0.261 0.192 0.047
0.261 0.195 0.047
0.260 0.197 0.047
0.260 0.201 0.047
0.260 0.204 0.047
0.259 0.207 0.047
0.258 0.210 0.047
0.258 0.214 0.048
0.258 0.217 0.048
0.258 0.221 0.048
0.258 0.225 0.048
0.257 0.228 0.048
0.257 0.231 0.048
0.256 0.235 0.049
0.256 0.238 0.049
0.258 0.244 0.049
0.255 0.245 0.049
0.254 0.249 0.049
0.253 0.252 0.049
0.260 0.263 0.051
0.276 0.284 0.055
0.282 0.295 0.056
0.281 0.299 0.056
0.278 0.300 0.056
0.277 0.304 0.056
0.276 0.309 0.056
0.280 0.318 0.057
0.282 0.326 0.058
0.288 0.338 0.060
0.290 0.346 0.061
0.299 0.363 0.063
0.302 0.372 0.064
0.296 0.371 0.063
0.294 0.374 0.063
0.298 0.386 0.065
0.300 0.393 0.065
0.127 -0.177 0.029
0.121 -0.166 0.028
0.123 -0.166 0.028
0.278 -0.351 0.062
0.279 -0.348 0.062
0.282 -0.346 0.062
0.287 -0.347 0.063
0.289 -0.344 0.063
0.289 -0.339 0.062
0.291 -0.337 0.062
0.293 -0.334 0.062
0.293 -0.329 0.062
0.293 -0.324 0.062
0.292 -0.318 0.061
0.292 -0.314 0.061
0.292 -0.309 0.061
0.292 -0.303 0.060
0.292 -0.299 0.060
0.292 -0.294 0.060
0.292 -0.290 0.059
0.293 -0.286 0.059
0.291 -0.281 0.059
0.290 -0.275 0.058
0.288 -0.269 0.057
0.288 -0.265 0.057
0.288 -0.261 0.057
0.289 -0.257 0.057
0.285 -0.250 0.056
0.285 -0.246 0.055
0.285 -0.241 0.055
0.284 -0.237 0.055
0.282 -0.232 0.054
0.280 -0.226 0.054
0.268 -0.213 0.051
0.204 -0.157 0.039
0.202 -0.153 0.038
0.201 -0.149 0.038
0.204 -0.150 0.038
0.205 -0.147 0.038
0.206 -0.146 0.038
0.210 -0.146 0.039
0.213 -0.145 0.039
0.213 -0.143 0.039
0.208 -0.138 0.038
0.216 -0.140 0.039
0.212 -0.135 0.039
0.208 -0.130 0.038
0.204 -0.125 0.037
0.202 -0.122 0.037
0.204 -0.121 0.037
0.206 -0.120 0.037
0.208 -0.119 0.037
0.209 -0.117 0.037
0.201 -0.110 0.036
0.204 -0.110 0.036
0.202 -0.107 0.036
0.215 -0.111 0.038
0.218 -0.110 0.039
0.218 -0.108 0.039
0.214 -0.104 0.038
0.209 -0.099 0.037
0.203 -0.094 0.036
0.204 -0.093 0.036
0.203 -0.090 0.036
0.213 -0.092 0.037
0.216 -0.089 0.038
0.204 -0.082 0.035
0.213 -0.084 0.037
0.212 -0.082 0.037
0.206 -0.077 0.036
0.203 -0.074 0.035
0.224 -0.080 0.039
0.227 -0.079 0.039
0.229 -0.077 0.039
0.231 -0.075 0.040
0.235 -0.075 0.040
0.242 -0.074 0.041
0.253 -0.075 0.043
0.258 -0.075 0.044
0.265 -0.074 0.045
0.391 -0.102 0.067
0.400 -0.100 0.068
0.406 -0.098 0.069
0.405 -0.094 0.069
0.398 -0.089 0.068
0.390 -0.083 0.066
0.372 -0.076 0.063
0.360 -0.070 0.061
0.358 -0.067 0.061
0.290 -0.049 0.049
0.279 -0.044 0.047
0.280 -0.042 0.047
0.281 -0.039 0.047
0.286 -0.038 0.048
0.286 -0.035 0.048
0.286 -0.032 0.048
0.286 -0.030 0.048
0.287 -0.027 0.048
0.294 -0.025 0.050
0.291 -0.022 0.049
0.293 -0.020 0.049
0.295 -0.017 0.050
0.295 -0.015 0.050
0.290 -0.012 0.049
0.289 -0.009 0.049
0.287 -0.007 0.048
0.292 -0.004 0.049
0.296 -0.001 0.050
0.299 0.001 0.050
0.297 0.004 0.050
0.295 0.007 0.050
0.294 0.009 0.049
0.295 0.012 0.050
0.299 0.015 0.050
0.300 0.018 0.051
0.302 0.020 0.051
0.301 0.023 0.051
0.296 0.025 0.050
0.298 0.028 0.050
0.300 0.031 0.051
0.302 0.034 0.051
0.300 0.037 0.051
0.307 0.040 0.052
0.304 0.043 0.051
0.299 0.045 0.051
0.298 0.047 0.050
0.302 0.051 0.051
0.305 0.054 0.052
0.301 0.056 0.051
0.288 0.056 0.049
0.298 0.061 0.051
0.301 0.065 0.051
0.304 0.068 0.052
0.313 0.073 0.053
0.313 0.076 0.053
0.309 0.078 0.053
0.303 0.079 0.052
0.300 0.081 0.051
0.303 0.085 0.052
0.301 0.087 0.052
0.294 0.088 0.050
0.298 0.092 0.051
0.292 0.093 0.050
0.288 0.095 0.050
0.286 0.097 0.049
0.296 0.103 0.051
0.299 0.107 0.052
0.307 0.113 0.053
0.309 0.117 0.054
0.306 0.119 0.053
0.314 0.125 0.055
0.325 0.133 0.057
0.349 0.146 0.061
0.357 0.153 0.063
0.368 0.162 0.065
0.371 0.167 0.065
0.374 0.172 0.066
0.372 0.175 0.066
0.367 0.176 0.065
0.364 0.179 0.065
0.360 0.181 0.064
0.351 0.180 0.063
0.346 0.181 0.062
0.341 0.182 0.061
0.333 0.182 0.060
0.325 0.181 0.059
0.321 0.182 0.058
0.317 0.183 0.057
0.312 0.184 0.057
0.304 0.183 0.055
0.298 0.183 0.055
0.295 0.184 0.054
0.291 0.185 0.054
0.285 0.185 0.053
0.281 0.186 0.052
0.276 0.186 0.051
0.270 0.185 0.050
0.267 0.186 0.050
0.265 0.188 0.050
0.263 0.190 0.050
0.262 0.192 0.050
0.260 0.194 0.049
0.260 0.198 0.050
0.260 0.201 0.050
0.260 0.204 0.050
0.260 0.208 0.050
0.259 0.211 0.050
0.258 0.214 0.050
0.259 0.218 0.051
0.258 0.221 0.051
0.257 0.224 0.051
0.258 0.228 0.051
0.257 0.232 0.051
0.256 0.235 0.051
0.255 0.238 0.052
0.256 0.243 0.052
0.255 0.246 0.052
0.254 0.249 0.052
0.253 0.252 0.052
0.258 0.261 0.054
0.278 0.287 0.058
0.281 0.294 0.059
0.275 0.293 0.058
0.267 0.289 0.057
0.264 0.290 0.057
0.265 0.297 0.057
0.270 0.308 0.059
0.278 0.322 0.061
0.283 0.333 0.062
0.286 0.342 0.063
0.297 0.361 0.066
0.297 0.367 0.067
0.295 0.370 0.067
0.290 0.370 0.066
0.289 0.374 0.066
0.286 0.376 0.066
0.108 -0.150 0.026
0.112 -0.153 0.027
0.119 -0.162 0.029
0.289 -0.345 0.066
0.287 -0.338 0.065
0.289 -0.334 0.065
0.291 -0.332 0.065
0.292 -0.328 0.065
0.291 -0.322 0.065
0.292 -0.318 0.064
0.292 -0.314 0.064
0.292 -0.309 0.064
0.292 -0.304 0.063
0.292 -0.300 0.063
0.291 -0.294 0.063
0.292 -0.291 0.063
0.293 -0.286 0.062
0.290 -0.279 0.061
0.289 -0.274 0.061
0.289 -0.270 0.061
0.289 -0.266 0.060
0.289 -0.262 0.060
0.288 -0.256 0.060
0.288 -0.252 0.059
0.286 -0.247 0.059
0.285 -0.242 0.058
0.284 -0.237 0.058
0.280 -0.231 0.057
0.280 -0.227 0.057
0.205 -0.158 0.041
0.201 -0.152 0.040
0.207 -0.154 0.041
0.204 -0.149 0.040
0.206 -0.148 0.041
0.209 -0.148 0.041
0.210 -0.146 0.041
0.209 -0.143 0.041
0.211 -0.142 0.041
0.213 -0.141 0.041
0.217 -0.141 0.042
0.220 -0.140 0.042
0.212 -0.133 0.041
0.206 -0.127 0.039
0.201 -0.122 0.038
0.203 -0.120 0.039
0.207 -0.120 0.039
0.209 -0.119 0.040
0.209 -0.117 0.039
0.209 -0.115 0.039
0.203 -0.109 0.038
0.214 -0.113 0.040
0.207 -0.107 0.039
0.214 -0.108 0.040
0.215 -0.107 0.040
0.215 -0.105 0.040
0.212 -0.101 0.039
0.203 -0.095 0.038
0.211 -0.096 0.039
0.209 -0.093 0.039
0.211 -0.092 0.039
0.215 -0.091 0.040
0.211 -0.088 0.039
0.213 -0.086 0.039
0.212 -0.084 0.039
0.212 -0.082 0.039
0.217 -0.081 0.040
0.221 -0.081 0.040
0.225 -0.080 0.041
0.227 -0.079 0.041
0.230 -0.077 0.042
0.233 -0.076 0.042
0.244 -0.077 0.044
0.247 -0.076 0.045
0.251 -0.075 0.045
0.257 -0.074 0.046
0.260 -0.073 0.047
0.380 -0.103 0.068
0.393 -0.102 0.071
0.395 -0.099 0.071
0.392 -0.095 0.070
0.392 -0.091 0.070
0.391 -0.087 0.070
0.385 -0.083 0.069
0.374 -0.077 0.067
0.361 -0.071 0.064
0.290 -0.049 0.052
0.288 -0.046 0.051
0.281 -0.042 0.050
0.285 -0.040 0.051
0.288 -0.038 0.051
0.287 -0.035 0.051
0.283 -0.032 0.050
0.283 -0.029 0.050
0.286 -0.027 0.051
0.289 -0.025 0.051
0.290 -0.022 0.052
0.290 -0.020 0.051
0.294 -0.017 0.052
0.294 -0.015 0.052
0.291 -0.012 0.052
0.285 -0.009 0.051
0.286 -0.007 0.051
0.289 -0.004 0.051
0.295 -0.001 0.052
0.296 0.001 0.053
0.295 0.004 0.052
0.292 0.007 0.052
0.295 0.009 0.052
0.295 0.012 0.052
0.300 0.015 0.053
0.297 0.017 0.053
0.304 0.021 0.054
0.304 0.023 0.054
0.297 0.026 0.053
0.294 0.028 0.052
0.299 0.031 0.053
0.299 0.034 0.053
0.297 0.036 0.053
0.302 0.040 0.054
0.299 0.042 0.053
0.299 0.045 0.053
0.298 0.047 0.053
0.302 0.051 0.054
0.302 0.054 0.054
0.301 0.056 0.054
0.291 0.057 0.052
0.287 0.059 0.051
0.294 0.063 0.053
0.296 0.066 0.053
0.303 0.071 0.054
0.307 0.074 0.055
0.305 0.077 0.055
0.301 0.079 0.054
0.298 0.081 0.054
0.301 0.085 0.054
0.301 0.087 0.054
0.299 0.090 0.054
0.301 0.093 0.055
0.305 0.097 0.055
0.290 0.095 0.053
0.277 0.094 0.050
0.287 0.103 0.053
0.291 0.107 0.053
0.295 0.112 0.054
0.296 0.115 0.054
0.295 0.117 0.054
0.330 0.135 0.061
0.335 0.140 0.062
0.330 0.142 0.061
0.335 0.147 0.062
0.371 0.167 0.069
0.366 0.168 0.068
0.363 0.170 0.068
0.360 0.173 0.067
0.359 0.177 0.067
0.357 0.179 0.067
0.353 0.181 0.066
0.347 0.181 0.065
0.341 0.182 0.065
0.331 0.180 0.063
0.325 0.181 0.062
0.320 0.182 0.061
0.315 0.182 0.060
0.309 0.183 0.059
0.304 0.183 0.059
0.297 0.182 0.057
0.294 0.184 0.057
0.290 0.185 0.056
0.287 0.186 0.056
0.282 0.187 0.055
0.277 0.186 0.054
0.270 0.185 0.053
0.267 0.186 0.053
0.265 0.188 0.052
0.263 0.190 0.052
0.261 0.192 0.052
0.260 0.195 0.052
0.260 0.198 0.052
0.260 0.202 0.053
0.260 0.205 0.053
0.260 0.209 0.053
0.260 0.212 0.053
0.259 0.215 0.053
0.259 0.219 0.053
0.258 0.221 0.054
0.258 0.225 0.054
0.258 0.229 0.054
0.257 0.232 0.054
0.256 0.235 0.054
0.255 0.238 0.054
0.256 0.243 0.055
0.255 0.246 0.055
0.253 0.248 0.055
0.252 0.251 0.055
0.259 0.263 0.057
0.274 0.283 0.060
0.274 0.287 0.061
0.254 0.271 0.057
0.255 0.277 0.057
0.255 0.281 0.058
0.254 0.285 0.058
0.258 0.294 0.059
0.279 0.328 0.065
0.281 0.336 0.066
0.282 0.343 0.066
0.291 0.360 0.069
0.289 0.363 0.069
0.288 0.367 0.069
0.281 0.365 0.068
0.279 0.368 0.068
0.106 -0.147 0.027
0.107 -0.147 0.027
0.106 -0.143 0.027
0.107 -0.143 0.027
0.108 -0.142 0.027
0.109 -0.142 0.027
0.115 -0.148 0.028
0.287 -0.333 0.068
0.289 -0.330 0.068
0.289 -0.325 0.068
0.290 -0.321 0.068
0.292 -0.318 0.068
0.292 -0.314 0.067
0.291 -0.308 0.067
0.291 -0.303 0.066
0.291 -0.299 0.066
0.291 -0.294 0.066
0.290 -0.289 0.065
0.291 -0.285 0.065
0.292 -0.281 0.065
0.289 -0.275 0.064
0.290 -0.271 0.064
0.290 -0.267 0.064
0.288 -0.261 0.063
0.288 -0.256 0.063
0.287 -0.252 0.062
0.286 -0.247 0.062
0.285 -0.242 0.061
0.284 -0.238 0.061
0.284 -0.234 0.061
0.280 -0.227 0.059
0.209 -0.162 0.044
0.198 -0.150 0.041
0.202 -0.150 0.042
0.203 -0.149 0.042
0.205 -0.148 0.042
0.208 -0.147 0.043
0.207 -0.144 0.042
0.203 -0.139 0.042
0.206 -0.139 0.042
0.212 -0.140 0.043
0.215 -0.140 0.044
0.217 -0.138 0.044
0.219 -0.138 0.044
0.212 -0.130 0.043
0.205 -0.124 0.041
0.202 -0.120 0.040
0.208 -0.121 0.041
0.206 -0.118 0.041
0.206 -0.116 0.041
0.208 -0.115 0.041
0.204 -0.110 0.040
0.205 -0.108 0.040
0.206 -0.107 0.040
0.208 -0.106 0.041
0.211 -0.105 0.041
0.213 -0.103 0.042
0.208 -0.099 0.041
0.200 -0.093 0.039
0.204 -0.093 0.040
0.208 -0.093 0.040
0.200 -0.087 0.039
0.211 -0.090 0.041
0.197 -0.082 0.038
0.209 -0.085 0.040
0.209 -0.083 0.040
0.211 -0.081 0.040
0.224 -0.084 0.043
0.228 -0.083 0.044
0.226 -0.080 0.043
0.229 -0.079 0.044
0.229 -0.077 0.044
0.234 -0.077 0.045
0.240 -0.076 0.046
0.247 -0.076 0.047
0.249 -0.074 0.047
0.253 -0.073 0.048
0.262 -0.073 0.050
0.370 -0.100 0.070
0.383 -0.100 0.072
0.378 -0.095 0.071
0.379 -0.092 0.072
0.381 -0.089 0.072
0.379 -0.085 0.071
0.373 -0.080 0.070
0.371 -0.076 0.070
0.363 -0.071 0.068
0.308 -0.055 0.058
0.292 -0.049 0.055
0.289 -0.046 0.054
0.282 -0.042 0.053
0.285 -0.040 0.053
0.291 -0.038 0.054
0.290 -0.035 0.054
0.285 -0.032 0.053
0.285 -0.030 0.053
0.287 -0.027 0.054
0.287 -0.025 0.054
0.286 -0.022 0.053
0.290 -0.020 0.054
0.293 -0.017 0.055
0.292 -0.015 0.054
0.290 -0.012 0.054
0.286 -0.009 0.053
0.284 -0.006 0.053
0.287 -0.004 0.054
0.295 -0.001 0.055
0.297 0.001 0.055
0.294 0.004 0.055
0.295 0.007 0.055
0.295 0.009 0.055
0.294 0.012 0.055
0.290 0.014 0.054
0.293 0.017 0.055
0.297 0.020 0.056
0.300 0.023 0.056
0.292 0.025 0.055
0.290 0.028 0.054
0.297 0.031 0.056
0.302 0.034 0.056
0.296 0.036 0.055
0.299 0.039 0.056
0.303 0.043 0.057
0.296 0.044 0.056
0.301 0.048 0.056
0.299 0.050 0.056
0.299 0.053 0.056
0.302 0.056 0.057
0.295 0.058 0.056
0.283 0.058 0.053
0.280 0.060 0.053
0.293 0.066 0.055
0.301 0.070 0.057
0.313 0.076 0.059
0.311 0.079 0.059
0.304 0.080 0.058
0.300 0.081 0.057
0.303 0.085 0.058
0.299 0.087 0.057
0.294 0.088 0.056
0.297 0.092 0.057
0.306 0.098 0.058
0.295 0.097 0.056
0.285 0.097 0.055
0.288 0.101 0.055
0.271 0.097 0.052
0.275 0.102 0.053
0.282 0.107 0.054
0.287 0.111 0.055
0.302 0.120 0.058
0.324 0.133 0.063
0.339 0.142 0.066
0.335 0.144 0.065
0.321 0.141 0.063
0.335 0.151 0.066
0.359 0.165 0.070
0.355 0.167 0.070
0.353 0.170 0.070
0.352 0.173 0.069
0.346 0.174 0.068
0.348 0.179 0.069
0.344 0.180 0.068
0.338 0.181 0.067
0.329 0.180 0.066
0.324 0.181 0.065
0.319 0.182 0.064
0.314 0.182 0.063
0.309 0.183 0.062
0.305 0.184 0.062
0.301 0.185 0.061
0.291 0.182 0.059
0.290 0.185 0.059
0.287 0.186 0.059
0.282 0.186 0.058
0.278 0.187 0.057
0.272 0.186 0.056
0.267 0.186 0.055
0.264 0.187 0.055
0.262 0.190 0.055
0.261 0.192 0.055
0.259 0.194 0.055
0.259 0.197 0.055
0.261 0.203 0.056
0.261 0.206 0.056
0.260 0.209 0.056
0.259 0.212 0.056
0.259 0.215 0.056
0.259 0.219 0.056
0.258 0.222 0.056
0.257 0.225 0.056
0.257 0.229 0.057
0.256 0.232 0.057
0.255 0.234 0.057
0.256 0.240 0.057
0.256 0.243 0.058
0.254 0.246 0.058
0.252 0.248 0.057
0.250 0.250 0.057
0.260 0.264 0.060
0.263 0.272 0.061
0.261 0.274 0.061
0.254 0.271 0.060
0.254 0.276 0.060
0.258 0.285 0.061
0.253 0.284 0.061
0.253 0.288 0.061
0.276 0.326 0.067
0.277 0.332 0.068
0.277 0.337 0.068
0.235 0.310 0.060
0.105 -0.145 0.028
0.107 -0.147 0.028
0.107 -0.145 0.028
0.106 -0.142 0.028
0.108 -0.142 0.028
0.106 -0.138 0.028
0.106 -0.136 0.027
0.105 -0.133 0.027
0.114 -0.143 0.029
0.117 -0.144 0.030
0.124 -0.150 0.031
0.287 -0.323 0.071
0.289 -0.321 0.071
0.291 -0.318 0.071
0.292 -0.314 0.071
0.290 -0.307 0.070
0.291 -0.303 0.070
0.291 -0.299 0.069
0.290 -0.294 0.069
0.290 -0.289 0.068
0.290 -0.285 0.068
0.290 -0.281 0.068
0.291 -0.277 0.068
0.291 -0.272 0.067
0.290 -0.268 0.067
0.291 -0.264 0.067
0.288 -0.257 0.066
0.287 -0.252 0.065
0.286 -0.248 0.065
0.286 -0.243 0.064
0.286 -0.239 0.064
0.284 -0.234 0.063
0.281 -0.228 0.063
0.271 -0.216 0.060
0.261 -0.205 0.058
0.201 -0.153 0.044
0.198 -0.148 0.043
0.199 -0.146 0.043
0.198 -0.143 0.043
0.203 -0.144 0.044
0.201 -0.141 0.043
0.198 -0.136 0.043
0.202 -0.136 0.043
0.207 -0.137 0.044
0.211 -0.138 0.045
0.215 -0.138 0.046
0.219 -0.138 0.046
0.219 -0.135 0.046
0.208 -0.126 0.044
0.210 -0.125 0.044
0.206 -0.120 0.043
0.206 -0.118 0.043
0.205 -0.115 0.043
0.205 -0.113 0.043
0.210 -0.114 0.044
0.204 -0.108 0.042
0.205 -0.106 0.042
0.206 -0.105 0.043
0.211 -0.105 0.043
0.211 -0.103 0.043
0.208 -0.099 0.043
0.205 -0.095 0.042
0.200 -0.091 0.041
0.210 -0.094 0.043
0.211 -0.092 0.043
0.197 -0.084 0.040
0.212 -0.088 0.043
0.196 -0.080 0.040
0.211 -0.083 0.043
0.209 -0.081 0.042
0.206 -0.078 0.042
0.228 -0.081 0.046
0.226 -0.078 0.045
0.228 -0.077 0.046
0.228 -0.075 0.046
0.237 -0.076 0.047
0.243 -0.075 0.048
0.245 -0.073 0.049
0.253 -0.073 0.050
0.260 -0.073 0.052
0.365 -0.095 0.072
0.372 -0.094 0.074
0.373 -0.090 0.074
0.373 -0.087 0.074
0.367 -0.082 0.072
0.363 -0.078 0.072
0.365 -0.075 0.072
0.358 -0.070 0.071
0.291 -0.049 0.057
0.283 -0.045 0.056
0.280 -0.042 0.055
0.282 -0.040 0.055
0.289 -0.038 0.057
0.289 -0.035 0.057
0.284 -0.032 0.056
0.284 -0.030 0.056
0.286 -0.027 0.056
0.284 -0.024 0.056
0.285 -0.022 0.056
0.291 -0.020 0.057
0.294 -0.017 0.058
0.291 -0.015 0.057
0.289 -0.012 0.057
0.289 -0.009 0.057
0.286 -0.007 0.056
0.290 -0.004 0.057
0.306 -0.001 0.060
0.300 0.001 0.059
0.294 0.004 0.058
0.293 0.007 0.057
0.299 0.009 0.059
0.290 0.012 0.057
0.287 0.014 0.056
0.288 0.017 0.056
0.293 0.020 0.057
0.295 0.023 0.058
0.294 0.025 0.058
0.290 0.028 0.057
0.295 0.031 0.058
0.298 0.034 0.059
0.301 0.037 0.059
0.305 0.040 0.060
0.306 0.043 0.060
0.297 0.045 0.058
0.297 0.047 0.058
0.301 0.051 0.059
0.294 0.052 0.058
0.292 0.055 0.058
0.290 0.057 0.057
0.283 0.058 0.056
0.293 0.063 0.058
0.292 0.066 0.058
0.305 0.071 0.061
0.318 0.077 0.063
0.306 0.077 0.061
0.303 0.080 0.060
0.298 0.081 0.059
0.300 0.084 0.060
0.296 0.086 0.059
0.290 0.087 0.058
0.292 0.091 0.058
0.298 0.095 0.060
0.295 0.097 0.059
0.286 0.097 0.058
0.295 0.103 0.059
0.296 0.106 0.060
0.282 0.104 0.057
0.273 0.103 0.055
0.279 0.109 0.057
0.321 0.131 0.065
0.335 0.140 0.068
0.337 0.145 0.069
0.331 0.146 0.068
0.323 0.145 0.066
0.328 0.151 0.067
0.339 0.160 0.070
0.343 0.165 0.071
0.337 0.166 0.070
0.336 0.169 0.070
0.338 0.174 0.070
0.337 0.177 0.070
0.330 0.177 0.069
0.326 0.178 0.068
0.322 0.180 0.068
0.317 0.181 0.067
0.313 0.181 0.066
0.307 0.182 0.065
0.303 0.183 0.064
0.299 0.184 0.064
0.293 0.183 0.063
0.289 0.184 0.062
0.285 0.185 0.061
0.282 0.186 0.061
0.278 0.187 0.060
0.272 0.187 0.059
0.266 0.186 0.058
0.263 0.187 0.058
0.262 0.189 0.057
0.260 0.192 0.057
0.260 0.195 0.057
0.260 0.198 0.058
0.261 0.203 0.058
0.261 0.206 0.058
0.259 0.208 0.058
0.259 0.211 0.058
0.258 0.215 0.059
0.259 0.219 0.059
0.258 0.222 0.059
0.258 0.225 0.059
0.257 0.228 0.059
0.256 0.232 0.060
0.256 0.235 0.060
0.256 0.240 0.060
0.255 0.243 0.060
0.254 0.245 0.060
0.252 0.248 0.060
0.251 0.251 0.060
0.255 0.260 0.062
0.258 0.267 0.063
0.259 0.273 0.063
0.263 0.281 0.065
0.266 0.289 0.066
0.260 0.288 0.065
0.253 0.284 0.064
0.244 0.279 0.062
0.272 0.321 0.070
0.275 0.330 0.071
0.188 0.248 0.050
0.118 -0.164 0.033
0.111 -0.153 0.031
0.114 -0.154 0.031
0.113 -0.151 0.031
0.113 -0.149 0.031
0.115 -0.150 0.031
0.116 -0.149 0.031
0.114 -0.145 0.031
0.115 -0.144 0.031
0.118 -0.145 0.031
0.119 -0.145 0.032
0.132 -0.158 0.035
0.141 -0.164 0.037
0.291 -0.318 0.074
0.291 -0.314 0.074
0.291 -0.309 0.074
0.290 -0.304 0.073
0.292 -0.301 0.073
0.290 -0.294 0.072
0.290 -0.290 0.072
0.291 -0.285 0.071
0.290 -0.280 0.071
0.291 -0.277 0.071
0.291 -0.273 0.071
0.292 -0.269 0.070
0.291 -0.264 0.070
0.289 -0.259 0.069
0.288 -0.254 0.069
0.287 -0.249 0.068
0.288 -0.245 0.068
0.284 -0.238 0.067
0.284 -0.234 0.066
0.283 -0.230 0.066
0.273 -0.218 0.063
0.261 -0.205 0.060
0.219 -0.170 0.051
0.207 -0.158 0.048
0.200 -0.150 0.046
0.198 -0.145 0.045
0.199 -0.144 0.045
0.201 -0.143 0.046
0.204 -0.143 0.046
0.201 -0.138 0.045
0.202 -0.137 0.045
0.206 -0.137 0.046
0.211 -0.137 0.047
0.215 -0.138 0.048
0.218 -0.137 0.048
0.222 -0.137 0.049
0.219 -0.133 0.048
0.210 -0.125 0.046
0.207 -0.121 0.045
0.205 -0.117 0.045
0.206 -0.116 0.045
0.208 -0.115 0.045
0.207 -0.112 0.045
0.207 -0.110 0.045
0.204 -0.106 0.044
0.213 -0.108 0.046
0.209 -0.104 0.045
0.212 -0.103 0.045
0.211 -0.101 0.045
0.206 -0.096 0.044
0.211 -0.096 0.045
0.208 -0.093 0.044
0.210 -0.091 0.045
0.211 -0.090 0.045
0.212 -0.088 0.045
0.213 -0.087 0.045
0.210 -0.083 0.044
0.212 -0.082 0.045
0.217 -0.082 0.046
0.221 -0.079 0.046
0.221 -0.077 0.046
0.222 -0.075 0.047
0.227 -0.074 0.048
0.234 -0.074 0.049
0.240 -0.074 0.050
0.242 -0.073 0.051
0.249 -0.072 0.052
0.266 -0.075 0.055
0.358 -0.094 0.074
0.364 -0.092 0.075
0.365 -0.089 0.076
0.365 -0.085 0.076
0.357 -0.080 0.074
0.354 -0.076 0.073
0.354 -0.073 0.073
0.351 -0.069 0.072
0.289 -0.049 0.060
0.281 -0.045 0.058
0.282 -0.042 0.058
0.285 -0.040 0.059
0.285 -0.038 0.059
0.288 -0.035 0.059
0.281 -0.032 0.058
0.282 -0.029 0.058
0.284 -0.027 0.058
0.282 -0.024 0.058
0.286 -0.022 0.059
0.290 -0.020 0.060
0.294 -0.017 0.060
0.292 -0.015 0.060
0.291 -0.012 0.060
0.287 -0.009 0.059
0.295 -0.007 0.061
0.295 -0.004 0.060
0.299 -0.001 0.061
0.300 0.001 0.061
0.291 0.004 0.060
0.289 0.007 0.059
0.293 0.009 0.060
0.300 0.012 0.062
0.292 0.015 0.060
0.291 0.017 0.060
0.293 0.020 0.060
0.294 0.023 0.060
0.296 0.025 0.061
0.296 0.028 0.061
0.301 0.031 0.062
0.295 0.033 0.061
0.298 0.037 0.061
0.305 0.040 0.063
0.290 0.041 0.060
0.291 0.044 0.060
0.293 0.047 0.060
0.290 0.049 0.060
0.284 0.050 0.059
0.286 0.054 0.059
0.289 0.057 0.060
0.305 0.063 0.063
0.302 0.065 0.063
0.300 0.067 0.062
0.295 0.069 0.061
0.300 0.073 0.062
0.302 0.076 0.063
0.298 0.078 0.062
0.294 0.080 0.061
0.292 0.082 0.061
0.290 0.084 0.061
0.291 0.087 0.061
0.292 0.091 0.061
0.295 0.094 0.062
0.289 0.095 0.061
0.286 0.097 0.060
0.285 0.099 0.060
0.297 0.107 0.063
0.302 0.112 0.064
0.267 0.104 0.057
0.265 0.106 0.056
0.315 0.129 0.067
0.321 0.135 0.069
0.330 0.142 0.071
0.329 0.145 0.071
0.325 0.147 0.070
0.322 0.148 0.069
0.321 0.151 0.069
0.326 0.157 0.070
0.323 0.159 0.070
0.320 0.161 0.070
0.328 0.168 0.071
0.329 0.173 0.072
0.325 0.174 0.071
0.322 0.176 0.071
0.318 0.178 0.070
0.314 0.179 0.069
0.311 0.180 0.069
0.306 0.181 0.068
0.300 0.181 0.067
0.297 0.182 0.066
0.293 0.184 0.066
0.288 0.184 0.065
0.285 0.185 0.064
0.281 0.186 0.064
0.275 0.185 0.062
0.269 0.185 0.061
0.265 0.186 0.061
0.263 0.187 0.060
0.261 0.189 0.060
0.260 0.192 0.060
0.260 0.195 0.060
0.260 0.198 0.060
0.259 0.202 0.061
0.259 0.205 0.061
0.259 0.208 0.061
0.258 0.211 0.061
0.258 0.215 0.061
0.258 0.218 0.062
0.258 0.222 0.062
0.257 0.225 0.062
0.256 0.228 0.062
0.256 0.232 0.062
0.255 0.235 0.062
0.255 0.239 0.063
0.255 0.243 0.063
0.255 0.247 0.063
0.253 0.249 0.063
0.254 0.254 0.064
0.249 0.254 0.063
0.248 0.257 0.063
0.258 0.272 0.066
0.267 0.286 0.069
0.265 0.288 0.069
0.201 0.238 0.054
0.199 0.240 0.054
0.192 0.235 0.052
0.193 0.239 0.053
0.193 0.244 0.053
0.194 0.249 0.054
0.175 0.232 0.049
0.108 -0.151 0.032
0.110 -0.152 0.032
0.109 -0.149 0.032
0.109 -0.146 0.031
0.110 -0.146 0.032
0.111 -0.145 0.032
0.112 -0.145 0.032
0.113 -0.143 0.032
0.116 -0.145 0.032
0.116 -0.143 0.032
0.127 -0.154 0.035
0.129 -0.154 0.036
0.132 -0.154 0.036
0.287 -0.305 0.076
0.290 -0.304 0.076
0.290 -0.298 0.076
0.289 -0.294 0.075
0.289 -0.289 0.075
0.289 -0.284 0.074
0.290 -0.281 0.074
0.289 -0.276 0.074
0.290 -0.272 0.073
0.289 -0.267 0.073
0.289 -0.263 0.073
0.290 -0.259 0.072
0.290 -0.256 0.072
0.289 -0.250 0.072
0.287 -0.244 0.071
0.284 -0.239 0.070
0.284 -0.234 0.069
0.283 -0.230 0.069
0.275 -0.220 0.067
0.203 -0.154 0.049
0.203 -0.152 0.048
0.201 -0.148 0.048
0.201 -0.145 0.048
0.203 -0.144 0.048
0.203 -0.142 0.048
0.205 -0.141 0.048
0.207 -0.140 0.048
0.210 -0.139 0.049
0.210 -0.137 0.049
0.213 -0.136 0.049
0.216 -0.136 0.050
0.218 -0.135 0.050
0.216 -0.131 0.050
0.210 -0.125 0.048
0.203 -0.119 0.047
0.203 -0.116 0.046
0.204 -0.115 0.046
0.206 -0.114 0.047
0.206 -0.111 0.047
0.204 -0.108 0.046
0.209 -0.109 0.047
0.207 -0.105 0.047
0.208 -0.104 0.047
0.212 -0.103 0.048
0.212 -0.101 0.048
0.210 -0.098 0.047
0.203 -0.093 0.045
0.201 -0.090 0.045
0.206 -0.090 0.046
0.210 -0.089 0.047
0.203 -0.085 0.045
0.209 -0.085 0.046
0.200 -0.079 0.044
0.213 -0.082 0.047
0.203 -0.077 0.045
0.207 -0.076 0.045
0.208 -0.074 0.046
0.217 -0.076 0.048
0.219 -0.074 0.048
0.223 -0.073 0.049
0.231 -0.073 0.050
0.237 -0.073 0.052
0.242 -0.072 0.053
0.249 -0.072 0.054
0.351 -0.092 0.076
0.354 -0.089 0.077
0.350 -0.085 0.076
0.350 -0.082 0.076
0.346 -0.077 0.075
0.340 -0.073 0.073
0.343 -0.070 0.074
0.341 -0.067 0.073
0.324 -0.061 0.070
0.309 -0.055 0.067
0.293 -0.049 0.063
0.283 -0.045 0.061
0.283 -0.042 0.061
0.283 -0.040 0.061
0.286 -0.038 0.062
0.286 -0.035 0.061
0.286 -0.032 0.061
0.283 -0.030 0.061
0.283 -0.027 0.061
0.281 -0.024 0.060
0.280 -0.022 0.060
0.288 -0.020 0.062
0.291 -0.017 0.062
0.291 -0.015 0.062
0.293 -0.012 0.063
0.295 -0.009 0.063
0.292 -0.007 0.063
0.293 -0.004 0.063
0.295 -0.001 0.063
0.294 0.001 0.063
0.292 0.004 0.062
0.288 0.006 0.062
0.290 0.009 0.062
0.293 0.012 0.063
0.301 0.015 0.064
0.300 0.018 0.064
0.295 0.020 0.063
0.293 0.023 0.063
0.292 0.025 0.063
0.298 0.028 0.064
0.294 0.031 0.063
0.292 0.033 0.063
0.304 0.037 0.065
0.300 0.040 0.065
0.295 0.042 0.064
0.288 0.043 0.062
0.286 0.046 0.062
0.282 0.048 0.061
0.283 0.050 0.061
0.286 0.054 0.062
0.295 0.058 0.064
0.313 0.064 0.068
0.305 0.066 0.066
0.288 0.065 0.062
0.286 0.067 0.062
0.288 0.070 0.063
0.287 0.073 0.062
0.294 0.077 0.064
0.288 0.078 0.063
0.286 0.081 0.062
0.287 0.083 0.063
0.292 0.088 0.064
0.299 0.093 0.066
0.293 0.094 0.064
0.293 0.097 0.064
0.286 0.097 0.063
0.288 0.101 0.064
0.295 0.106 0.065
0.310 0.115 0.069
0.306 0.116 0.068
0.280 0.109 0.062
0.265 0.106 0.059
0.318 0.137 0.071
0.322 0.142 0.072
0.327 0.147 0.073
0.321 0.148 0.072
0.316 0.149 0.071
0.315 0.152 0.071
0.313 0.155 0.071
0.307 0.155 0.070
0.303 0.156 0.069
0.312 0.164 0.071
0.315 0.169 0.072
0.316 0.173 0.072
0.311 0.174 0.072
0.310 0.177 0.071
0.309 0.179 0.071
0.303 0.180 0.070
0.297 0.180 0.069
0.295 0.181 0.069
0.292 0.183 0.068
0.288 0.184 0.068
0.283 0.184 0.066
0.278 0.184 0.066
0.271 0.183 0.064
0.268 0.185 0.064
0.265 0.186 0.063
0.263 0.187 0.063
0.260 0.189 0.063
0.262 0.193 0.063
0.260 0.196 0.063
0.259 0.198 0.063
0.259 0.201 0.063
0.259 0.205 0.064
0.258 0.208 0.063
0.259 0.212 0.064
0.257 0.214 0.064
0.257 0.218 0.064
0.257 0.222 0.064
0.256 0.225 0.065
0.255 0.228 0.065
0.255 0.231 0.065
0.255 0.235 0.065
0.258 0.242 0.066
0.256 0.245 0.066
0.255 0.248 0.066
0.253 0.250 0.066
0.246 0.247 0.065
0.242 0.247 0.064
0.237 0.246 0.063
0.235 0.248 0.063
0.211 0.238 0.058
0.200 0.230 0.055
0.198 0.231 0.055
0.196 0.232 0.055
0.194 0.234 0.055
0.192 0.235 0.055
0.188 0.233 0.054
0.191 0.242 0.055
0.194 0.249 0.056
0.222 0.294 0.065
0.101 -0.140 0.031
0.099 -0.137 0.030
0.100 -0.135 0.030
0.100 -0.134 0.030
0.100 -0.132 0.030
0.100 -0.131 0.030
0.101 -0.130 0.030
0.101 -0.128 0.030
0.100 -0.125 0.029
0.101 -0.124 0.029
0.102 -0.124 0.029
0.102 -0.122 0.029
0.102 -0.121 0.029
0.112 -0.131 0.032
0.114 -0.129 0.032
0.125 -0.139 0.035
0.129 -0.142 0.036
0.285 -0.299 0.078
0.286 -0.296 0.078
0.284 -0.288 0.077
0.282 -0.283 0.076
0.282 -0.278 0.076
0.284 -0.275 0.076
0.281 -0.268 0.075
0.285 -0.268 0.075
0.287 -0.266 0.076
0.289 -0.263 0.076
0.290 -0.260 0.076
0.290 -0.256 0.075
0.288 -0.250 0.074
0.283 -0.241 0.073
0.283 -0.238 0.073
0.283 -0.234 0.072
0.282 -0.230 0.072
0.272 -0.218 0.069
0.208 -0.158 0.052
0.201 -0.150 0.050
0.203 -0.150 0.050
0.206 -0.149 0.051
0.203 -0.145 0.050
0.200 -0.140 0.049
0.202 -0.139 0.050
0.208 -0.141 0.051
0.208 -0.138 0.051
0.205 -0.134 0.050
0.205 -0.131 0.050
0.210 -0.132 0.051
0.213 -0.132 0.051
0.213 -0.129 0.051
0.206 -0.123 0.049
0.204 -0.119 0.049
0.201 -0.115 0.048
0.200 -0.112 0.048
0.200 -0.110 0.047
0.202 -0.109 0.048
0.206 -0.109 0.049
0.175 -0.089 0.041
0.174 -0.087 0.041
0.173 -0.085 0.041
0.171 -0.082 0.040
0.172 -0.081 0.040
0.174 -0.079 0.040
0.175 -0.078 0.041
0.176 -0.077 0.041
0.177 -0.075 0.041
0.178 -0.074 0.041
0.180 -0.073 0.041
0.187 -0.074 0.043
0.193 -0.075 0.044
0.211 -0.080 0.049
0.213 -0.078 0.049
0.215 -0.077 0.049
0.215 -0.075 0.049
0.217 -0.073 0.050
0.220 -0.072 0.050
0.227 -0.072 0.052
0.237 -0.073 0.054
0.243 -0.073 0.055
0.251 -0.073 0.057
0.264 -0.074 0.060
0.345 -0.090 0.078
0.347 -0.088 0.079
0.345 -0.084 0.078
0.336 -0.078 0.076
0.333 -0.075 0.075
0.331 -0.071 0.075
0.333 -0.069 0.075
0.330 -0.065 0.074
0.322 -0.060 0.072
0.309 -0.055 0.069
0.298 -0.050 0.067
0.284 -0.045 0.064
0.281 -0.042 0.063
0.281 -0.040 0.063
0.281 -0.037 0.063
0.283 -0.035 0.063
0.286 -0.032 0.064
0.285 -0.030 0.064
0.284 -0.027 0.064
0.282 -0.024 0.063
0.282 -0.022 0.063
0.287 -0.020 0.064
0.287 -0.017 0.064
0.290 -0.014 0.065
0.292 -0.012 0.065
0.290 -0.009 0.065
0.288 -0.007 0.064
0.288 -0.004 0.064
0.291 -0.001 0.065
0.292 0.001 0.065
0.295 0.004 0.066
0.293 0.007 0.065
0.289 0.009 0.065
0.284 0.012 0.063
0.290 0.014 0.065
0.297 0.018 0.066
0.292 0.020 0.065
0.283 0.022 0.063
0.286 0.025 0.064
0.295 0.028 0.066
0.299 0.031 0.067
0.286 0.033 0.064
0.289 0.036 0.065
0.302 0.040 0.068
0.302 0.043 0.068
0.297 0.045 0.067
0.287 0.046 0.065
0.282 0.048 0.064
0.296 0.053 0.067
0.289 0.054 0.065
0.292 0.058 0.066
0.289 0.060 0.065
0.279 0.060 0.063
0.281 0.063 0.064
0.281 0.066 0.064
0.275 0.067 0.062
0.266 0.067 0.060
0.287 0.076 0.065
0.289 0.079 0.066
0.275 0.078 0.063
0.277 0.081 0.063
0.295 0.089 0.067
0.298 0.093 0.068
0.299 0.096 0.069
0.295 0.098 0.068
0.293 0.100 0.067
0.297 0.104 0.068
0.301 0.108 0.069
0.301 0.111 0.070
0.300 0.114 0.069
0.293 0.114 0.068
0.286 0.115 0.066
0.278 0.114 0.065
0.317 0.143 0.074
0.317 0.146 0.074
0.314 0.148 0.074
0.312 0.151 0.074
0.307 0.152 0.073
0.300 0.152 0.071
0.298 0.153 0.071
0.296 0.156 0.071
0.310 0.167 0.074
0.306 0.168 0.073
0.306 0.171 0.073
0.306 0.175 0.074
0.302 0.176 0.073
0.297 0.176 0.072
0.293 0.177 0.071
0.292 0.180 0.071
0.289 0.182 0.071
0.286 0.183 0.070
0.282 0.184 0.069
0.276 0.183 0.068
0.271 0.184 0.067
0.267 0.184 0.066
0.264 0.185 0.066
0.262 0.187 0.065
0.262 0.190 0.066
0.261 0.193 0.066
0.260 0.196 0.066
0.258 0.198 0.066
0.259 0.202 0.066
0.259 0.205 0.066
0.260 0.209 0.067
0.258 0.212 0.067
0.256 0.214 0.066
0.255 0.216 0.066
0.255 0.220 0.067
0.254 0.224 0.067
0.254 0.227 0.067
0.253 0.230 0.067
0.255 0.235 0.068
0.254 0.239 0.068
0.250 0.239 0.067
0.244 0.237 0.066
0.246 0.243 0.067
0.236 0.238 0.065
0.223 0.235 0.062
0.201 0.220 0.057
0.205 0.227 0.058
0.201 0.227 0.058
0.199 0.228 0.057
0.195 0.227 0.057
0.192 0.228 0.056
0.201 0.242 0.059
0.219 0.273 0.065
0.223 0.282 0.067
0.253 0.335 0.077
0.099 -0.137 0.031
0.100 -0.136 0.031
0.101 -0.135 0.031
0.099 -0.132 0.031
0.101 -0.132 0.031
0.102 -0.131 0.031
0.100 -0.127 0.031
0.101 -0.127 0.031
0.101 -0.125 0.031
0.102 -0.124 0.031
0.102 -0.123 0.031
0.102 -0.121 0.030
0.102 -0.119 0.030
0.102 -0.117 0.030
0.105 -0.118 0.031
0.123 -0.138 0.036
0.125 -0.137 0.036
0.122 -0.133 0.035
0.266 -0.271 0.075
0.272 -0.272 0.076
0.277 -0.273 0.077
0.278 -0.270 0.077
0.279 -0.267 0.077
0.281 -0.264 0.077
0.284 -0.263 0.078
0.286 -0.261 0.078
0.289 -0.259 0.078
0.286 -0.253 0.077
0.286 -0.248 0.077
0.283 -0.242 0.076
0.281 -0.236 0.075
0.282 -0.234 0.075
0.279 -0.228 0.074
0.265 -0.212 0.070
0.254 -0.201 0.067
0.198 -0.149 0.051
0.198 -0.146 0.051
0.204 -0.148 0.053
0.204 -0.145 0.052
0.200 -0.140 0.051
0.202 -0.139 0.052
0.205 -0.139 0.052
0.203 -0.135 0.052
0.199 -0.130 0.050
0.200 -0.128 0.050
0.202 -0.128 0.051
0.207 -0.128 0.052
0.207 -0.126 0.052
0.209 -0.125 0.052
0.207 -0.121 0.052
0.207 -0.119 0.052
0.212 -0.119 0.053
0.172 -0.093 0.043
0.169 -0.090 0.042
0.169 -0.088 0.041
0.170 -0.087 0.042
0.172 -0.082 0.042
0.173 -0.081 0.042
0.174 -0.080 0.042
0.174 -0.078 0.042
0.176 -0.077 0.042
0.177 -0.076 0.043
0.177 -0.074 0.043
0.179 -0.073 0.043
0.180 -0.071 0.043
0.181 -0.070 0.043
0.183 -0.069 0.044
0.187 -0.069 0.045
0.188 -0.067 0.045
0.214 -0.074 0.051
0.214 -0.072 0.051
0.218 -0.072 0.052
0.227 -0.072 0.054
0.234 -0.072 0.056
0.243 -0.073 0.058
0.248 -0.072 0.059
0.254 -0.071 0.060
0.337 -0.088 0.080
0.336 -0.085 0.079
0.330 -0.080 0.078
0.332 -0.078 0.078
0.330 -0.074 0.077
0.328 -0.071 0.077
0.324 -0.067 0.076
0.321 -0.063 0.075
0.315 -0.059 0.074
0.311 -0.055 0.073
0.299 -0.050 0.070
0.280 -0.045 0.065
0.280 -0.042 0.065
0.280 -0.040 0.065
0.279 -0.037 0.065
0.280 -0.034 0.065
0.281 -0.032 0.066
0.281 -0.029 0.065
0.284 -0.027 0.066
0.284 -0.025 0.066
0.288 -0.022 0.067
0.288 -0.020 0.067
0.289 -0.017 0.067
0.285 -0.014 0.066
0.285 -0.012 0.066
0.287 -0.009 0.067
0.287 -0.007 0.067
0.287 -0.004 0.067
0.287 -0.001 0.067
0.290 0.001 0.067
0.292 0.004 0.068
0.293 0.007 0.068
0.287 0.009 0.067
0.281 0.011 0.065
0.282 0.014 0.066
0.284 0.017 0.066
0.284 0.019 0.066
0.278 0.022 0.065
0.280 0.024 0.065
0.289 0.028 0.067
0.300 0.031 0.070
0.297 0.034 0.069
0.283 0.035 0.066
0.282 0.037 0.066
0.306 0.043 0.072
0.301 0.045 0.070
0.300 0.048 0.070
0.294 0.050 0.069
0.289 0.052 0.068
0.289 0.054 0.068
0.286 0.056 0.067
0.283 0.059 0.067
0.284 0.061 0.067
0.284 0.064 0.067
0.282 0.066 0.067
0.279 0.068 0.066
0.281 0.071 0.066
0.281 0.074 0.067
0.278 0.076 0.066
0.270 0.076 0.064
0.271 0.079 0.064
0.285 0.086 0.068
0.294 0.092 0.070
0.299 0.096 0.071
0.298 0.098 0.071
0.297 0.101 0.071
0.299 0.105 0.072
0.298 0.107 0.072
0.296 0.110 0.071
0.295 0.112 0.071
0.293 0.115 0.071
0.289 0.116 0.070
0.290 0.119 0.070
0.293 0.123 0.071
0.263 0.116 0.064
0.310 0.140 0.076
0.312 0.145 0.076
0.311 0.147 0.076
0.308 0.149 0.076
0.305 0.151 0.075
0.297 0.150 0.073
0.292 0.151 0.072
0.293 0.155 0.073
0.296 0.159 0.074
0.299 0.164 0.075
0.299 0.167 0.075
0.298 0.170 0.075
0.298 0.173 0.075
0.295 0.175 0.074
0.290 0.176 0.073
0.286 0.177 0.073
0.285 0.180 0.073
0.282 0.181 0.072
0.280 0.183 0.072
0.277 0.184 0.071
0.272 0.184 0.070
0.266 0.183 0.069
0.263 0.185 0.068
0.262 0.187 0.068
0.262 0.190 0.068
0.260 0.193 0.068
0.259 0.195 0.068
0.259 0.198 0.068
0.259 0.202 0.069
0.259 0.206 0.069
0.258 0.209 0.069
0.257 0.211 0.069
0.255 0.214 0.069
0.254 0.216 0.069
0.254 0.220 0.069
0.252 0.222 0.069
0.249 0.223 0.069
0.247 0.225 0.068
0.244 0.226 0.068
0.245 0.231 0.069
0.241 0.230 0.068
0.233 0.227 0.066
0.227 0.224 0.064
0.219 0.220 0.063
0.213 0.218 0.061
0.211 0.219 0.061
0.206 0.219 0.060
0.199 0.214 0.058
0.200 0.219 0.059
0.201 0.224 0.060
0.203 0.230 0.061
0.205 0.235 0.062
0.230 0.273 0.070
0.216 0.265 0.067
0.222 0.277 0.069
0.220 0.279 0.069
0.230 0.305 0.073
0.099 -0.137 0.033
0.100 -0.137 0.033
0.101 -0.136 0.033
0.101 -0.135 0.033
0.102 -0.133 0.033
0.102 -0.132 0.033
0.103 -0.131 0.033
0.103 -0.129 0.033
0.103 -0.127 0.032
0.103 -0.126 0.032
0.102 -0.123 0.032
0.101 -0.120 0.031
0.102 -0.119 0.031
0.103 -0.118 0.031
0.103 -0.117 0.031
0.103 -0.115 0.031
0.120 -0.132 0.036
0.112 -0.121 0.034
0.108 -0.116 0.032
0.264 -0.269 0.077
0.274 -0.275 0.080
0.277 -0.273 0.080
0.277 -0.270 0.080
0.277 -0.265 0.080
0.278 -0.262 0.080
0.279 -0.259 0.080
0.280 -0.256 0.080
0.281 -0.253 0.079
0.283 -0.250 0.080
0.284 -0.247 0.080
0.283 -0.242 0.079
0.278 -0.234 0.077
0.275 -0.228 0.076
0.275 -0.224 0.076
0.204 -0.156 0.055
0.199 -0.149 0.054
0.197 -0.146 0.053
0.199 -0.144 0.053
0.203 -0.145 0.054
0.200 -0.140 0.053
0.200 -0.138 0.053
0.201 -0.136 0.053
0.200 -0.133 0.053
0.200 -0.131 0.053
0.199 -0.128 0.052
0.200 -0.127 0.053
0.204 -0.126 0.053
0.207 -0.126 0.054
0.206 -0.123 0.054
0.207 -0.121 0.054
0.183 -0.105 0.047
0.169 -0.095 0.044
0.169 -0.094 0.044
0.169 -0.092 0.043
0.169 -0.090 0.043
0.169 -0.088 0.043
0.169 -0.086 0.043
0.172 -0.086 0.044
0.174 -0.085 0.044
0.177 -0.085 0.045
0.182 -0.085 0.046
0.187 -0.085 0.047
0.190 -0.085 0.048
0.195 -0.085 0.049
0.186 -0.080 0.047
0.182 -0.076 0.046
0.183 -0.074 0.046
0.179 -0.071 0.045
0.181 -0.070 0.045
0.183 -0.069 0.045
0.184 -0.068 0.046
0.185 -0.066 0.046
0.187 -0.065 0.046
0.189 -0.064 0.047
0.206 -0.068 0.051
0.227 -0.072 0.056
0.231 -0.071 0.057
0.237 -0.071 0.058
0.244 -0.071 0.060
0.251 -0.071 0.062
0.321 -0.084 0.079
0.325 -0.082 0.080
0.320 -0.078 0.078
0.321 -0.075 0.079
0.323 -0.073 0.079
0.321 -0.069 0.078
0.317 -0.065 0.077
0.313 -0.062 0.076
0.311 -0.058 0.076
0.307 -0.055 0.075
0.299 -0.050 0.073
0.281 -0.045 0.068
0.277 -0.042 0.067
0.281 -0.040 0.068
0.280 -0.037 0.068
0.280 -0.034 0.068
0.279 -0.032 0.068
0.279 -0.029 0.068
0.282 -0.027 0.068
0.286 -0.025 0.069
0.287 -0.022 0.070
0.291 -0.020 0.070
0.290 -0.017 0.070
0.285 -0.014 0.069
0.288 -0.012 0.070
0.286 -0.009 0.069
0.288 -0.007 0.070
0.290 -0.004 0.070
0.286 -0.001 0.069
0.287 0.001 0.070
0.290 0.004 0.070
0.292 0.007 0.071
0.288 0.009 0.070
0.279 0.011 0.068
0.269 0.013 0.065
0.276 0.016 0.067
0.276 0.019 0.067
0.279 0.022 0.068
0.272 0.023 0.066
0.275 0.026 0.067
0.297 0.031 0.072
0.292 0.033 0.071
0.282 0.035 0.069
0.284 0.038 0.069
0.282 0.040 0.069
0.288 0.044 0.070
0.290 0.046 0.071
0.295 0.050 0.072
0.290 0.052 0.071
0.289 0.054 0.071
0.289 0.057 0.071
0.287 0.059 0.070
0.290 0.063 0.071
0.289 0.065 0.071
0.287 0.067 0.070
0.283 0.069 0.070
0.283 0.072 0.069
0.282 0.074 0.069
0.268 0.073 0.066
0.260 0.074 0.064
0.263 0.077 0.065
0.272 0.082 0.067
0.291 0.091 0.072
0.294 0.095 0.073
0.297 0.098 0.074
0.297 0.101 0.074
0.296 0.104 0.074
0.293 0.106 0.073
0.291 0.108 0.073
0.292 0.111 0.073
0.289 0.113 0.072
0.285 0.114 0.072
0.294 0.121 0.074
0.294 0.124 0.074
0.293 0.127 0.074
0.272 0.120 0.069
0.264 0.120 0.067
0.277 0.128 0.071
0.302 0.143 0.077
0.302 0.146 0.077
0.295 0.146 0.076
0.292 0.147 0.075
0.287 0.148 0.074
0.290 0.153 0.075
0.293 0.158 0.076
0.294 0.161 0.076
0.294 0.165 0.076
0.294 0.168 0.077
0.293 0.171 0.077
0.292 0.174 0.076
0.281 0.171 0.074
0.284 0.176 0.075
0.282 0.178 0.075
0.278 0.179 0.074
0.276 0.180 0.073
0.275 0.183 0.073
0.271 0.184 0.073
0.266 0.184 0.072
0.264 0.186 0.071
0.264 0.189 0.071
0.261 0.191 0.071
0.259 0.192 0.071
0.259 0.195 0.071
0.258 0.198 0.071
0.259 0.202 0.072
0.259 0.206 0.072
0.258 0.209 0.072
0.258 0.213 0.072
0.255 0.214 0.072
0.254 0.216 0.072
0.253 0.219 0.072
0.248 0.219 0.071
0.243 0.218 0.070
