VERSION .7
FIELDS x y z
SIZE 4 4 4
TYPE F F F
COUNT 1 1 1
WIDTH     2433
HEIGHT 1
VIEWPOINT 0 0 0 1 0 0 0
POINTS     2433
DATA ascii
0.276 0.162 -0.122
0.275 0.165 -0.122
0.275 0.168 -0.122
0.273 0.170 -0.122
0.271 0.172 -0.122
0.271 0.176 -0.122
0.268 0.176 -0.121
0.262 0.176 -0.119
0.262 0.179 -0.119
0.259 0.181 -0.118
0.260 0.185 -0.119
0.253 0.183 -0.116
0.253 0.186 -0.116
0.264 0.198 -0.122
0.277 0.211 -0.128
0.276 0.215 -0.129
0.266 0.211 -0.125
0.250 0.201 -0.117
0.247 0.203 -0.117
0.233 0.194 -0.110
0.226 0.192 -0.108
0.224 0.194 -0.107
0.225 0.198 -0.108
0.231 0.206 -0.111
0.228 0.208 -0.111
0.226 0.216 -0.111
0.218 0.212 -0.108
0.221 0.218 -0.110
0.215 0.217 -0.108
0.215 0.221 -0.108
0.317 -0.352 -0.156
0.333 -0.358 -0.162
0.332 -0.352 -0.162
0.333 -0.348 -0.161
0.329 -0.338 -0.158
0.332 -0.336 -0.159
0.332 -0.331 -0.159
0.328 -0.322 -0.156
0.326 -0.315 -0.154
0.328 -0.312 -0.154
0.326 -0.305 -0.153
0.325 -0.299 -0.152
0.326 -0.296 -0.152
0.325 -0.290 -0.150
0.325 -0.285 -0.150
0.324 -0.280 -0.149
0.321 -0.272 -0.147
0.319 -0.267 -0.145
0.317 -0.261 -0.144
0.319 -0.258 -0.144
0.323 -0.257 -0.146
0.322 -0.252 -0.145
0.317 -0.244 -0.142
0.315 -0.238 -0.141
0.316 -0.235 -0.141
0.314 -0.230 -0.139
0.314 -0.226 -0.139
0.314 -0.222 -0.138
0.313 -0.217 -0.137
0.306 -0.208 -0.134
0.305 -0.204 -0.133
0.218 -0.138 -0.094
0.209 -0.130 -0.090
0.209 -0.128 -0.090
0.208 -0.124 -0.089
0.216 -0.127 -0.093
0.295 -0.170 -0.126
0.297 -0.168 -0.127
0.299 -0.165 -0.127
0.301 -0.163 -0.128
0.303 -0.161 -0.128
0.306 -0.159 -0.129
0.310 -0.158 -0.131
0.312 -0.156 -0.131
0.315 -0.154 -0.132
0.319 -0.152 -0.134
0.325 -0.152 -0.136
0.327 -0.149 -0.137
0.330 -0.147 -0.137
0.331 -0.145 -0.138
0.358 -0.134 -0.147
0.363 -0.132 -0.149
0.367 -0.130 -0.151
0.372 -0.128 -0.153
0.382 -0.128 -0.156
0.390 -0.127 -0.159
0.392 -0.124 -0.160
0.385 -0.118 -0.157
0.400 -0.118 -0.163
1.310 -0.375 -0.534
1.313 -0.363 -0.534
1.317 -0.352 -0.536
1.343 -0.346 -0.546
0.282 -0.051 -0.114
0.283 -0.049 -0.114
0.292 -0.047 -0.118
0.291 -0.045 -0.117
0.289 -0.041 -0.116
0.289 -0.039 -0.117
0.294 -0.037 -0.118
0.296 -0.034 -0.119
0.292 -0.031 -0.117
0.289 -0.028 -0.116
0.308 -0.027 -0.124
0.306 -0.024 -0.123
0.306 -0.021 -0.123
0.306 -0.018 -0.123
0.304 -0.015 -0.122
0.293 -0.012 -0.118
0.291 -0.009 -0.117
0.296 -0.007 -0.119
0.299 -0.004 -0.120
0.303 -0.001 -0.122
0.302 0.001 -0.121
0.298 0.004 -0.120
0.304 0.007 -0.122
0.310 0.010 -0.125
0.314 0.013 -0.126
0.315 0.016 -0.127
0.314 0.019 -0.126
0.311 0.022 -0.125
0.315 0.028 -0.127
0.316 0.031 -0.127
0.308 0.033 -0.124
0.299 0.035 -0.120
0.300 0.038 -0.121
0.305 0.041 -0.123
0.304 0.044 -0.123
0.305 0.047 -0.123
0.308 0.050 -0.124
0.301 0.052 -0.122
0.301 0.055 -0.122
0.313 0.060 -0.127
0.311 0.063 -0.126
0.304 0.064 -0.123
0.293 0.065 -0.119
0.294 0.068 -0.119
0.296 0.071 -0.120
0.304 0.076 -0.124
0.308 0.086 -0.126
0.307 0.089 -0.126
0.312 0.093 -0.128
0.309 0.095 -0.127
0.299 0.095 -0.123
0.296 0.097 -0.122
0.298 0.101 -0.123
0.303 0.105 -0.125
0.319 0.114 -0.132
0.330 0.122 -0.136
0.327 0.141 -0.137
0.310 0.137 -0.130
0.302 0.137 -0.127
0.294 0.136 -0.124
0.286 0.135 -0.120
0.284 0.138 -0.120
0.287 0.142 -0.122
0.286 0.145 -0.122
0.284 0.147 -0.121
0.281 0.149 -0.120
0.289 0.156 -0.124
0.290 0.160 -0.124
0.288 0.162 -0.124
0.282 0.162 -0.121
0.279 0.163 -0.120
0.280 0.167 -0.121
0.280 0.170 -0.122
0.275 0.171 -0.120
0.276 0.175 -0.121
0.276 0.178 -0.121
0.276 0.182 -0.121
0.280 0.188 -0.123
0.268 0.183 -0.119
0.265 0.184 -0.118
0.260 0.184 -0.116
0.257 0.186 -0.115
0.259 0.190 -0.116
0.271 0.202 -0.122
0.236 0.210 -0.111
0.237 0.215 -0.112
0.228 0.225 -0.111
0.220 0.221 -0.107
0.316 -0.365 -0.154
0.323 -0.363 -0.156
0.329 -0.364 -0.158
0.332 -0.362 -0.159
0.333 -0.358 -0.159
0.333 -0.353 -0.158
0.334 -0.348 -0.158
0.334 -0.343 -0.157
0.333 -0.336 -0.156
0.331 -0.329 -0.154
0.326 -0.319 -0.151
0.326 -0.314 -0.150
0.325 -0.309 -0.149
0.325 -0.304 -0.149
0.325 -0.298 -0.148
0.324 -0.293 -0.147
0.326 -0.290 -0.147
0.324 -0.284 -0.146
0.322 -0.277 -0.144
0.318 -0.270 -0.142
0.317 -0.264 -0.141
0.319 -0.262 -0.141
0.322 -0.260 -0.142
0.322 -0.256 -0.142
0.319 -0.249 -0.140
0.316 -0.243 -0.138
0.315 -0.238 -0.137
0.315 -0.234 -0.137
0.314 -0.229 -0.136
0.311 -0.223 -0.134
0.311 -0.219 -0.133
0.306 -0.212 -0.131
0.305 -0.207 -0.130
0.303 -0.202 -0.129
0.293 -0.192 -0.124
0.211 -0.131 -0.089
0.209 -0.127 -0.088
0.212 -0.127 -0.089
0.211 -0.124 -0.088
0.300 -0.159 -0.124
0.305 -0.158 -0.126
0.308 -0.157 -0.127
0.312 -0.156 -0.128
0.314 -0.153 -0.129
0.318 -0.152 -0.130
0.323 -0.150 -0.132
0.327 -0.149 -0.133
0.329 -0.147 -0.134
0.328 -0.143 -0.133
0.354 -0.132 -0.142
0.362 -0.132 -0.145
0.366 -0.130 -0.147
0.370 -0.127 -0.148
0.377 -0.126 -0.151
0.382 -0.124 -0.152
0.385 -0.121 -0.153
0.390 -0.119 -0.155
0.413 -0.122 -0.164
0.417 -0.119 -0.166
1.312 -0.350 -0.520
0.366 -0.073 -0.144
0.278 -0.050 -0.109
0.283 -0.048 -0.111
0.291 -0.047 -0.114
0.288 -0.044 -0.113
0.285 -0.041 -0.112
0.286 -0.038 -0.112
0.292 -0.036 -0.114
0.291 -0.034 -0.114
0.288 -0.031 -0.113
0.296 -0.029 -0.116
0.308 -0.027 -0.121
0.309 -0.024 -0.121
0.297 -0.021 -0.116
0.300 -0.018 -0.117
0.304 -0.015 -0.119
0.303 -0.013 -0.118
0.292 -0.009 -0.114
0.284 -0.006 -0.111
0.308 -0.001 -0.120
0.304 0.001 -0.119
0.298 0.007 -0.117
0.319 0.010 -0.125
0.321 0.016 -0.126
0.326 0.020 -0.128
0.309 0.024 -0.121
0.315 0.028 -0.124
0.322 0.031 -0.126
0.315 0.034 -0.124
0.310 0.036 -0.122
0.310 0.039 -0.122
0.321 0.043 -0.126
0.319 0.052 -0.126
0.318 0.055 -0.125
0.323 0.059 -0.127
0.316 0.061 -0.125
0.302 0.061 -0.119
0.295 0.062 -0.117
0.300 0.066 -0.119
0.299 0.069 -0.119
0.298 0.071 -0.118
0.325 0.081 -0.129
0.318 0.082 -0.126
0.299 0.080 -0.119
0.306 0.085 -0.122
0.320 0.092 -0.128
0.299 0.095 -0.120
0.296 0.097 -0.119
0.302 0.102 -0.121
0.311 0.108 -0.125
0.322 0.115 -0.130
0.315 0.119 -0.127
0.305 0.118 -0.123
0.312 0.124 -0.127
0.329 0.135 -0.134
0.332 0.139 -0.135
0.328 0.141 -0.134
0.323 0.142 -0.132
0.305 0.138 -0.125
0.296 0.137 -0.121
0.294 0.139 -0.121
0.294 0.142 -0.121
0.293 0.145 -0.121
0.294 0.149 -0.122
0.287 0.148 -0.119
0.289 0.153 -0.120
0.291 0.157 -0.121
0.292 0.161 -0.122
0.291 0.163 -0.122
0.292 0.168 -0.123
0.287 0.168 -0.121
0.284 0.170 -0.120
0.283 0.172 -0.120
0.284 0.176 -0.121
0.281 0.178 -0.120
0.286 0.184 -0.122
0.289 0.190 -0.124
0.290 0.194 -0.125
0.326 -0.411 -0.159
0.324 -0.402 -0.157
0.323 -0.396 -0.156
0.331 -0.399 -0.159
0.332 -0.395 -0.159
0.332 -0.389 -0.158
0.326 -0.377 -0.155
0.326 -0.371 -0.154
0.329 -0.369 -0.155
0.332 -0.367 -0.156
0.332 -0.361 -0.155
0.329 -0.353 -0.153
0.329 -0.348 -0.152
0.330 -0.343 -0.151
0.329 -0.337 -0.151
0.329 -0.332 -0.150
0.326 -0.324 -0.148
0.323 -0.316 -0.146
0.324 -0.312 -0.146
0.324 -0.307 -0.145
0.322 -0.300 -0.143
0.326 -0.299 -0.145
0.324 -0.293 -0.143
0.324 -0.287 -0.142
0.325 -0.284 -0.142
0.321 -0.276 -0.140
0.316 -0.268 -0.138
0.314 -0.262 -0.136
0.317 -0.260 -0.137
0.321 -0.259 -0.138
0.321 -0.254 -0.137
0.316 -0.246 -0.135
0.313 -0.239 -0.133
0.315 -0.237 -0.133
0.316 -0.234 -0.133
0.315 -0.229 -0.132
0.311 -0.222 -0.130
0.309 -0.217 -0.129
0.304 -0.210 -0.127
0.303 -0.205 -0.126
0.302 -0.201 -0.125
0.298 -0.195 -0.123
0.214 -0.132 -0.088
0.209 -0.127 -0.085
0.209 -0.125 -0.085
0.212 -0.124 -0.086
0.258 -0.145 -0.105
0.246 -0.136 -0.099
0.245 -0.133 -0.099
0.256 -0.136 -0.103
0.294 -0.153 -0.118
0.304 -0.155 -0.122
0.308 -0.153 -0.123
0.312 -0.152 -0.125
0.316 -0.150 -0.126
0.322 -0.150 -0.128
0.325 -0.148 -0.129
0.327 -0.146 -0.130
0.328 -0.143 -0.130
0.335 -0.129 -0.132
0.350 -0.131 -0.137
0.358 -0.130 -0.140
0.363 -0.129 -0.142
0.364 -0.125 -0.142
0.374 -0.125 -0.146
0.378 -0.123 -0.147
0.384 -0.121 -0.149
0.390 -0.119 -0.151
0.401 -0.118 -0.156
0.413 -0.118 -0.160
0.362 -0.076 -0.139
0.355 -0.071 -0.136
0.339 -0.065 -0.130
0.275 -0.050 -0.105
0.282 -0.048 -0.108
0.292 -0.047 -0.112
0.290 -0.044 -0.111
0.281 -0.040 -0.108
0.289 -0.039 -0.111
0.294 -0.037 -0.112
0.294 -0.034 -0.112
0.292 -0.031 -0.112
0.296 -0.029 -0.113
0.303 -0.027 -0.116
0.301 -0.024 -0.115
0.292 -0.020 -0.112
0.293 -0.018 -0.112
0.304 -0.015 -0.116
0.309 -0.013 -0.118
0.300 -0.010 -0.115
0.284 -0.007 -0.109
0.302 -0.004 -0.115
0.314 -0.001 -0.120
0.307 0.001 -0.117
0.282 0.004 -0.107
0.284 0.007 -0.108
0.315 0.010 -0.120
0.311 0.013 -0.119
0.313 0.016 -0.120
0.318 0.019 -0.122
0.308 0.021 -0.118
0.312 0.025 -0.119
0.315 0.028 -0.121
0.314 0.031 -0.120
0.314 0.033 -0.120
0.308 0.036 -0.118
0.309 0.039 -0.119
0.312 0.042 -0.120
0.324 0.050 -0.124
0.311 0.051 -0.120
0.324 0.056 -0.125
0.323 0.059 -0.124
0.305 0.058 -0.118
0.301 0.061 -0.116
0.317 0.070 -0.122
0.307 0.070 -0.119
0.306 0.073 -0.118
0.311 0.077 -0.121
0.301 0.078 -0.117
0.297 0.080 -0.115
0.307 0.085 -0.119
0.306 0.088 -0.119
0.311 0.096 -0.122
0.302 0.096 -0.118
0.309 0.101 -0.121
0.314 0.106 -0.123
0.315 0.109 -0.124
0.318 0.114 -0.125
0.313 0.115 -0.123
0.320 0.121 -0.126
0.314 0.122 -0.124
0.325 0.129 -0.128
0.329 0.135 -0.131
0.327 0.137 -0.130
0.325 0.139 -0.129
0.319 0.140 -0.127
0.311 0.140 -0.124
0.302 0.139 -0.121
0.300 0.141 -0.120
0.300 0.145 -0.121
0.304 0.150 -0.122
0.297 0.150 -0.120
0.297 0.153 -0.120
0.289 0.152 -0.117
0.294 0.158 -0.119
0.294 0.161 -0.120
0.296 0.166 -0.121
0.296 0.169 -0.121
0.297 0.180 -0.123
0.305 0.189 -0.126
0.314 0.198 -0.130
0.328 -0.429 -0.158
0.337 -0.435 -0.161
0.340 -0.433 -0.162
0.337 -0.424 -0.160
0.332 -0.412 -0.157
0.332 -0.406 -0.156
0.335 -0.404 -0.157
0.336 -0.399 -0.157
0.334 -0.391 -0.155
0.329 -0.379 -0.152
0.328 -0.372 -0.151
0.329 -0.369 -0.151
0.329 -0.363 -0.150
0.328 -0.356 -0.149
0.327 -0.350 -0.148
0.328 -0.345 -0.147
0.323 -0.335 -0.144
0.320 -0.327 -0.143
0.322 -0.324 -0.143
0.321 -0.318 -0.142
0.322 -0.314 -0.141
0.323 -0.310 -0.141
0.320 -0.302 -0.139
0.317 -0.295 -0.138
0.318 -0.291 -0.137
0.318 -0.286 -0.137
0.323 -0.286 -0.138
0.323 -0.282 -0.138
0.319 -0.274 -0.136
0.315 -0.266 -0.133
0.314 -0.261 -0.132
0.314 -0.257 -0.132
0.317 -0.255 -0.133
0.319 -0.252 -0.133
0.309 -0.240 -0.128
0.309 -0.237 -0.128
0.310 -0.233 -0.128
0.313 -0.231 -0.129
0.313 -0.228 -0.129
0.313 -0.223 -0.128
0.304 -0.214 -0.124
0.301 -0.207 -0.122
0.301 -0.204 -0.122
0.300 -0.200 -0.121
0.301 -0.197 -0.121
0.216 -0.134 -0.086
0.210 -0.128 -0.084
0.209 -0.124 -0.083
0.209 -0.122 -0.083
0.215 -0.123 -0.085
0.253 -0.142 -0.100
0.245 -0.135 -0.096
0.245 -0.132 -0.096
0.247 -0.131 -0.097
0.291 -0.151 -0.114
0.303 -0.154 -0.118
0.307 -0.152 -0.120
0.310 -0.151 -0.120
0.315 -0.150 -0.122
0.320 -0.149 -0.124
0.324 -0.147 -0.125
0.327 -0.145 -0.126
0.331 -0.144 -0.127
0.344 -0.132 -0.132
0.351 -0.131 -0.134
0.357 -0.130 -0.136
0.363 -0.128 -0.138
0.367 -0.126 -0.140
0.371 -0.124 -0.141
0.377 -0.122 -0.143
0.383 -0.120 -0.145
0.391 -0.119 -0.148
0.395 -0.116 -0.149
0.409 -0.117 -0.154
0.420 -0.116 -0.158
0.362 -0.076 -0.136
0.348 -0.069 -0.130
0.338 -0.064 -0.127
0.289 -0.052 -0.108
0.289 -0.049 -0.108
0.293 -0.047 -0.109
0.274 -0.042 -0.102
0.283 -0.041 -0.106
0.290 -0.039 -0.108
0.298 -0.037 -0.111
0.300 -0.035 -0.112
0.296 -0.031 -0.110
0.295 -0.029 -0.110
0.296 -0.026 -0.110
0.296 -0.023 -0.110
0.285 -0.020 -0.106
0.289 -0.017 -0.108
0.297 -0.015 -0.111
0.301 -0.012 -0.112
0.309 -0.010 -0.115
0.309 -0.007 -0.115
0.312 -0.004 -0.116
0.316 -0.001 -0.118
0.301 0.001 -0.112
0.279 0.004 -0.104
0.272 0.006 -0.101
0.286 0.009 -0.106
0.301 0.013 -0.112
0.300 0.015 -0.112
0.303 0.018 -0.113
0.300 0.021 -0.112
0.320 0.028 -0.119
0.317 0.031 -0.118
0.311 0.033 -0.116
0.312 0.036 -0.117
0.285 0.036 -0.106
0.300 0.040 -0.112
0.313 0.045 -0.117
0.312 0.048 -0.117
0.317 0.052 -0.119
0.314 0.054 -0.118
0.308 0.056 -0.116
0.311 0.059 -0.117
0.311 0.062 -0.117
0.321 0.067 -0.121
0.316 0.072 -0.119
0.314 0.075 -0.118
0.316 0.079 -0.119
0.309 0.080 -0.117
0.303 0.081 -0.115
0.303 0.084 -0.115
0.286 0.082 -0.108
0.273 0.081 -0.104
0.318 0.101 -0.121
0.313 0.102 -0.119
0.320 0.108 -0.122
0.320 0.111 -0.122
0.311 0.111 -0.119
0.312 0.114 -0.120
0.312 0.118 -0.120
0.321 0.124 -0.123
0.322 0.128 -0.124
0.329 0.134 -0.127
0.327 0.137 -0.127
0.319 0.137 -0.124
0.317 0.139 -0.123
0.315 0.142 -0.122
0.306 0.141 -0.119
0.304 0.143 -0.119
0.307 0.148 -0.120
0.306 0.151 -0.120
0.312 0.157 -0.123
0.305 0.157 -0.120
0.299 0.160 -0.118
0.310 0.173 -0.123
0.325 -0.435 -0.153
0.333 -0.440 -0.156
0.334 -0.436 -0.156
0.329 -0.423 -0.153
0.335 -0.426 -0.156
0.336 -0.421 -0.155
0.335 -0.414 -0.154
0.334 -0.407 -0.153
0.336 -0.404 -0.153
0.336 -0.399 -0.153
0.333 -0.389 -0.151
0.327 -0.377 -0.147
0.326 -0.370 -0.146
0.328 -0.366 -0.146
0.326 -0.359 -0.145
0.325 -0.352 -0.143
0.327 -0.350 -0.144
0.324 -0.341 -0.142
0.321 -0.333 -0.140
0.320 -0.326 -0.139
0.320 -0.321 -0.138
0.320 -0.316 -0.137
0.321 -0.312 -0.137
0.322 -0.308 -0.137
0.317 -0.299 -0.135
0.316 -0.293 -0.133
0.317 -0.289 -0.133
0.319 -0.287 -0.133
0.319 -0.283 -0.133
0.320 -0.279 -0.133
0.317 -0.271 -0.131
0.315 -0.265 -0.130
0.314 -0.260 -0.129
0.312 -0.255 -0.128
0.309 -0.248 -0.126
0.308 -0.243 -0.125
0.308 -0.239 -0.124
0.307 -0.234 -0.124
0.306 -0.230 -0.123
0.307 -0.226 -0.123
0.308 -0.223 -0.123
0.309 -0.220 -0.123
0.301 -0.211 -0.119
0.300 -0.207 -0.119
0.297 -0.201 -0.117
0.298 -0.198 -0.117
0.299 -0.195 -0.117
0.210 -0.127 -0.082
0.208 -0.124 -0.080
0.209 -0.122 -0.080
0.217 -0.124 -0.083
0.252 -0.141 -0.097
0.245 -0.134 -0.094
0.245 -0.132 -0.094
0.246 -0.130 -0.094
0.256 -0.133 -0.098
0.304 -0.154 -0.115
0.307 -0.152 -0.116
0.310 -0.150 -0.117
0.313 -0.149 -0.118
0.319 -0.148 -0.120
0.323 -0.146 -0.121
0.326 -0.145 -0.123
0.328 -0.142 -0.123
0.317 -0.134 -0.119
0.341 -0.130 -0.127
0.353 -0.132 -0.131
0.358 -0.130 -0.133
0.363 -0.128 -0.135
0.368 -0.126 -0.136
0.371 -0.124 -0.137
0.374 -0.121 -0.138
0.381 -0.119 -0.140
0.396 -0.120 -0.146
0.401 -0.118 -0.148
0.413 -0.118 -0.152
0.427 -0.117 -0.157
0.429 -0.114 -0.157
0.373 -0.078 -0.136
0.291 -0.052 -0.106
0.293 -0.050 -0.107
0.282 -0.045 -0.102
0.285 -0.043 -0.104
0.285 -0.041 -0.103
0.294 -0.039 -0.107
0.300 -0.037 -0.109
0.300 -0.035 -0.109
0.294 -0.031 -0.107
0.294 -0.028 -0.107
0.297 -0.026 -0.108
0.296 -0.023 -0.107
0.290 -0.020 -0.105
0.290 -0.017 -0.105
0.296 -0.015 -0.107
0.299 -0.012 -0.108
0.299 -0.010 -0.108
0.299 -0.007 -0.108
0.303 -0.004 -0.110
0.299 -0.001 -0.108
0.289 0.001 -0.105
0.284 0.004 -0.103
0.282 0.007 -0.102
0.287 0.009 -0.104
0.315 0.013 -0.114
0.330 0.017 -0.120
0.313 0.019 -0.114
0.299 0.021 -0.109
0.313 0.025 -0.114
0.319 0.028 -0.116
0.318 0.031 -0.116
0.317 0.034 -0.115
0.304 0.035 -0.111
0.293 0.037 -0.107
0.299 0.040 -0.109
0.307 0.044 -0.112
0.312 0.048 -0.114
0.313 0.051 -0.114
0.309 0.053 -0.113
0.312 0.057 -0.114
0.319 0.061 -0.117
0.310 0.062 -0.114
0.313 0.066 -0.115
0.324 0.071 -0.119
0.322 0.074 -0.118
0.325 0.077 -0.119
0.326 0.081 -0.120
0.330 0.085 -0.121
0.315 0.084 -0.116
0.308 0.085 -0.113
0.295 0.085 -0.109
0.283 0.084 -0.105
0.296 0.091 -0.110
0.312 0.099 -0.116
0.324 0.106 -0.120
0.317 0.107 -0.118
0.312 0.108 -0.116
0.311 0.111 -0.116
0.304 0.111 -0.114
0.317 0.119 -0.118
0.318 0.123 -0.119
0.326 0.129 -0.122
0.325 0.132 -0.122
0.328 0.137 -0.123
0.325 0.139 -0.123
0.325 0.143 -0.123
0.331 0.149 -0.125
0.330 0.151 -0.125
0.320 0.151 -0.122
0.314 0.151 -0.120
0.318 0.156 -0.121
0.339 0.171 -0.130
0.357 0.199 -0.138
0.325 -0.435 -0.149
0.331 -0.437 -0.151
0.328 -0.427 -0.149
0.330 -0.424 -0.149
0.332 -0.421 -0.150
0.332 -0.416 -0.150
0.332 -0.410 -0.149
0.333 -0.406 -0.149
0.334 -0.401 -0.148
0.329 -0.389 -0.145
0.333 -0.388 -0.146
0.325 -0.374 -0.142
0.323 -0.366 -0.141
0.327 -0.365 -0.142
0.326 -0.358 -0.141
0.327 -0.354 -0.141
0.324 -0.346 -0.139
0.323 -0.339 -0.138
0.321 -0.332 -0.136
0.321 -0.327 -0.135
0.321 -0.321 -0.135
0.320 -0.316 -0.134
0.322 -0.313 -0.134
0.321 -0.307 -0.133
0.316 -0.297 -0.130
0.314 -0.291 -0.129
0.320 -0.292 -0.131
0.318 -0.286 -0.130
0.317 -0.280 -0.128
0.317 -0.275 -0.128
0.314 -0.269 -0.126
0.314 -0.264 -0.126
0.313 -0.259 -0.125
0.310 -0.253 -0.123
0.308 -0.247 -0.122
0.308 -0.243 -0.122
0.307 -0.238 -0.121
0.305 -0.233 -0.120
0.306 -0.229 -0.120
0.305 -0.225 -0.119
0.306 -0.221 -0.119
0.304 -0.216 -0.118
0.302 -0.211 -0.117
0.297 -0.204 -0.114
0.294 -0.199 -0.113
0.294 -0.195 -0.113
0.293 -0.191 -0.112
0.283 -0.181 -0.108
0.208 -0.126 -0.079
0.207 -0.123 -0.078
0.207 -0.121 -0.078
0.216 -0.123 -0.081
0.245 -0.137 -0.092
0.244 -0.134 -0.091
0.244 -0.132 -0.091
0.246 -0.129 -0.091
0.251 -0.130 -0.093
0.304 -0.154 -0.112
0.307 -0.152 -0.113
0.310 -0.150 -0.114
0.313 -0.148 -0.115
0.318 -0.148 -0.117
0.321 -0.146 -0.118
0.323 -0.143 -0.118
0.326 -0.141 -0.119
0.352 -0.131 -0.127
0.356 -0.129 -0.129
0.363 -0.128 -0.131
0.368 -0.126 -0.132
0.371 -0.124 -0.134
0.375 -0.121 -0.135
0.391 -0.123 -0.140
0.401 -0.122 -0.144
0.407 -0.120 -0.146
0.413 -0.117 -0.148
0.429 -0.118 -0.153
0.438 -0.116 -0.157
0.426 -0.109 -0.152
0.372 -0.077 -0.132
0.280 -0.048 -0.099
0.285 -0.046 -0.101
0.285 -0.043 -0.101
0.294 -0.042 -0.104
0.297 -0.040 -0.105
0.298 -0.037 -0.105
0.296 -0.034 -0.105
0.289 -0.031 -0.102
0.291 -0.028 -0.103
0.296 -0.026 -0.105
0.298 -0.023 -0.105
0.295 -0.020 -0.104
0.295 -0.018 -0.104
0.298 -0.015 -0.105
0.296 -0.012 -0.105
0.294 -0.009 -0.104
0.287 -0.007 -0.101
0.289 -0.004 -0.102
0.283 -0.001 -0.100
0.288 0.001 -0.102
0.301 0.004 -0.106
0.303 0.007 -0.107
0.303 0.010 -0.107
0.329 0.014 -0.116
0.332 0.017 -0.117
0.324 0.019 -0.114
0.315 0.022 -0.111
0.314 0.025 -0.111
0.331 0.029 -0.117
0.321 0.031 -0.114
0.310 0.033 -0.110
0.313 0.036 -0.111
0.316 0.039 -0.112
0.311 0.042 -0.110
0.307 0.044 -0.109
0.318 0.049 -0.113
0.318 0.052 -0.113
0.317 0.054 -0.113
0.318 0.058 -0.113
0.311 0.059 -0.110
0.295 0.059 -0.105
0.305 0.064 -0.109
0.320 0.070 -0.114
0.328 0.075 -0.117
0.325 0.077 -0.116
0.325 0.080 -0.116
0.330 0.085 -0.118
0.327 0.087 -0.117
0.315 0.087 -0.113
0.302 0.087 -0.109
0.300 0.089 -0.108
0.294 0.090 -0.106
0.313 0.099 -0.113
0.317 0.103 -0.114
0.310 0.104 -0.112
0.302 0.104 -0.109
0.302 0.107 -0.109
0.317 0.116 -0.115
0.319 0.120 -0.116
0.325 0.126 -0.119
0.319 0.139 -0.117
0.323 0.145 -0.119
0.320 -0.433 -0.143
0.324 -0.433 -0.144
0.322 -0.425 -0.143
0.326 -0.425 -0.145
0.329 -0.422 -0.145
0.331 -0.420 -0.145
0.327 -0.409 -0.143
0.328 -0.405 -0.143
0.330 -0.401 -0.143
0.330 -0.395 -0.142
0.334 -0.394 -0.143
0.324 -0.377 -0.139
0.320 -0.368 -0.136
0.321 -0.363 -0.136
0.322 -0.359 -0.136
0.327 -0.359 -0.137
0.326 -0.352 -0.136
0.326 -0.346 -0.135
0.322 -0.337 -0.133
0.321 -0.331 -0.132
0.319 -0.324 -0.131
0.319 -0.319 -0.130
0.320 -0.315 -0.130
0.320 -0.310 -0.129
0.318 -0.303 -0.128
0.316 -0.297 -0.127
0.311 -0.288 -0.124
0.312 -0.284 -0.124
0.314 -0.281 -0.124
0.316 -0.278 -0.124
0.313 -0.271 -0.123
0.311 -0.265 -0.121
0.310 -0.261 -0.121
0.311 -0.257 -0.121
0.310 -0.252 -0.120
0.309 -0.247 -0.119
0.308 -0.242 -0.118
0.304 -0.235 -0.116
0.305 -0.232 -0.116
0.305 -0.228 -0.116
0.305 -0.224 -0.116
0.301 -0.218 -0.114
0.301 -0.213 -0.113
0.299 -0.208 -0.112
0.293 -0.201 -0.110
0.294 -0.198 -0.110
0.293 -0.194 -0.109
0.293 -0.191 -0.109
0.208 -0.125 -0.076
0.207 -0.123 -0.076
0.207 -0.121 -0.076
0.209 -0.119 -0.076
0.246 -0.137 -0.089
0.244 -0.134 -0.088
0.244 -0.131 -0.088
0.246 -0.129 -0.089
0.248 -0.128 -0.089
0.302 -0.153 -0.109
0.308 -0.152 -0.110
0.311 -0.150 -0.111
0.315 -0.149 -0.113
0.319 -0.148 -0.114
0.319 -0.144 -0.114
0.320 -0.142 -0.114
0.325 -0.140 -0.115
0.271 -0.111 -0.096
0.264 -0.106 -0.093
0.317 -0.121 -0.112
0.333 -0.124 -0.117
0.355 -0.128 -0.125
0.359 -0.126 -0.126
0.366 -0.125 -0.128
0.371 -0.123 -0.130
0.384 -0.124 -0.134
0.396 -0.124 -0.138
0.404 -0.122 -0.141
0.408 -0.120 -0.142
0.416 -0.118 -0.145
0.429 -0.118 -0.149
0.439 -0.116 -0.152
0.431 -0.110 -0.150
0.371 -0.081 -0.128
0.373 -0.078 -0.129
0.374 -0.074 -0.129
0.359 -0.068 -0.124
0.291 -0.050 -0.100
0.283 -0.046 -0.098
0.292 -0.044 -0.100
0.295 -0.042 -0.101
0.298 -0.040 -0.103
0.300 -0.037 -0.103
0.297 -0.034 -0.102
0.298 -0.031 -0.102
0.289 -0.028 -0.099
0.297 -0.026 -0.102
0.296 -0.023 -0.102
0.298 -0.021 -0.102
0.297 -0.018 -0.102
0.305 -0.015 -0.105
0.297 -0.012 -0.102
0.293 -0.009 -0.101
0.283 -0.006 -0.097
0.282 -0.004 -0.097
0.279 -0.001 -0.096
0.299 0.001 -0.102
0.311 0.004 -0.107
0.305 0.007 -0.105
0.305 0.010 -0.105
0.315 0.013 -0.108
0.319 0.016 -0.110
0.315 0.019 -0.108
0.307 0.021 -0.105
0.321 0.025 -0.110
0.321 0.028 -0.110
0.321 0.031 -0.110
0.316 0.034 -0.109
0.317 0.037 -0.109
0.324 0.040 -0.112
0.318 0.043 -0.110
0.313 0.045 -0.108
0.320 0.049 -0.110
0.325 0.053 -0.112
0.316 0.054 -0.109
0.319 0.058 -0.110
0.303 0.058 -0.105
0.298 0.059 -0.103
0.302 0.063 -0.105
0.323 0.071 -0.112
0.332 0.076 -0.115
0.324 0.077 -0.112
0.314 0.078 -0.109
0.311 0.083 -0.108
0.297 0.082 -0.104
0.305 0.087 -0.107
0.307 0.091 -0.108
0.305 0.093 -0.107
0.305 0.096 -0.107
0.315 0.102 -0.111
0.311 0.104 -0.110
0.302 0.104 -0.106
0.311 0.110 -0.110
0.321 0.117 -0.113
0.328 0.123 -0.116
0.321 0.124 -0.114
0.311 0.136 -0.111
0.314 0.140 -0.113
0.354 0.193 -0.129
0.355 0.206 -0.131
0.325 -0.439 -0.141
0.324 -0.433 -0.141
0.322 -0.425 -0.139
0.324 -0.421 -0.139
0.326 -0.418 -0.139
0.325 -0.411 -0.138
0.325 -0.406 -0.138
0.326 -0.401 -0.138
0.326 -0.396 -0.137
0.328 -0.393 -0.138
0.326 -0.385 -0.136
0.328 -0.382 -0.136
0.319 -0.366 -0.132
0.320 -0.361 -0.132
0.324 -0.360 -0.133
0.323 -0.353 -0.132
0.325 -0.350 -0.132
0.325 -0.345 -0.131
0.322 -0.336 -0.129
0.318 -0.328 -0.127
0.316 -0.321 -0.126
0.314 -0.314 -0.125
0.316 -0.311 -0.125
0.316 -0.306 -0.124
0.316 -0.302 -0.124
0.313 -0.293 -0.122
0.309 -0.285 -0.120
0.310 -0.282 -0.120
0.314 -0.280 -0.121
0.313 -0.276 -0.120
0.311 -0.269 -0.119
0.308 -0.262 -0.117
0.307 -0.258 -0.116
0.307 -0.253 -0.116
0.308 -0.250 -0.116
0.308 -0.246 -0.115
0.306 -0.240 -0.114
0.305 -0.235 -0.113
0.304 -0.231 -0.112
0.304 -0.227 -0.112
0.299 -0.219 -0.110
0.298 -0.215 -0.109
0.295 -0.209 -0.108
0.286 -0.200 -0.104
0.229 -0.146 -0.082
0.227 -0.142 -0.081
0.231 -0.142 -0.082
0.209 -0.126 -0.074
0.207 -0.123 -0.074
0.209 -0.121 -0.074
0.210 -0.119 -0.074
0.238 -0.133 -0.084
0.244 -0.134 -0.086
0.244 -0.131 -0.086
0.243 -0.128 -0.085
0.247 -0.127 -0.087
0.307 -0.151 -0.107
0.310 -0.150 -0.108
0.315 -0.149 -0.109
0.316 -0.146 -0.110
0.318 -0.144 -0.110
0.319 -0.141 -0.110
0.326 -0.141 -0.113
0.279 -0.115 -0.096
0.280 -0.112 -0.096
0.288 -0.113 -0.099
0.302 -0.115 -0.104
0.355 -0.128 -0.121
0.358 -0.126 -0.122
0.362 -0.123 -0.123
0.371 -0.123 -0.126
0.382 -0.123 -0.130
0.396 -0.124 -0.134
0.405 -0.122 -0.137
0.411 -0.120 -0.139
0.416 -0.118 -0.141
0.423 -0.116 -0.143
0.426 -0.113 -0.144
0.423 -0.108 -0.143
0.411 -0.101 -0.139
0.384 -0.083 -0.129
0.381 -0.079 -0.128
0.371 -0.074 -0.124
0.293 -0.053 -0.098
0.284 -0.048 -0.095
0.288 -0.046 -0.096
0.291 -0.044 -0.097
0.293 -0.042 -0.098
0.290 -0.039 -0.097
0.295 -0.037 -0.099
0.301 -0.035 -0.101
0.301 -0.032 -0.101
0.301 -0.029 -0.100
0.283 -0.025 -0.095
0.291 -0.023 -0.097
0.292 -0.020 -0.097
0.299 -0.018 -0.100
0.296 -0.015 -0.099
0.306 -0.013 -0.102
0.290 -0.009 -0.097
0.287 -0.007 -0.096
0.286 -0.004 -0.095
0.288 -0.001 -0.096
0.311 0.001 -0.104
0.314 0.004 -0.105
0.307 0.007 -0.102
0.301 0.010 -0.100
0.304 0.013 -0.102
0.302 0.015 -0.101
0.307 0.018 -0.102
0.303 0.021 -0.101
0.294 0.023 -0.098
0.320 0.028 -0.107
0.319 0.031 -0.107
0.315 0.033 -0.105
0.315 0.036 -0.105
0.316 0.039 -0.106
0.323 0.043 -0.108
0.316 0.045 -0.106
0.311 0.047 -0.104
0.314 0.051 -0.106
0.319 0.055 -0.107
0.320 0.058 -0.107
0.308 0.059 -0.104
0.301 0.060 -0.101
0.305 0.064 -0.103
0.315 0.069 -0.106
0.324 0.074 -0.109
0.325 0.077 -0.110
0.312 0.077 -0.105
0.307 0.079 -0.104
0.300 0.080 -0.102
0.287 0.079 -0.097
0.304 0.087 -0.103
0.316 0.093 -0.108
0.314 0.096 -0.107
0.312 0.098 -0.106
0.309 0.100 -0.106
0.319 0.107 -0.109
0.311 0.107 -0.106
0.314 0.111 -0.108
0.320 0.117 -0.110
0.321 0.120 -0.110
0.316 0.122 -0.109
0.315 0.137 -0.110
0.317 0.142 -0.110
0.345 0.184 -0.122
0.326 -0.440 -0.138
0.324 -0.432 -0.137
0.320 -0.420 -0.134
0.322 -0.418 -0.134
0.323 -0.414 -0.134
0.324 -0.409 -0.134
0.325 -0.405 -0.134
0.324 -0.399 -0.133
0.324 -0.393 -0.133
0.324 -0.387 -0.132
0.326 -0.383 -0.132
0.323 -0.375 -0.130
0.321 -0.367 -0.129
0.321 -0.361 -0.128
0.322 -0.357 -0.128
0.323 -0.353 -0.128
0.321 -0.345 -0.126
0.320 -0.339 -0.125
0.315 -0.329 -0.123
0.313 -0.322 -0.122
0.313 -0.317 -0.121
0.311 -0.310 -0.120
0.311 -0.306 -0.119
0.316 -0.305 -0.120
0.315 -0.299 -0.119
0.313 -0.293 -0.118
0.310 -0.285 -0.117
0.311 -0.282 -0.116
0.312 -0.278 -0.116
0.310 -0.272 -0.115
0.308 -0.266 -0.114
0.307 -0.261 -0.113
0.307 -0.257 -0.113
0.306 -0.252 -0.112
0.306 -0.248 -0.112
0.306 -0.244 -0.111
0.307 -0.240 -0.111
0.305 -0.235 -0.110
0.303 -0.230 -0.109
0.296 -0.221 -0.106
0.297 -0.218 -0.106
0.295 -0.213 -0.105
0.209 -0.143 -0.074
0.206 -0.138 -0.072
0.207 -0.137 -0.073
0.214 -0.139 -0.075
0.223 -0.142 -0.078
0.226 -0.141 -0.079
0.230 -0.141 -0.080
0.211 -0.127 -0.073
0.207 -0.122 -0.072
0.209 -0.121 -0.072
0.210 -0.119 -0.072
0.219 -0.122 -0.075
0.243 -0.133 -0.083
0.244 -0.131 -0.083
0.244 -0.128 -0.083
0.245 -0.126 -0.083
0.250 -0.126 -0.085
0.303 -0.150 -0.103
0.310 -0.150 -0.105
0.313 -0.148 -0.106
0.316 -0.146 -0.106
0.318 -0.143 -0.107
0.320 -0.141 -0.107
0.324 -0.140 -0.109
0.289 -0.119 -0.096
0.284 -0.114 -0.095
0.291 -0.114 -0.097
0.287 -0.109 -0.095
0.355 -0.128 -0.118
0.357 -0.125 -0.118
0.359 -0.123 -0.119
0.366 -0.121 -0.121
0.384 -0.124 -0.127
0.394 -0.123 -0.130
0.400 -0.121 -0.132
0.410 -0.120 -0.135
0.414 -0.117 -0.136
0.418 -0.114 -0.137
0.425 -0.112 -0.139
0.428 -0.109 -0.140
0.418 -0.102 -0.137
0.391 -0.085 -0.128
0.375 -0.078 -0.122
0.367 -0.073 -0.120
0.356 -0.067 -0.116
0.289 -0.052 -0.094
0.283 -0.048 -0.092
0.288 -0.046 -0.093
0.293 -0.044 -0.095
0.290 -0.041 -0.094
0.289 -0.038 -0.094
0.289 -0.036 -0.094
0.296 -0.034 -0.096
0.300 -0.032 -0.097
0.298 -0.029 -0.097
0.296 -0.026 -0.096
0.295 -0.023 -0.096
0.304 -0.021 -0.099
0.297 -0.018 -0.096
0.304 -0.015 -0.099
0.294 -0.007 -0.095
0.296 -0.004 -0.096
0.329 -0.001 -0.107
0.328 0.002 -0.106
0.316 0.004 -0.102
0.310 0.007 -0.100
0.305 0.010 -0.099
0.301 0.012 -0.098
0.300 0.015 -0.097
0.307 0.018 -0.099
0.307 0.021 -0.100
0.301 0.024 -0.098
0.295 0.026 -0.096
0.311 0.030 -0.101
0.316 0.033 -0.103
0.316 0.036 -0.103
0.315 0.039 -0.103
0.326 0.043 -0.106
0.322 0.046 -0.105
0.314 0.048 -0.102
0.307 0.050 -0.100
0.317 0.054 -0.103
0.316 0.057 -0.103
0.320 0.061 -0.105
0.306 0.061 -0.100
0.307 0.064 -0.101
0.313 0.068 -0.103
0.308 0.070 -0.101
0.303 0.072 -0.099
0.325 0.080 -0.107
0.320 0.082 -0.105
0.311 0.083 -0.102
0.311 0.086 -0.102
0.315 0.090 -0.104
0.320 0.094 -0.106
0.324 0.099 -0.107
0.315 0.099 -0.104
0.317 0.103 -0.105
0.316 0.105 -0.105
0.324 0.111 -0.108
0.321 0.114 -0.107
0.321 0.117 -0.107
0.322 0.120 -0.108
0.311 0.119 -0.104
0.344 0.153 -0.116
0.347 0.189 -0.120
0.323 -0.441 -0.133
0.324 -0.437 -0.133
0.320 -0.426 -0.131
0.318 -0.418 -0.129
0.322 -0.417 -0.130
0.324 -0.414 -0.131
0.324 -0.409 -0.130
0.324 -0.403 -0.130
0.323 -0.396 -0.129
0.321 -0.388 -0.127
0.321 -0.383 -0.127
0.322 -0.378 -0.126
0.322 -0.373 -0.126
0.321 -0.366 -0.125
0.321 -0.361 -0.124
0.322 -0.357 -0.124
0.317 -0.346 -0.122
0.318 -0.342 -0.122
0.316 -0.334 -0.120
0.310 -0.323 -0.117
0.309 -0.317 -0.116
0.310 -0.313 -0.116
0.311 -0.309 -0.116
0.312 -0.306 -0.116
0.312 -0.301 -0.115
0.313 -0.297 -0.115
0.312 -0.291 -0.114
0.311 -0.286 -0.113
0.309 -0.280 -0.112
0.306 -0.273 -0.111
0.306 -0.269 -0.110
0.306 -0.264 -0.110
0.306 -0.260 -0.110
0.307 -0.256 -0.109
0.307 -0.252 -0.109
0.305 -0.247 -0.108
0.306 -0.244 -0.108
0.306 -0.240 -0.108
0.304 -0.234 -0.107
0.297 -0.225 -0.104
0.296 -0.220 -0.103
0.296 -0.217 -0.103
0.290 -0.208 -0.100
0.210 -0.143 -0.072
0.209 -0.140 -0.071
0.208 -0.137 -0.071
0.212 -0.137 -0.072
0.223 -0.142 -0.076
0.225 -0.140 -0.076
0.227 -0.139 -0.077
0.225 -0.135 -0.076
0.208 -0.123 -0.070
0.208 -0.121 -0.070
0.210 -0.119 -0.070
0.213 -0.119 -0.071
0.239 -0.131 -0.079
0.243 -0.130 -0.081
0.244 -0.128 -0.081
0.244 -0.125 -0.081
0.247 -0.124 -0.081
0.302 -0.149 -0.099
0.308 -0.149 -0.101
0.313 -0.148 -0.103
0.316 -0.146 -0.103
0.318 -0.143 -0.104
0.324 -0.143 -0.105
0.316 -0.136 -0.103
0.281 -0.115 -0.091
0.286 -0.115 -0.093
0.280 -0.106 -0.090
0.293 -0.108 -0.094
0.353 -0.127 -0.113
0.354 -0.124 -0.114
0.356 -0.121 -0.114
0.369 -0.122 -0.118
0.385 -0.124 -0.123
0.392 -0.122 -0.125
0.398 -0.120 -0.127
0.402 -0.118 -0.128
0.405 -0.115 -0.129
0.411 -0.112 -0.131
0.431 -0.114 -0.137
0.436 -0.111 -0.139
0.429 -0.105 -0.136
0.375 -0.081 -0.119
0.382 -0.079 -0.121
0.369 -0.073 -0.117
0.357 -0.067 -0.113
0.282 -0.051 -0.089
0.283 -0.048 -0.089
0.293 -0.047 -0.092
0.291 -0.044 -0.092
0.292 -0.041 -0.092
0.290 -0.039 -0.091
0.294 -0.036 -0.093
0.292 -0.033 -0.092
0.297 -0.031 -0.094
0.301 -0.029 -0.095
0.299 -0.026 -0.094
0.297 -0.023 -0.093
0.296 -0.020 -0.093
0.299 -0.018 -0.094
0.300 -0.015 -0.094
0.309 -0.013 -0.097
0.307 -0.010 -0.097
0.330 -0.008 -0.104
0.326 -0.001 -0.102
0.319 0.001 -0.100
0.297 0.004 -0.093
0.308 0.007 -0.097
0.306 0.010 -0.096
0.304 0.013 -0.096
0.308 0.016 -0.097
0.314 0.019 -0.099
0.318 0.022 -0.100
0.314 0.024 -0.099
0.308 0.027 -0.097
0.314 0.030 -0.099
0.320 0.034 -0.101
0.320 0.037 -0.101
0.321 0.040 -0.101
0.323 0.043 -0.102
0.326 0.046 -0.103
0.318 0.048 -0.101
0.312 0.050 -0.099
0.305 0.052 -0.097
0.318 0.057 -0.101
0.313 0.059 -0.099
0.308 0.061 -0.098
0.308 0.064 -0.098
0.312 0.068 -0.099
0.319 0.072 -0.101
0.316 0.075 -0.101
0.323 0.079 -0.103
0.325 0.083 -0.104
0.329 0.087 -0.105
0.319 0.088 -0.102
0.322 0.092 -0.103
0.319 0.097 -0.102
0.314 0.099 -0.101
0.314 0.102 -0.101
0.325 0.108 -0.105
0.315 0.108 -0.102
0.314 0.111 -0.102
0.319 0.116 -0.103
0.325 0.122 -0.105
0.321 0.123 -0.104
0.356 0.158 -0.117
0.344 0.157 -0.113
0.353 0.188 -0.118
0.365 0.211 -0.123
0.314 -0.428 -0.125
0.320 -0.431 -0.127
0.316 -0.421 -0.125
0.318 -0.417 -0.125
0.320 -0.415 -0.126
0.321 -0.410 -0.125
0.320 -0.403 -0.125
0.321 -0.399 -0.124
0.320 -0.393 -0.124
0.320 -0.386 -0.123
0.318 -0.379 -0.122
0.319 -0.374 -0.121
0.318 -0.367 -0.120
0.317 -0.362 -0.120
0.321 -0.360 -0.120
0.320 -0.354 -0.120
0.318 -0.347 -0.118
0.318 -0.341 -0.118
0.318 -0.336 -0.117
0.307 -0.320 -0.113
0.307 -0.315 -0.112
0.310 -0.312 -0.112
0.310 -0.308 -0.112
0.309 -0.302 -0.111
0.309 -0.298 -0.111
0.310 -0.294 -0.111
0.311 -0.290 -0.110
0.308 -0.283 -0.109
0.306 -0.277 -0.108
0.303 -0.270 -0.106
0.303 -0.266 -0.106
0.305 -0.263 -0.106
0.305 -0.259 -0.106
0.305 -0.254 -0.105
0.303 -0.248 -0.104
0.305 -0.246 -0.105
0.305 -0.242 -0.104
0.304 -0.238 -0.104
0.298 -0.229 -0.101
0.297 -0.225 -0.101
0.297 -0.221 -0.100
0.296 -0.216 -0.099
0.286 -0.206 -0.096
0.210 -0.143 -0.070
0.207 -0.139 -0.069
0.208 -0.137 -0.069
0.210 -0.136 -0.069
0.223 -0.141 -0.073
0.225 -0.140 -0.074
0.226 -0.138 -0.074
0.228 -0.137 -0.074
0.208 -0.123 -0.068
0.208 -0.120 -0.067
0.209 -0.119 -0.068
0.213 -0.118 -0.069
0.240 -0.131 -0.077
0.242 -0.130 -0.078
0.243 -0.127 -0.078
0.244 -0.125 -0.078
0.246 -0.124 -0.079
0.310 -0.149 -0.099
0.314 -0.148 -0.100
0.316 -0.146 -0.100
0.320 -0.144 -0.101
0.319 -0.141 -0.101
0.316 -0.136 -0.100
0.291 -0.122 -0.092
0.283 -0.116 -0.089
0.283 -0.110 -0.089
0.281 -0.107 -0.088
0.283 -0.105 -0.088
0.352 -0.127 -0.110
0.353 -0.124 -0.110
0.359 -0.122 -0.112
0.375 -0.124 -0.117
0.384 -0.123 -0.119
0.392 -0.122 -0.122
0.398 -0.120 -0.123
0.402 -0.117 -0.124
0.407 -0.115 -0.126
0.414 -0.113 -0.128
0.426 -0.112 -0.131
0.438 -0.111 -0.135
0.436 -0.107 -0.134
0.387 -0.084 -0.119
0.387 -0.080 -0.119
0.375 -0.074 -0.115
0.283 -0.051 -0.087
0.291 -0.049 -0.089
0.293 -0.047 -0.090
0.293 -0.044 -0.090
0.290 -0.041 -0.089
0.300 -0.040 -0.092
0.298 -0.037 -0.091
0.292 -0.033 -0.089
0.294 -0.031 -0.090
0.302 -0.029 -0.092
0.300 -0.026 -0.091
0.294 -0.023 -0.090
0.292 -0.020 -0.089
0.303 -0.018 -0.092
0.312 -0.016 -0.095
0.315 -0.013 -0.096
0.330 -0.011 -0.100
0.335 -0.008 -0.102
0.345 -0.005 -0.105
0.294 0.001 -0.090
0.294 0.004 -0.090
0.301 0.007 -0.092
0.310 0.010 -0.095
0.313 0.013 -0.095
0.318 0.016 -0.097
0.320 0.019 -0.098
0.321 0.022 -0.098
0.318 0.025 -0.097
0.315 0.027 -0.096
0.319 0.031 -0.098
0.326 0.034 -0.100
0.326 0.037 -0.100
0.321 0.040 -0.098
0.323 0.043 -0.099
0.324 0.046 -0.099
0.324 0.049 -0.099
0.315 0.051 -0.097
0.315 0.054 -0.097
0.315 0.057 -0.097
0.317 0.060 -0.098
0.311 0.062 -0.096
0.313 0.065 -0.096
0.320 0.070 -0.099
0.312 0.071 -0.096
0.318 0.075 -0.098
0.325 0.080 -0.100
0.323 0.083 -0.100
0.321 0.085 -0.100
0.322 0.088 -0.100
0.319 0.091 -0.099
0.312 0.092 -0.097
0.315 0.096 -0.098
0.328 0.106 -0.102
0.331 0.110 -0.103
0.320 0.110 -0.100
0.311 0.110 -0.098
0.323 0.117 -0.101
0.330 0.123 -0.104
0.345 0.153 -0.110
0.341 0.155 -0.109
0.360 0.187 -0.116
0.355 0.188 -0.115
0.378 0.222 -0.124
0.316 -0.430 -0.122
0.315 -0.424 -0.121
0.315 -0.418 -0.121
0.316 -0.414 -0.121
0.318 -0.412 -0.121
0.319 -0.407 -0.121
0.317 -0.399 -0.120
0.317 -0.394 -0.119
0.317 -0.389 -0.119
0.318 -0.384 -0.118
0.317 -0.378 -0.118
0.318 -0.372 -0.117
0.316 -0.365 -0.116
0.314 -0.357 -0.115
0.314 -0.352 -0.114
0.316 -0.349 -0.114
0.317 -0.345 -0.114
0.316 -0.338 -0.113
0.309 -0.326 -0.110
0.307 -0.319 -0.109
0.308 -0.316 -0.109
0.310 -0.312 -0.109
0.307 -0.305 -0.108
0.306 -0.299 -0.107
0.306 -0.295 -0.106
0.308 -0.291 -0.106
0.305 -0.284 -0.105
0.306 -0.280 -0.105
0.305 -0.276 -0.104
0.304 -0.270 -0.103
0.304 -0.266 -0.103
0.306 -0.263 -0.103
0.308 -0.261 -0.104
0.301 -0.251 -0.101
0.301 -0.247 -0.100
0.301 -0.243 -0.100
0.303 -0.240 -0.100
0.300 -0.234 -0.099
0.298 -0.229 -0.098
0.296 -0.224 -0.097
0.296 -0.220 -0.097
0.289 -0.211 -0.094
0.291 -0.209 -0.094
0.210 -0.143 -0.068
0.208 -0.139 -0.067
0.208 -0.137 -0.067
0.210 -0.136 -0.067
0.217 -0.137 -0.069
0.224 -0.140 -0.071
0.227 -0.139 -0.072
0.228 -0.137 -0.072
0.210 -0.124 -0.066
0.208 -0.120 -0.065
0.208 -0.118 -0.065
0.211 -0.117 -0.066
0.241 -0.131 -0.075
0.242 -0.129 -0.075
0.243 -0.127 -0.075
0.244 -0.125 -0.076
0.246 -0.123 -0.076
0.255 -0.125 -0.079
0.309 -0.149 -0.095
0.313 -0.147 -0.096
0.314 -0.145 -0.097
0.317 -0.142 -0.097
0.321 -0.141 -0.098
0.325 -0.139 -0.099
0.311 -0.130 -0.095
0.284 -0.116 -0.086
0.287 -0.112 -0.087
0.279 -0.106 -0.085
0.280 -0.103 -0.085
0.351 -0.126 -0.106
0.355 -0.124 -0.107
0.362 -0.123 -0.109
0.377 -0.124 -0.113
0.382 -0.123 -0.115
0.389 -0.121 -0.117
0.398 -0.120 -0.120
0.403 -0.118 -0.121
0.408 -0.115 -0.122
0.418 -0.114 -0.125
0.425 -0.112 -0.127
0.433 -0.110 -0.129
0.436 -0.106 -0.130
0.434 -0.102 -0.130
0.398 -0.086 -0.119
0.394 -0.082 -0.117
0.391 -0.077 -0.116
0.305 -0.054 -0.090
0.294 -0.050 -0.087
0.295 -0.047 -0.087
0.284 -0.043 -0.084
0.287 -0.041 -0.085
0.296 -0.039 -0.088
0.303 -0.037 -0.090
0.294 -0.034 -0.087
0.299 -0.031 -0.088
0.304 -0.029 -0.090
0.300 -0.026 -0.089
0.289 -0.022 -0.085
0.294 -0.020 -0.087
0.312 -0.018 -0.092
0.326 -0.016 -0.096
0.330 -0.014 -0.098
0.329 -0.010 -0.097
0.338 -0.008 -0.100
0.332 -0.005 -0.098
0.317 -0.001 -0.094
0.297 0.001 -0.088
0.296 0.004 -0.087
0.310 0.007 -0.092
0.321 0.010 -0.095
0.323 0.013 -0.095
0.320 0.016 -0.095
0.322 0.019 -0.095
0.318 0.022 -0.094
0.316 0.025 -0.093
0.304 0.026 -0.090
0.304 0.029 -0.090
0.305 0.032 -0.090
0.305 0.035 -0.090
0.305 0.038 -0.091
0.307 0.041 -0.091
0.311 0.044 -0.092
0.316 0.048 -0.094
0.320 0.051 -0.095
0.315 0.054 -0.094
0.317 0.057 -0.094
0.318 0.060 -0.095
0.315 0.063 -0.094
0.314 0.065 -0.094
0.310 0.067 -0.092
0.311 0.071 -0.093
0.314 0.074 -0.094
0.323 0.079 -0.097
0.318 0.081 -0.095
0.313 0.083 -0.094
0.314 0.086 -0.094
0.318 0.090 -0.096
0.318 0.093 -0.096
0.310 0.094 -0.093
0.315 0.099 -0.095
0.329 0.106 -0.100
0.329 0.109 -0.099
0.324 0.111 -0.098
0.314 0.111 -0.095
0.310 0.112 -0.094
0.327 0.122 -0.100
0.325 0.124 -0.099
0.340 0.151 -0.105
0.332 0.151 -0.103
0.316 0.147 -0.098
0.332 0.158 -0.103
0.351 0.182 -0.110
0.350 0.185 -0.110
0.331 0.179 -0.104
0.332 0.184 -0.105
0.359 0.202 -0.113
0.313 -0.426 -0.117
0.313 -0.421 -0.117
0.313 -0.415 -0.116
0.314 -0.411 -0.116
0.318 -0.410 -0.117
0.321 -0.409 -0.118
0.318 -0.400 -0.116
0.316 -0.391 -0.115
0.316 -0.386 -0.114
0.318 -0.384 -0.115
0.319 -0.379 -0.114
0.319 -0.373 -0.114
0.317 -0.365 -0.112
0.314 -0.356 -0.111
0.313 -0.351 -0.110
0.315 -0.347 -0.110
0.314 -0.341 -0.109
0.310 -0.332 -0.108
0.307 -0.323 -0.106
0.308 -0.319 -0.106
0.309 -0.316 -0.106
0.308 -0.309 -0.105
0.308 -0.305 -0.104
0.306 -0.298 -0.103
0.304 -0.292 -0.102
0.305 -0.288 -0.102
0.305 -0.283 -0.101
0.304 -0.279 -0.101
0.304 -0.274 -0.100
0.304 -0.270 -0.100
0.305 -0.266 -0.100
0.307 -0.264 -0.100
0.305 -0.258 -0.099
0.300 -0.249 -0.097
0.300 -0.246 -0.097
0.302 -0.243 -0.097
0.298 -0.236 -0.095
0.298 -0.232 -0.095
0.297 -0.227 -0.094
0.294 -0.221 -0.093
0.290 -0.215 -0.092
0.291 -0.212 -0.092
0.286 -0.205 -0.090
0.212 -0.144 -0.066
0.208 -0.139 -0.064
0.209 -0.137 -0.065
0.210 -0.135 -0.065
0.220 -0.139 -0.068
0.225 -0.140 -0.069
0.226 -0.138 -0.069
0.227 -0.136 -0.069
0.213 -0.125 -0.065
0.208 -0.120 -0.063
0.209 -0.118 -0.063
0.210 -0.117 -0.064
0.234 -0.127 -0.071
0.243 -0.129 -0.073
0.243 -0.127 -0.073
0.243 -0.125 -0.073
0.245 -0.123 -0.073
0.250 -0.123 -0.075
0.311 -0.149 -0.093
0.310 -0.146 -0.092
0.314 -0.144 -0.093
0.316 -0.142 -0.094
0.319 -0.140 -0.094
0.324 -0.139 -0.096
0.275 -0.112 -0.081
0.282 -0.110 -0.083
0.271 -0.103 -0.080
0.274 -0.101 -0.080
0.348 -0.125 -0.102
0.355 -0.124 -0.104
0.365 -0.124 -0.107
0.375 -0.124 -0.109
0.381 -0.122 -0.111
0.386 -0.120 -0.112
0.395 -0.119 -0.115
0.402 -0.117 -0.117
0.409 -0.115 -0.118
0.419 -0.114 -0.121
0.425 -0.112 -0.123
0.431 -0.109 -0.125
0.436 -0.106 -0.126
0.438 -0.103 -0.126
0.424 -0.095 -0.122
0.407 -0.088 -0.117
0.394 -0.081 -0.114
0.386 -0.076 -0.111
0.381 -0.072 -0.110
0.297 -0.053 -0.085
0.292 -0.050 -0.084
0.285 -0.046 -0.082
0.285 -0.043 -0.082
0.284 -0.040 -0.081
0.288 -0.038 -0.083
0.301 -0.037 -0.086
0.305 -0.035 -0.087
0.305 -0.032 -0.087
0.304 -0.029 -0.087
0.301 -0.026 -0.086
0.293 -0.023 -0.084
0.299 -0.020 -0.086
0.342 -0.017 -0.098
0.340 -0.014 -0.097
0.325 -0.010 -0.093
0.317 -0.007 -0.091
0.317 -0.004 -0.091
0.308 -0.001 -0.088
0.301 0.001 -0.086
0.306 0.004 -0.088
0.319 0.007 -0.091
0.330 0.011 -0.094
0.319 0.013 -0.091
0.314 0.016 -0.090
0.302 0.018 -0.086
0.303 0.021 -0.087
0.304 0.024 -0.087
0.305 0.026 -0.087
0.305 0.029 -0.088
0.307 0.032 -0.088
0.307 0.035 -0.088
0.309 0.038 -0.089
0.310 0.041 -0.089
0.310 0.044 -0.089
0.306 0.046 -0.088
0.306 0.049 -0.088
0.308 0.052 -0.089
0.315 0.056 -0.091
0.319 0.060 -0.092
0.321 0.064 -0.093
0.320 0.066 -0.092
0.312 0.068 -0.090
0.311 0.070 -0.090
0.317 0.075 -0.092
0.318 0.078 -0.092
0.313 0.080 -0.091
0.310 0.082 -0.090
0.314 0.086 -0.091
0.317 0.090 -0.092
0.310 0.091 -0.090
0.306 0.093 -0.089
0.304 0.095 -0.089
0.307 0.099 -0.090
0.326 0.108 -0.096
0.329 0.113 -0.097
0.316 0.111 -0.093
0.315 0.114 -0.093
0.318 0.118 -0.094
0.322 0.123 -0.095
0.340 0.151 -0.102
0.329 0.150 -0.098
0.322 0.167 -0.098
0.331 0.175 -0.101
0.330 0.178 -0.100
0.349 0.193 -0.107
0.347 0.195 -0.106
0.349 0.200 -0.107
0.342 0.208 -0.106
0.311 -0.428 -0.113
0.311 -0.423 -0.112
0.312 -0.419 -0.112
0.313 -0.415 -0.112
0.314 -0.411 -0.112
0.316 -0.408 -0.112
0.319 -0.406 -0.113
0.319 -0.401 -0.113
0.317 -0.393 -0.111
0.316 -0.385 -0.110
0.317 -0.382 -0.110
0.319 -0.379 -0.111
0.320 -0.374 -0.110
0.315 -0.363 -0.108
0.314 -0.356 -0.107
0.315 -0.352 -0.107
0.315 -0.346 -0.106
0.312 -0.339 -0.105
0.307 -0.328 -0.103
0.307 -0.323 -0.102
0.309 -0.320 -0.103
0.310 -0.316 -0.102
0.309 -0.311 -0.102
0.307 -0.304 -0.101
0.306 -0.298 -0.100
0.304 -0.292 -0.099
0.304 -0.287 -0.098
0.304 -0.283 -0.098
0.303 -0.277 -0.097
0.302 -0.272 -0.096
0.303 -0.268 -0.096
0.304 -0.265 -0.096
0.302 -0.259 -0.095
0.300 -0.254 -0.094
0.299 -0.248 -0.093
0.301 -0.246 -0.094
0.298 -0.239 -0.093
0.296 -0.234 -0.092
0.296 -0.231 -0.091
0.296 -0.226 -0.091
0.290 -0.218 -0.089
0.287 -0.213 -0.088
0.282 -0.205 -0.086
0.233 -0.164 -0.071
0.235 -0.162 -0.071
0.213 -0.144 -0.064
0.209 -0.139 -0.063
0.208 -0.136 -0.062
0.210 -0.135 -0.063
0.213 -0.135 -0.063
0.224 -0.139 -0.066
0.225 -0.137 -0.067
0.223 -0.134 -0.066
0.218 -0.128 -0.064
0.208 -0.120 -0.061
0.209 -0.118 -0.061
0.210 -0.116 -0.062
0.220 -0.120 -0.064
0.241 -0.128 -0.070
0.244 -0.127 -0.071
0.244 -0.125 -0.071
0.244 -0.122 -0.071
0.246 -0.121 -0.071
0.298 -0.143 -0.086
0.312 -0.146 -0.090
0.313 -0.144 -0.090
0.316 -0.142 -0.091
0.317 -0.139 -0.091
0.303 -0.130 -0.087
0.292 -0.122 -0.083
0.274 -0.112 -0.078
0.269 -0.104 -0.076
0.272 -0.103 -0.077
0.265 -0.098 -0.075
0.347 -0.124 -0.098
0.358 -0.125 -0.101
0.368 -0.125 -0.104
0.372 -0.123 -0.105
0.380 -0.122 -0.107
0.387 -0.120 -0.109
0.393 -0.118 -0.111
0.400 -0.116 -0.112
0.409 -0.115 -0.115
0.417 -0.114 -0.117
0.424 -0.111 -0.119
0.432 -0.109 -0.121
0.438 -0.107 -0.122
0.438 -0.103 -0.122
0.397 -0.086 -0.111
0.393 -0.081 -0.109
0.386 -0.076 -0.108
0.373 -0.070 -0.104
0.289 -0.052 -0.080
0.284 -0.048 -0.079
0.282 -0.045 -0.078
0.285 -0.043 -0.079
0.286 -0.041 -0.079
0.290 -0.038 -0.080
0.298 -0.037 -0.083
0.309 -0.035 -0.086
0.306 -0.032 -0.085
0.305 -0.029 -0.084
0.306 -0.026 -0.085
0.292 -0.023 -0.081
0.296 -0.020 -0.082
0.345 -0.017 -0.096
0.342 -0.014 -0.095
0.318 -0.010 -0.088
0.308 -0.007 -0.085
0.303 -0.004 -0.084
0.306 -0.001 -0.084
0.307 0.001 -0.085
0.315 0.004 -0.087
0.321 0.007 -0.089
0.310 0.010 -0.086
0.303 0.012 -0.084
0.303 0.015 -0.084
0.306 0.018 -0.085
0.305 0.021 -0.084
0.305 0.024 -0.085
0.306 0.027 -0.085
0.309 0.030 -0.086
0.310 0.033 -0.086
0.310 0.035 -0.086
0.311 0.038 -0.086
0.312 0.041 -0.087
0.311 0.044 -0.087
0.310 0.047 -0.086
0.311 0.050 -0.086
0.310 0.053 -0.086
0.309 0.055 -0.086
0.309 0.058 -0.086
0.322 0.064 -0.090
0.326 0.067 -0.091
0.316 0.068 -0.088
0.313 0.071 -0.088
0.312 0.074 -0.087
0.310 0.076 -0.087
0.311 0.079 -0.087
0.306 0.081 -0.086
0.309 0.085 -0.087
0.315 0.089 -0.089
0.313 0.092 -0.088
0.305 0.092 -0.086
0.297 0.093 -0.084
0.307 0.099 -0.087
0.321 0.107 -0.091
0.324 0.111 -0.092
0.312 0.110 -0.089
0.320 0.116 -0.091
0.327 0.122 -0.093
0.337 0.129 -0.096
0.332 0.150 -0.096
0.316 0.164 -0.093
0.332 0.176 -0.098
0.343 0.185 -0.101
0.348 0.195 -0.103
0.344 0.205 -0.102
0.354 0.215 -0.106
0.379 0.235 -0.113
0.385 0.243 -0.116
0.309 -0.426 -0.108
0.310 -0.421 -0.108
0.312 -0.419 -0.109
0.314 -0.416 -0.109
0.314 -0.411 -0.108
0.312 -0.403 -0.107
0.314 -0.399 -0.107
0.316 -0.397 -0.108
0.317 -0.392 -0.108
0.316 -0.385 -0.107
0.315 -0.378 -0.106
0.316 -0.375 -0.106
0.318 -0.371 -0.106
0.315 -0.362 -0.104
0.314 -0.356 -0.103
0.314 -0.350 -0.103
0.314 -0.345 -0.103
0.308 -0.334 -0.100
0.308 -0.328 -0.100
0.308 -0.324 -0.099
0.309 -0.320 -0.099
0.310 -0.316 -0.099
0.309 -0.310 -0.098
0.308 -0.304 -0.097
0.305 -0.297 -0.096
0.303 -0.290 -0.095
0.304 -0.286 -0.095
0.302 -0.280 -0.094
0.303 -0.276 -0.094
0.302 -0.272 -0.093
0.301 -0.266 -0.092
0.302 -0.263 -0.092
0.301 -0.258 -0.092
0.298 -0.251 -0.090
0.299 -0.248 -0.090
0.294 -0.240 -0.088
0.295 -0.237 -0.088
0.296 -0.233 -0.088
0.293 -0.227 -0.087
0.285 -0.218 -0.085
0.279 -0.209 -0.082
0.233 -0.166 -0.068
0.233 -0.164 -0.068
0.214 -0.148 -0.062
0.212 -0.144 -0.062
0.209 -0.139 -0.061
0.208 -0.136 -0.060
0.210 -0.135 -0.061
0.214 -0.135 -0.061
0.217 -0.135 -0.062
0.219 -0.133 -0.063
0.220 -0.131 -0.063
0.223 -0.131 -0.063
0.208 -0.120 -0.059
0.209 -0.118 -0.059
0.210 -0.116 -0.059
0.215 -0.117 -0.061
0.240 -0.128 -0.068
0.244 -0.127 -0.069
0.245 -0.125 -0.069
0.244 -0.122 -0.068
0.246 -0.120 -0.069
0.307 -0.144 -0.085
0.314 -0.144 -0.087
0.315 -0.141 -0.087
0.316 -0.138 -0.087
0.306 -0.131 -0.084
0.289 -0.121 -0.080
0.282 -0.115 -0.078
0.274 -0.106 -0.075
0.270 -0.102 -0.074
0.262 -0.096 -0.072
0.350 -0.125 -0.096
0.363 -0.127 -0.099
0.367 -0.125 -0.100
0.372 -0.123 -0.101
0.378 -0.121 -0.103
0.386 -0.120 -0.105
0.393 -0.118 -0.107
0.401 -0.116 -0.109
0.407 -0.114 -0.110
0.416 -0.113 -0.113
0.425 -0.112 -0.115
0.433 -0.109 -0.117
0.441 -0.107 -0.119
0.446 -0.104 -0.120
0.397 -0.085 -0.107
0.389 -0.080 -0.105
0.389 -0.077 -0.105
0.287 -0.051 -0.077
0.284 -0.048 -0.076
0.283 -0.045 -0.076
0.288 -0.043 -0.077
0.291 -0.041 -0.078
0.296 -0.039 -0.079
0.303 -0.037 -0.081
0.301 -0.034 -0.080
0.300 -0.031 -0.080
0.306 -0.029 -0.082
0.303 -0.026 -0.081
0.297 -0.023 -0.079
0.295 -0.020 -0.079
0.319 -0.019 -0.085
0.295 -0.012 -0.079
0.309 -0.010 -0.083
0.301 -0.007 -0.080
0.302 -0.004 -0.081
0.311 -0.001 -0.083
0.316 0.001 -0.084
0.320 0.004 -0.086
0.302 0.007 -0.081
0.303 0.010 -0.081
0.306 0.013 -0.082
0.307 0.015 -0.082
0.307 0.018 -0.082
0.307 0.021 -0.082
0.307 0.024 -0.082
0.309 0.027 -0.083
0.312 0.030 -0.084
0.312 0.033 -0.084
0.312 0.036 -0.084
0.314 0.039 -0.084
0.313 0.042 -0.084
0.313 0.044 -0.084
0.313 0.047 -0.084
0.312 0.050 -0.084
0.312 0.053 -0.084
0.312 0.056 -0.084
0.312 0.059 -0.084
0.310 0.061 -0.083
0.309 0.064 -0.084
0.328 0.071 -0.089
0.317 0.072 -0.086
0.315 0.074 -0.085
0.312 0.076 -0.085
0.315 0.080 -0.085
0.309 0.082 -0.084
0.310 0.085 -0.084
0.315 0.089 -0.086
0.316 0.092 -0.086
0.306 0.093 -0.084
0.301 0.094 -0.082
0.306 0.099 -0.084
0.315 0.105 -0.086
0.310 0.106 -0.085
0.314 0.110 -0.086
0.325 0.117 -0.089
0.337 0.125 -0.093
0.333 0.127 -0.092
0.310 0.150 -0.087
0.337 0.174 -0.095
0.339 0.179 -0.096
0.345 0.186 -0.098
0.347 0.191 -0.099
0.341 0.191 -0.097
0.349 0.200 -0.100
0.353 0.206 -0.101
0.354 0.211 -0.102
0.379 0.234 -0.110
0.308 -0.423 -0.104
0.308 -0.418 -0.104
0.310 -0.415 -0.104
0.313 -0.414 -0.104
0.312 -0.408 -0.104
0.310 -0.399 -0.103
0.309 -0.393 -0.102
0.311 -0.390 -0.102
0.314 -0.387 -0.103
0.315 -0.384 -0.103
0.312 -0.374 -0.101
0.309 -0.366 -0.100
0.311 -0.363 -0.100
0.314 -0.361 -0.100
0.311 -0.352 -0.099
0.312 -0.348 -0.099
0.309 -0.340 -0.097
0.310 -0.335 -0.097
0.308 -0.329 -0.096
0.307 -0.322 -0.095
0.310 -0.320 -0.096
0.310 -0.315 -0.095
0.308 -0.309 -0.094
0.307 -0.303 -0.094
0.305 -0.296 -0.093
0.304 -0.290 -0.092
0.302 -0.284 -0.091
0.302 -0.280 -0.091
0.303 -0.276 -0.090
0.303 -0.272 -0.090
0.301 -0.266 -0.089
0.302 -0.262 -0.089
0.301 -0.258 -0.088
0.298 -0.251 -0.087
0.293 -0.243 -0.086
0.292 -0.238 -0.085
0.228 -0.177 -0.065
0.216 -0.165 -0.062
0.210 -0.158 -0.060
0.250 -0.182 -0.071
0.232 -0.166 -0.066
0.232 -0.163 -0.065
0.214 -0.147 -0.060
0.215 -0.146 -0.060
0.209 -0.139 -0.058
0.210 -0.137 -0.058
0.211 -0.135 -0.059
0.216 -0.136 -0.060
0.220 -0.136 -0.061
0.219 -0.133 -0.060
0.221 -0.132 -0.061
0.223 -0.130 -0.061
0.209 -0.120 -0.057
0.208 -0.117 -0.057
0.210 -0.116 -0.057
0.212 -0.115 -0.058
0.240 -0.128 -0.065
0.245 -0.128 -0.066
0.245 -0.125 -0.066
0.243 -0.121 -0.066
0.245 -0.120 -0.066
0.307 -0.144 -0.082
0.311 -0.142 -0.083
0.316 -0.141 -0.084
0.316 -0.138 -0.084
0.312 -0.133 -0.083
0.305 -0.127 -0.081
0.273 -0.106 -0.072
0.267 -0.101 -0.071
0.256 -0.094 -0.068
0.349 -0.125 -0.092
0.358 -0.125 -0.094
0.368 -0.125 -0.097
0.372 -0.122 -0.098
0.376 -0.120 -0.099
0.383 -0.118 -0.100
0.391 -0.117 -0.102
0.399 -0.116 -0.104
0.405 -0.114 -0.106
0.417 -0.113 -0.109
0.427 -0.112 -0.111
0.433 -0.109 -0.113
0.442 -0.108 -0.115
0.447 -0.105 -0.116
0.381 -0.082 -0.099
0.396 -0.081 -0.103
0.390 -0.077 -0.101
0.377 -0.071 -0.098
0.286 -0.051 -0.074
0.287 -0.048 -0.074
0.290 -0.046 -0.075
0.293 -0.044 -0.076
0.292 -0.041 -0.075
0.291 -0.038 -0.075
0.294 -0.036 -0.076
0.299 -0.034 -0.077
0.297 -0.031 -0.077
0.300 -0.029 -0.078
0.305 -0.026 -0.079
0.299 -0.023 -0.077
0.304 -0.021 -0.079
0.313 -0.019 -0.081
0.295 -0.015 -0.076
0.297 -0.012 -0.077
0.297 -0.009 -0.077
0.303 -0.007 -0.078
0.313 -0.004 -0.081
0.320 -0.001 -0.082
0.320 0.001 -0.082
0.302 0.004 -0.078
0.303 0.007 -0.078
0.305 0.010 -0.079
0.307 0.013 -0.079
0.308 0.015 -0.079
0.308 0.018 -0.080
0.309 0.021 -0.080
0.310 0.024 -0.080
0.312 0.027 -0.081
0.313 0.030 -0.081
0.313 0.033 -0.081
0.313 0.036 -0.081
0.315 0.039 -0.081
0.314 0.042 -0.081
0.314 0.044 -0.081
0.314 0.047 -0.081
0.314 0.050 -0.082
0.314 0.053 -0.082
0.314 0.056 -0.082
0.313 0.059 -0.081
0.313 0.062 -0.081
0.311 0.064 -0.081
0.309 0.067 -0.081
0.324 0.073 -0.085
0.321 0.075 -0.084
0.318 0.078 -0.083
0.315 0.080 -0.082
0.312 0.082 -0.082
0.316 0.086 -0.083
