VERSION .7
FIELDS x y z
SIZE 4 4 4
TYPE F F F
COUNT 1 1 1
WIDTH     2432
HEIGHT 1
VIEWPOINT 0 0 0 1 0 0 0
POINTS     2432
DATA ascii
0.331 -0.305 -0.158
0.330 -0.300 -0.157
0.330 -0.295 -0.157
0.331 -0.291 -0.157
0.333 -0.288 -0.157
0.331 -0.282 -0.156
0.333 -0.279 -0.156
0.328 -0.270 -0.153
0.327 -0.265 -0.152
0.325 -0.259 -0.150
0.323 -0.253 -0.149
0.320 -0.247 -0.147
0.321 -0.243 -0.147
0.317 -0.236 -0.145
0.313 -0.229 -0.142
0.313 -0.225 -0.142
0.313 -0.221 -0.141
0.313 -0.218 -0.141
0.312 -0.213 -0.140
0.309 -0.207 -0.138
0.217 -0.138 -0.096
0.208 -0.129 -0.092
0.208 -0.127 -0.092
0.212 -0.127 -0.093
0.297 -0.171 -0.130
0.297 -0.168 -0.130
0.299 -0.166 -0.130
0.300 -0.163 -0.131
0.305 -0.163 -0.133
0.308 -0.161 -0.133
0.310 -0.158 -0.134
0.314 -0.157 -0.135
0.317 -0.155 -0.137
0.320 -0.153 -0.137
0.325 -0.152 -0.139
0.326 -0.149 -0.140
0.327 -0.146 -0.139
0.325 -0.142 -0.139
0.271 -0.113 -0.115
0.274 -0.109 -0.116
0.358 -0.135 -0.151
0.364 -0.133 -0.153
0.369 -0.131 -0.156
0.374 -0.129 -0.157
0.378 -0.127 -0.159
0.384 -0.125 -0.161
0.394 -0.124 -0.165
0.399 -0.122 -0.167
1.327 -0.393 -0.554
1.330 -0.381 -0.555
1.330 -0.368 -0.555
1.331 -0.356 -0.555
1.325 -0.341 -0.552
0.347 -0.069 -0.144
0.333 -0.064 -0.138
0.285 -0.052 -0.118
0.282 -0.048 -0.116
0.275 -0.045 -0.114
0.279 -0.043 -0.115
0.288 -0.041 -0.119
0.289 -0.039 -0.119
0.289 -0.036 -0.119
0.296 -0.034 -0.122
0.301 -0.032 -0.124
0.297 -0.029 -0.122
0.298 -0.026 -0.123
0.301 -0.024 -0.124
0.301 -0.021 -0.124
0.289 -0.017 -0.119
0.288 -0.015 -0.119
0.293 -0.012 -0.121
0.292 -0.009 -0.120
0.290 -0.007 -0.119
0.293 -0.004 -0.120
0.297 -0.001 -0.122
0.295 0.001 -0.121
0.295 0.004 -0.122
0.304 0.007 -0.125
0.299 0.010 -0.123
0.288 0.012 -0.119
0.293 0.015 -0.121
0.301 0.018 -0.124
0.309 0.022 -0.127
0.295 0.026 -0.122
0.310 0.030 -0.128
0.322 0.038 -0.133
0.329 0.054 -0.136
0.308 0.056 -0.128
0.311 0.060 -0.129
0.309 0.068 -0.129
0.310 0.072 -0.129
0.312 0.075 -0.130
0.338 0.084 -0.141
0.325 0.084 -0.136
0.314 0.085 -0.131
0.309 0.086 -0.130
0.305 0.088 -0.128
0.308 0.092 -0.129
0.290 0.101 -0.123
0.329 0.142 -0.141
0.319 0.141 -0.137
0.310 0.157 -0.135
0.300 0.156 -0.131
0.289 0.153 -0.126
0.285 0.154 -0.125
0.283 0.156 -0.124
0.284 0.160 -0.125
0.277 0.160 -0.123
0.269 0.158 -0.119
0.267 0.160 -0.119
0.271 0.165 -0.121
0.269 0.168 -0.120
0.269 0.171 -0.121
0.271 0.176 -0.122
0.270 0.178 -0.122
0.268 0.180 -0.121
0.268 0.184 -0.122
0.264 0.184 -0.120
0.259 0.184 -0.119
0.256 0.185 -0.117
0.250 0.184 -0.115
0.257 0.193 -0.119
0.282 0.220 -0.132
0.269 0.213 -0.126
0.253 0.204 -0.119
0.253 0.207 -0.119
0.234 0.195 -0.111
0.227 0.192 -0.108
0.225 0.195 -0.108
0.228 0.200 -0.109
0.234 0.209 -0.113
0.237 0.215 -0.115
0.234 0.216 -0.114
0.221 0.208 -0.108
0.228 0.219 -0.112
0.228 0.222 -0.113
0.221 0.219 -0.110
0.212 0.214 -0.106
0.216 0.221 -0.108
0.319 -0.348 -0.156
0.328 -0.343 -0.159
0.332 -0.342 -0.160
0.335 -0.340 -0.161
0.335 -0.334 -0.160
0.331 -0.325 -0.157
0.331 -0.319 -0.156
0.334 -0.317 -0.157
0.330 -0.309 -0.155
0.326 -0.300 -0.152
0.327 -0.296 -0.152
0.328 -0.292 -0.152
0.329 -0.289 -0.152
0.327 -0.282 -0.150
0.325 -0.276 -0.149
0.322 -0.269 -0.147
0.322 -0.265 -0.146
0.318 -0.257 -0.144
0.320 -0.254 -0.144
0.322 -0.252 -0.145
0.320 -0.246 -0.143
0.318 -0.241 -0.142
0.313 -0.232 -0.139
0.311 -0.227 -0.138
0.310 -0.222 -0.137
0.308 -0.217 -0.136
0.309 -0.214 -0.136
0.309 -0.210 -0.135
0.307 -0.206 -0.134
0.220 -0.139 -0.095
0.208 -0.129 -0.090
0.208 -0.127 -0.090
0.209 -0.125 -0.090
0.214 -0.125 -0.091
0.294 -0.169 -0.126
0.296 -0.167 -0.126
0.298 -0.165 -0.127
0.300 -0.163 -0.127
0.302 -0.160 -0.128
0.307 -0.160 -0.130
0.311 -0.158 -0.131
0.314 -0.157 -0.132
0.317 -0.155 -0.133
0.321 -0.153 -0.134
0.322 -0.151 -0.135
0.326 -0.149 -0.136
0.328 -0.146 -0.137
0.326 -0.142 -0.135
0.360 -0.135 -0.148
0.364 -0.133 -0.150
0.369 -0.131 -0.152
0.373 -0.129 -0.153
0.378 -0.127 -0.155
0.389 -0.126 -0.159
0.395 -0.125 -0.162
0.401 -0.123 -0.164
0.412 -0.122 -0.168
1.313 -0.376 -0.535
1.312 -0.363 -0.534
1.330 -0.355 -0.541
0.291 -0.053 -0.117
0.280 -0.048 -0.113
0.282 -0.046 -0.114
0.283 -0.043 -0.114
0.291 -0.042 -0.117
0.288 -0.039 -0.116
0.288 -0.036 -0.116
0.300 -0.035 -0.121
0.304 -0.032 -0.122
0.295 -0.029 -0.119
0.297 -0.026 -0.119
0.306 -0.024 -0.123
0.307 -0.021 -0.123
0.292 -0.018 -0.117
0.282 -0.014 -0.113
0.284 -0.012 -0.114
0.289 -0.009 -0.116
0.285 -0.007 -0.114
0.291 -0.004 -0.117
0.302 -0.001 -0.121
0.298 0.001 -0.120
0.290 0.004 -0.116
0.287 0.007 -0.115
0.292 0.010 -0.117
0.290 0.012 -0.117
0.293 0.015 -0.118
0.300 0.018 -0.121
0.300 0.021 -0.121
0.290 0.023 -0.117
0.293 0.026 -0.118
0.307 0.030 -0.123
0.320 0.034 -0.129
0.305 0.038 -0.123
0.307 0.044 -0.124
0.318 0.058 -0.129
0.304 0.058 -0.123
0.302 0.061 -0.122
0.311 0.066 -0.126
0.316 0.070 -0.128
0.326 0.078 -0.133
0.324 0.081 -0.132
0.299 0.083 -0.122
0.309 0.092 -0.126
0.312 0.096 -0.128
0.306 0.101 -0.126
0.302 0.105 -0.125
0.303 0.115 -0.126
0.325 0.140 -0.136
0.315 0.139 -0.132
0.303 0.137 -0.127
0.296 0.137 -0.125
0.303 0.143 -0.128
0.289 0.140 -0.122
0.311 0.154 -0.132
0.306 0.155 -0.130
0.299 0.155 -0.127
0.291 0.154 -0.124
0.285 0.154 -0.122
0.285 0.157 -0.122
0.285 0.160 -0.122
0.281 0.161 -0.121
0.279 0.163 -0.120
0.280 0.167 -0.121
0.274 0.167 -0.119
0.273 0.170 -0.119
0.274 0.174 -0.120
0.275 0.177 -0.120
0.273 0.179 -0.120
0.273 0.183 -0.120
0.270 0.184 -0.120
0.270 0.188 -0.120
0.255 0.184 -0.114
0.254 0.187 -0.114
0.264 0.198 -0.119
0.232 0.196 -0.108
0.227 0.196 -0.106
0.230 0.201 -0.107
0.233 0.222 -0.112
0.232 0.225 -0.112
0.330 -0.387 -0.161
0.332 -0.384 -0.162
0.337 -0.384 -0.163
0.335 -0.376 -0.162
0.331 -0.367 -0.159
0.330 -0.360 -0.158
0.332 -0.357 -0.158
0.336 -0.355 -0.159
0.330 -0.344 -0.156
0.332 -0.341 -0.156
0.328 -0.332 -0.153
0.331 -0.329 -0.154
0.330 -0.323 -0.153
0.332 -0.320 -0.153
0.331 -0.314 -0.152
0.325 -0.304 -0.149
0.323 -0.296 -0.147
0.324 -0.293 -0.147
0.326 -0.290 -0.147
0.326 -0.285 -0.146
0.323 -0.278 -0.145
0.320 -0.272 -0.143
0.320 -0.267 -0.142
0.316 -0.259 -0.140
0.315 -0.254 -0.139
0.317 -0.251 -0.139
0.319 -0.249 -0.140
0.320 -0.246 -0.140
0.317 -0.239 -0.138
0.312 -0.231 -0.135
0.310 -0.226 -0.134
0.310 -0.222 -0.133
0.307 -0.216 -0.132
0.308 -0.213 -0.132
0.308 -0.209 -0.132
0.305 -0.204 -0.130
0.227 -0.143 -0.096
0.214 -0.133 -0.090
0.209 -0.127 -0.088
0.210 -0.125 -0.088
0.211 -0.123 -0.088
0.260 -0.144 -0.108
0.261 -0.141 -0.108
0.299 -0.158 -0.123
0.304 -0.158 -0.125
0.309 -0.157 -0.127
0.314 -0.157 -0.129
0.318 -0.155 -0.130
0.320 -0.153 -0.131
0.323 -0.151 -0.132
0.326 -0.149 -0.133
0.329 -0.147 -0.134
0.325 -0.141 -0.132
0.325 -0.135 -0.131
0.360 -0.135 -0.145
0.363 -0.132 -0.146
0.367 -0.130 -0.147
0.371 -0.128 -0.149
0.374 -0.125 -0.150
0.383 -0.124 -0.153
0.391 -0.123 -0.156
0.398 -0.122 -0.159
0.404 -0.119 -0.161
0.416 -0.119 -0.165
1.293 -0.357 -0.513
1.295 -0.345 -0.514
1.319 -0.339 -0.522
0.356 -0.071 -0.140
0.300 -0.054 -0.118
0.285 -0.049 -0.112
0.284 -0.046 -0.112
0.291 -0.044 -0.114
0.297 -0.043 -0.117
0.293 -0.039 -0.115
0.281 -0.035 -0.110
0.279 -0.032 -0.110
0.290 -0.031 -0.114
0.286 -0.028 -0.112
0.295 -0.026 -0.116
0.305 -0.024 -0.120
0.302 -0.021 -0.118
0.289 -0.017 -0.113
0.282 -0.014 -0.110
0.286 -0.012 -0.112
0.290 -0.009 -0.113
0.287 -0.007 -0.112
0.289 -0.004 -0.113
0.303 -0.001 -0.119
0.309 0.002 -0.121
0.298 0.004 -0.117
0.286 0.007 -0.112
0.293 0.012 -0.115
0.298 0.018 -0.117
0.299 0.021 -0.117
0.302 0.027 -0.119
0.319 0.034 -0.125
0.316 0.037 -0.124
0.324 0.056 -0.128
0.328 0.060 -0.129
0.296 0.060 -0.117
0.311 0.066 -0.123
0.319 0.070 -0.127
0.318 0.073 -0.126
0.320 0.077 -0.127
0.312 0.078 -0.124
0.284 0.074 -0.113
0.277 0.074 -0.110
0.288 0.080 -0.115
0.298 0.086 -0.119
0.301 0.090 -0.120
0.293 0.090 -0.117
0.289 0.092 -0.116
0.311 0.105 -0.125
0.303 0.105 -0.122
0.305 0.109 -0.123
0.305 0.112 -0.123
0.308 0.117 -0.125
0.305 0.119 -0.124
0.313 0.125 -0.127
0.321 0.131 -0.131
0.322 0.135 -0.131
0.321 0.138 -0.131
0.317 0.140 -0.129
0.305 0.138 -0.125
0.303 0.140 -0.124
0.298 0.141 -0.123
0.303 0.146 -0.125
0.301 0.149 -0.124
0.300 0.152 -0.124
0.299 0.154 -0.124
0.293 0.154 -0.122
0.289 0.156 -0.121
0.290 0.160 -0.121
0.291 0.163 -0.122
0.288 0.165 -0.121
0.291 0.170 -0.122
0.289 0.172 -0.122
0.280 0.170 -0.119
0.279 0.173 -0.118
0.279 0.176 -0.119
0.278 0.179 -0.119
0.280 0.184 -0.120
0.277 0.186 -0.119
0.327 -0.411 -0.159
0.335 -0.415 -0.163
0.335 -0.411 -0.162
0.335 -0.404 -0.161
0.336 -0.400 -0.161
0.336 -0.394 -0.160
0.335 -0.387 -0.159
0.337 -0.384 -0.159
0.337 -0.378 -0.159
0.335 -0.371 -0.157
0.334 -0.364 -0.156
0.337 -0.361 -0.156
0.337 -0.356 -0.156
0.337 -0.350 -0.155
0.322 -0.330 -0.147
0.328 -0.331 -0.150
0.326 -0.323 -0.148
0.329 -0.321 -0.148
0.329 -0.317 -0.148
0.327 -0.310 -0.146
0.327 -0.304 -0.145
0.321 -0.294 -0.142
0.320 -0.289 -0.142
0.324 -0.288 -0.142
0.325 -0.284 -0.143
0.319 -0.274 -0.139
0.319 -0.270 -0.139
0.319 -0.266 -0.138
0.317 -0.260 -0.137
0.315 -0.254 -0.135
0.315 -0.249 -0.135
0.316 -0.246 -0.135
0.317 -0.243 -0.135
0.315 -0.237 -0.133
0.310 -0.229 -0.131
0.308 -0.224 -0.130
0.306 -0.219 -0.129
0.309 -0.217 -0.129
0.309 -0.213 -0.129
0.307 -0.208 -0.128
0.299 -0.199 -0.124
0.287 -0.188 -0.119
0.214 -0.133 -0.088
0.209 -0.127 -0.086
0.209 -0.125 -0.085
0.210 -0.123 -0.085
0.224 -0.129 -0.091
0.251 -0.141 -0.102
0.247 -0.136 -0.100
0.247 -0.134 -0.100
0.258 -0.137 -0.104
0.301 -0.156 -0.121
0.308 -0.156 -0.123
0.314 -0.156 -0.126
0.317 -0.154 -0.127
0.321 -0.153 -0.128
0.323 -0.150 -0.128
0.325 -0.148 -0.129
0.327 -0.145 -0.129
0.330 -0.143 -0.131
0.335 -0.142 -0.132
0.360 -0.135 -0.141
0.362 -0.132 -0.142
0.365 -0.129 -0.143
0.369 -0.127 -0.144
0.372 -0.124 -0.145
0.376 -0.122 -0.146
0.385 -0.121 -0.150
0.393 -0.120 -0.153
0.402 -0.119 -0.156
0.402 -0.115 -0.156
1.285 -0.342 -0.497
1.301 -0.334 -0.502
0.380 -0.079 -0.146
0.372 -0.074 -0.143
0.305 -0.055 -0.117
0.295 -0.051 -0.113
0.290 -0.047 -0.111
0.293 -0.045 -0.112
0.303 -0.043 -0.116
0.291 -0.039 -0.111
0.282 -0.035 -0.108
0.279 -0.032 -0.107
0.282 -0.030 -0.108
0.285 -0.028 -0.109
0.293 -0.026 -0.112
0.296 -0.023 -0.113
0.294 -0.020 -0.112
0.287 -0.017 -0.110
0.286 -0.014 -0.109
0.288 -0.012 -0.110
0.294 -0.009 -0.112
0.289 -0.007 -0.110
0.289 -0.004 -0.110
0.323 0.002 -0.123
0.322 0.005 -0.123
0.319 0.007 -0.122
0.282 0.009 -0.108
0.296 0.012 -0.113
0.299 0.015 -0.114
0.309 0.019 -0.118
0.305 0.021 -0.117
0.313 0.025 -0.120
0.314 0.028 -0.120
0.316 0.031 -0.121
0.312 0.033 -0.120
0.308 0.036 -0.118
0.308 0.039 -0.118
0.313 0.042 -0.120
0.331 0.048 -0.127
0.342 0.052 -0.131
0.319 0.052 -0.123
0.311 0.054 -0.120
0.311 0.057 -0.120
0.305 0.058 -0.118
0.303 0.061 -0.117
0.301 0.066 -0.116
0.306 0.070 -0.118
0.317 0.076 -0.123
0.313 0.078 -0.121
0.288 0.074 -0.112
0.284 0.076 -0.110
0.299 0.083 -0.116
0.303 0.087 -0.118
0.305 0.091 -0.119
0.297 0.091 -0.116
0.294 0.093 -0.115
0.295 0.096 -0.115
0.301 0.102 -0.118
0.311 0.108 -0.122
0.308 0.110 -0.121
0.316 0.116 -0.124
0.317 0.120 -0.125
0.320 0.124 -0.126
0.320 0.128 -0.127
0.323 0.132 -0.128
0.322 0.135 -0.128
0.320 0.137 -0.127
0.317 0.139 -0.126
0.313 0.141 -0.125
0.307 0.142 -0.123
0.307 0.145 -0.123
0.306 0.148 -0.123
0.303 0.149 -0.122
0.297 0.150 -0.120
0.293 0.151 -0.118
0.291 0.153 -0.118
0.296 0.159 -0.120
0.299 0.164 -0.122
0.301 0.169 -0.123
0.300 0.172 -0.123
0.300 0.175 -0.123
0.334 -0.443 -0.161
0.340 -0.445 -0.164
0.334 -0.431 -0.160
0.332 -0.422 -0.158
0.333 -0.418 -0.158
0.333 -0.413 -0.158
0.338 -0.413 -0.159
0.342 -0.412 -0.160
0.338 -0.401 -0.158
0.334 -0.391 -0.155
0.333 -0.384 -0.154
0.334 -0.380 -0.154
0.335 -0.375 -0.153
0.334 -0.368 -0.152
0.330 -0.358 -0.150
0.327 -0.349 -0.148
0.334 -0.352 -0.150
0.334 -0.347 -0.150
0.327 -0.334 -0.146
0.323 -0.325 -0.143
0.326 -0.323 -0.144
0.326 -0.318 -0.143
0.325 -0.312 -0.142
0.326 -0.308 -0.142
0.322 -0.299 -0.140
0.319 -0.292 -0.138
0.318 -0.286 -0.137
0.321 -0.285 -0.138
0.321 -0.280 -0.137
0.317 -0.272 -0.135
0.318 -0.269 -0.135
0.319 -0.265 -0.135
0.317 -0.259 -0.133
0.314 -0.253 -0.132
0.313 -0.247 -0.131
0.311 -0.242 -0.129
0.313 -0.240 -0.130
0.312 -0.234 -0.129
0.308 -0.228 -0.127
0.306 -0.222 -0.125
0.305 -0.218 -0.125
0.304 -0.213 -0.124
0.305 -0.210 -0.124
0.305 -0.207 -0.124
0.295 -0.197 -0.119
0.291 -0.190 -0.117
0.251 -0.161 -0.101
0.241 -0.152 -0.097
0.220 -0.136 -0.088
0.211 -0.128 -0.084
0.208 -0.124 -0.083
0.209 -0.122 -0.083
0.218 -0.125 -0.086
0.249 -0.140 -0.098
0.246 -0.136 -0.097
0.245 -0.132 -0.096
0.248 -0.131 -0.097
0.305 -0.155 -0.119
0.309 -0.154 -0.120
0.315 -0.153 -0.123
0.320 -0.152 -0.124
0.322 -0.150 -0.125
0.323 -0.147 -0.125
0.323 -0.144 -0.125
0.325 -0.141 -0.125
0.275 -0.111 -0.105
0.358 -0.134 -0.137
0.361 -0.131 -0.137
0.364 -0.129 -0.139
0.369 -0.127 -0.140
0.373 -0.124 -0.142
0.375 -0.122 -0.142
0.383 -0.120 -0.145
0.390 -0.119 -0.148
0.394 -0.116 -0.149
0.400 -0.114 -0.151
0.414 -0.114 -0.156
1.278 -0.327 -0.481
0.310 -0.056 -0.116
0.298 -0.051 -0.111
0.297 -0.048 -0.111
0.296 -0.045 -0.111
0.295 -0.042 -0.110
0.295 -0.040 -0.110
0.290 -0.036 -0.108
0.287 -0.033 -0.107
0.282 -0.030 -0.105
0.286 -0.028 -0.106
0.293 -0.026 -0.109
0.295 -0.023 -0.110
0.286 -0.020 -0.107
0.294 -0.018 -0.109
0.290 -0.015 -0.108
0.289 -0.012 -0.107
0.304 -0.010 -0.113
0.295 -0.004 -0.110
0.317 -0.001 -0.118
0.315 0.002 -0.117
0.336 0.005 -0.125
0.322 0.007 -0.120
0.308 0.010 -0.114
0.301 0.013 -0.112
0.307 0.016 -0.114
0.315 0.019 -0.117
0.328 0.023 -0.122
0.321 0.025 -0.120
0.322 0.028 -0.120
0.315 0.031 -0.118
0.305 0.033 -0.114
0.294 0.034 -0.110
0.317 0.040 -0.118
0.317 0.043 -0.119
0.330 0.047 -0.123
0.306 0.050 -0.115
0.295 0.051 -0.110
0.298 0.054 -0.112
0.298 0.063 -0.112
0.313 0.075 -0.118
0.305 0.076 -0.115
0.297 0.077 -0.112
0.296 0.079 -0.112
0.315 0.087 -0.119
0.314 0.093 -0.119
0.306 0.094 -0.116
0.299 0.095 -0.114
0.305 0.100 -0.116
0.312 0.105 -0.119
0.306 0.106 -0.117
0.308 0.110 -0.118
0.319 0.117 -0.122
0.329 0.124 -0.126
0.325 0.126 -0.125
0.330 0.131 -0.127
0.328 0.134 -0.127
0.326 0.136 -0.126
0.322 0.138 -0.125
0.318 0.140 -0.124
0.314 0.141 -0.122
0.311 0.143 -0.121
0.304 0.143 -0.119
0.306 0.147 -0.120
0.313 0.154 -0.123
0.313 0.157 -0.123
0.315 0.162 -0.124
0.333 0.179 -0.132
0.312 0.171 -0.124
0.309 0.173 -0.123
0.328 -0.440 -0.155
0.338 -0.447 -0.159
0.336 -0.438 -0.157
0.337 -0.434 -0.157
0.334 -0.425 -0.155
0.335 -0.420 -0.155
0.337 -0.417 -0.155
0.340 -0.408 -0.155
0.338 -0.401 -0.154
0.332 -0.388 -0.150
0.332 -0.382 -0.149
0.333 -0.378 -0.149
0.333 -0.372 -0.148
0.327 -0.361 -0.145
0.323 -0.350 -0.143
0.327 -0.350 -0.144
0.330 -0.347 -0.144
0.331 -0.342 -0.144
0.328 -0.335 -0.142
0.325 -0.326 -0.140
0.323 -0.319 -0.139
0.322 -0.313 -0.138
0.323 -0.310 -0.138
0.318 -0.300 -0.135
0.319 -0.296 -0.135
0.316 -0.288 -0.133
0.316 -0.284 -0.132
0.316 -0.279 -0.132
0.316 -0.275 -0.131
0.315 -0.270 -0.130
0.316 -0.267 -0.130
0.318 -0.263 -0.130
0.315 -0.257 -0.129
0.314 -0.252 -0.128
0.311 -0.245 -0.126
0.309 -0.240 -0.125
0.311 -0.237 -0.125
0.312 -0.234 -0.125
0.307 -0.226 -0.123
0.306 -0.222 -0.122
0.304 -0.216 -0.121
0.302 -0.212 -0.120
0.301 -0.207 -0.119
0.300 -0.203 -0.118
0.298 -0.198 -0.117
0.290 -0.189 -0.114
0.208 -0.126 -0.081
0.208 -0.123 -0.080
0.209 -0.122 -0.081
0.214 -0.122 -0.082
0.257 -0.144 -0.099
0.243 -0.134 -0.093
0.245 -0.132 -0.094
0.245 -0.129 -0.094
0.260 -0.135 -0.099
0.306 -0.155 -0.116
0.310 -0.154 -0.118
0.314 -0.152 -0.119
0.318 -0.151 -0.120
0.320 -0.148 -0.121
0.321 -0.146 -0.121
0.321 -0.142 -0.121
0.320 -0.139 -0.120
0.305 -0.126 -0.114
0.296 -0.113 -0.110
0.354 -0.132 -0.132
0.357 -0.130 -0.133
0.363 -0.128 -0.135
0.369 -0.127 -0.137
0.371 -0.124 -0.137
0.378 -0.122 -0.140
0.381 -0.119 -0.141
0.389 -0.118 -0.143
0.402 -0.118 -0.148
0.407 -0.116 -0.149
0.416 -0.114 -0.153
0.425 -0.113 -0.156
0.374 -0.078 -0.136
0.365 -0.073 -0.133
0.301 -0.054 -0.110
0.292 -0.050 -0.106
0.296 -0.048 -0.108
0.290 -0.044 -0.106
0.292 -0.042 -0.106
0.297 -0.040 -0.108
0.299 -0.037 -0.109
0.291 -0.034 -0.106
0.288 -0.031 -0.105
0.290 -0.028 -0.105
0.297 -0.026 -0.108
0.293 -0.023 -0.106
0.298 -0.021 -0.108
0.301 -0.018 -0.109
0.295 -0.015 -0.107
0.294 -0.012 -0.106
0.315 -0.010 -0.114
0.325 -0.007 -0.118
0.304 0.001 -0.110
0.311 0.004 -0.113
0.316 0.010 -0.115
0.310 0.013 -0.112
0.311 0.016 -0.113
0.324 0.019 -0.117
0.327 0.023 -0.119
0.325 0.026 -0.118
0.316 0.028 -0.115
0.317 0.031 -0.115
0.310 0.033 -0.113
0.307 0.036 -0.112
0.301 0.038 -0.109
0.317 0.043 -0.115
0.308 0.044 -0.112
0.304 0.047 -0.111
0.305 0.049 -0.111
0.299 0.051 -0.109
0.298 0.054 -0.109
0.305 0.058 -0.111
0.304 0.061 -0.111
0.298 0.062 -0.109
0.295 0.065 -0.108
0.308 0.070 -0.113
0.289 0.069 -0.106
0.286 0.071 -0.105
0.301 0.077 -0.111
0.307 0.082 -0.113
0.296 0.082 -0.109
0.311 0.092 -0.115
0.298 0.091 -0.110
0.308 0.097 -0.114
0.318 0.104 -0.118
0.324 0.109 -0.120
0.318 0.110 -0.118
0.314 0.112 -0.117
0.333 0.122 -0.124
0.319 0.120 -0.119
0.319 0.123 -0.120
0.330 0.131 -0.124
0.340 0.138 -0.128
0.340 0.142 -0.128
0.336 0.144 -0.127
0.323 0.141 -0.122
0.319 0.143 -0.121
0.313 0.144 -0.119
0.297 0.140 -0.113
0.293 0.141 -0.112
0.324 0.159 -0.124
0.326 0.164 -0.125
0.329 0.169 -0.126
0.330 -0.441 -0.151
0.331 -0.438 -0.151
0.340 -0.443 -0.155
0.329 -0.423 -0.149
0.331 -0.420 -0.149
0.337 -0.422 -0.151
0.327 -0.404 -0.147
0.325 -0.396 -0.145
0.333 -0.399 -0.148
0.336 -0.397 -0.148
0.334 -0.389 -0.147
0.331 -0.380 -0.145
0.330 -0.374 -0.144
0.330 -0.368 -0.143
0.325 -0.358 -0.140
0.324 -0.351 -0.139
0.327 -0.349 -0.140
0.329 -0.346 -0.140
0.329 -0.341 -0.140
0.328 -0.334 -0.138
0.323 -0.324 -0.136
0.321 -0.317 -0.134
0.321 -0.312 -0.134
0.316 -0.302 -0.131
0.315 -0.297 -0.130
0.316 -0.293 -0.130
0.315 -0.287 -0.129
0.314 -0.282 -0.128
0.314 -0.278 -0.127
0.313 -0.272 -0.126
0.312 -0.267 -0.126
0.313 -0.263 -0.126
0.314 -0.260 -0.125
0.314 -0.256 -0.125
0.314 -0.251 -0.124
0.313 -0.246 -0.123
0.311 -0.241 -0.122
0.309 -0.235 -0.121
0.309 -0.231 -0.121
0.307 -0.226 -0.120
0.304 -0.220 -0.118
0.303 -0.216 -0.117
0.299 -0.209 -0.115
0.298 -0.205 -0.115
0.294 -0.198 -0.113
0.292 -0.194 -0.112
0.290 -0.189 -0.111
0.279 -0.178 -0.106
0.208 -0.126 -0.079
0.208 -0.124 -0.078
0.210 -0.122 -0.079
0.213 -0.122 -0.080
0.243 -0.133 -0.091
0.243 -0.131 -0.090
0.243 -0.128 -0.090
0.249 -0.129 -0.092
0.303 -0.153 -0.112
0.308 -0.153 -0.114
0.312 -0.151 -0.115
0.315 -0.149 -0.116
0.318 -0.147 -0.117
0.320 -0.145 -0.117
0.319 -0.142 -0.117
0.318 -0.137 -0.116
0.284 -0.117 -0.103
0.348 -0.129 -0.126
0.352 -0.127 -0.127
0.359 -0.126 -0.129
0.365 -0.125 -0.132
0.371 -0.124 -0.134
0.377 -0.122 -0.136
0.387 -0.121 -0.139
0.406 -0.123 -0.146
0.408 -0.120 -0.146
0.414 -0.118 -0.148
0.420 -0.115 -0.150
0.426 -0.113 -0.152
0.434 -0.111 -0.155
0.379 -0.079 -0.135
0.372 -0.074 -0.132
0.290 -0.052 -0.103
0.286 -0.049 -0.101
0.285 -0.046 -0.101
0.286 -0.043 -0.101
0.295 -0.042 -0.104
0.301 -0.040 -0.106
0.300 -0.037 -0.106
0.296 -0.034 -0.105
0.291 -0.031 -0.103
0.296 -0.029 -0.104
0.298 -0.026 -0.105
0.299 -0.023 -0.105
0.302 -0.021 -0.107
0.304 -0.018 -0.107
0.297 -0.015 -0.105
0.301 -0.012 -0.106
0.312 -0.010 -0.110
0.317 -0.007 -0.112
0.299 -0.004 -0.106
0.300 -0.001 -0.106
0.305 0.001 -0.107
0.309 0.004 -0.109
0.314 0.007 -0.111
0.324 0.010 -0.114
0.324 0.013 -0.114
0.325 0.016 -0.115
0.326 0.020 -0.115
0.327 0.023 -0.115
0.317 0.025 -0.112
0.311 0.027 -0.110
0.313 0.030 -0.111
0.317 0.034 -0.112
0.304 0.035 -0.107
0.301 0.038 -0.107
0.297 0.040 -0.105
0.303 0.043 -0.107
0.303 0.046 -0.108
0.316 0.051 -0.112
0.313 0.054 -0.111
0.309 0.056 -0.110
0.304 0.058 -0.108
0.307 0.061 -0.109
0.302 0.063 -0.108
0.306 0.067 -0.109
0.297 0.068 -0.106
0.274 0.065 -0.098
0.286 0.079 -0.102
0.282 0.081 -0.101
0.291 0.086 -0.105
0.303 0.093 -0.109
0.310 0.098 -0.112
0.322 0.105 -0.116
0.324 0.109 -0.117
0.320 0.110 -0.116
0.332 0.118 -0.120
0.328 0.120 -0.119
0.299 0.116 -0.109
0.327 0.143 -0.120
0.328 0.147 -0.121
0.332 -0.449 -0.148
0.331 -0.442 -0.148
0.328 -0.432 -0.146
0.326 -0.424 -0.144
0.325 -0.417 -0.143
0.328 -0.416 -0.144
0.334 -0.418 -0.146
0.332 -0.409 -0.144
0.328 -0.398 -0.142
0.328 -0.393 -0.142
0.332 -0.392 -0.143
0.333 -0.388 -0.142
0.327 -0.376 -0.139
0.324 -0.367 -0.137
0.324 -0.361 -0.137
0.323 -0.355 -0.136
0.326 -0.352 -0.136
0.327 -0.348 -0.136
0.326 -0.342 -0.135
0.323 -0.333 -0.133
0.323 -0.329 -0.133
0.320 -0.321 -0.131
0.319 -0.315 -0.130
0.318 -0.309 -0.129
0.315 -0.300 -0.127
0.315 -0.296 -0.126
0.315 -0.292 -0.126
0.315 -0.287 -0.125
0.314 -0.281 -0.124
0.313 -0.276 -0.123
0.311 -0.270 -0.122
0.310 -0.265 -0.121
0.311 -0.261 -0.121
0.312 -0.258 -0.121
0.313 -0.254 -0.121
0.312 -0.249 -0.120
0.313 -0.246 -0.120
0.312 -0.241 -0.119
0.309 -0.235 -0.118
0.306 -0.229 -0.116
0.303 -0.223 -0.115
0.302 -0.219 -0.114
0.297 -0.211 -0.112
0.296 -0.207 -0.111
0.295 -0.202 -0.110
0.294 -0.198 -0.110
0.289 -0.191 -0.108
0.287 -0.187 -0.107
0.275 -0.175 -0.102
0.209 -0.126 -0.077
0.208 -0.123 -0.076
0.208 -0.121 -0.076
0.209 -0.119 -0.076
0.254 -0.142 -0.092
0.243 -0.133 -0.088
0.243 -0.130 -0.088
0.245 -0.129 -0.088
0.245 -0.126 -0.088
0.302 -0.153 -0.109
0.306 -0.151 -0.110
0.310 -0.150 -0.111
0.313 -0.148 -0.112
0.317 -0.147 -0.113
0.320 -0.145 -0.114
0.319 -0.141 -0.114
0.325 -0.140 -0.115
0.276 -0.113 -0.097
0.345 -0.128 -0.121
0.350 -0.127 -0.123
0.360 -0.127 -0.126
0.367 -0.126 -0.129
0.371 -0.123 -0.130
0.380 -0.123 -0.133
0.390 -0.122 -0.136
0.400 -0.121 -0.139
0.414 -0.121 -0.144
0.421 -0.119 -0.146
0.426 -0.117 -0.148
0.431 -0.114 -0.150
0.442 -0.113 -0.153
0.442 -0.109 -0.153
0.374 -0.081 -0.129
0.382 -0.079 -0.132
0.379 -0.075 -0.131
0.295 -0.053 -0.102
0.289 -0.049 -0.100
0.286 -0.046 -0.098
0.288 -0.044 -0.099
0.298 -0.042 -0.103
0.305 -0.041 -0.105
0.303 -0.038 -0.104
0.300 -0.034 -0.103
0.299 -0.032 -0.103
0.300 -0.029 -0.103
0.301 -0.026 -0.103
0.305 -0.024 -0.105
0.310 -0.021 -0.106
0.307 -0.018 -0.105
0.305 -0.015 -0.105
0.297 -0.012 -0.102
0.303 -0.010 -0.104
0.303 -0.007 -0.104
0.309 -0.004 -0.106
0.308 -0.001 -0.106
0.314 0.001 -0.108
0.312 0.004 -0.107
0.314 0.007 -0.108
0.323 0.010 -0.111
0.324 0.013 -0.111
0.321 0.016 -0.110
0.322 0.019 -0.111
0.322 0.022 -0.111
0.317 0.025 -0.109
0.315 0.028 -0.108
0.311 0.030 -0.107
0.306 0.032 -0.105
0.299 0.034 -0.103
0.294 0.037 -0.101
0.304 0.041 -0.105
0.319 0.046 -0.110
0.318 0.048 -0.110
0.319 0.052 -0.110
0.317 0.054 -0.110
0.309 0.056 -0.107
0.302 0.057 -0.105
0.305 0.061 -0.106
0.305 0.064 -0.106
0.305 0.067 -0.106
0.299 0.068 -0.104
0.279 0.066 -0.097
0.274 0.068 -0.095
0.304 0.078 -0.106
0.315 0.084 -0.110
0.317 0.088 -0.111
0.298 0.085 -0.104
0.301 0.089 -0.105
0.306 0.094 -0.107
0.312 0.098 -0.109
0.323 0.105 -0.114
0.321 0.108 -0.113
0.317 0.109 -0.112
0.320 0.114 -0.113
0.326 0.119 -0.115
0.291 0.112 -0.103
3.121 1.234 -1.108
0.327 0.143 -0.117
0.333 0.149 -0.119
0.365 0.237 -0.137
0.333 -0.449 -0.145
0.329 -0.439 -0.143
0.323 -0.426 -0.139
0.323 -0.420 -0.139
0.326 -0.418 -0.140
0.328 -0.415 -0.140
0.332 -0.414 -0.141
0.331 -0.408 -0.140
0.327 -0.397 -0.138
0.323 -0.387 -0.136
0.326 -0.384 -0.136
0.328 -0.381 -0.136
0.325 -0.372 -0.134
0.322 -0.364 -0.133
0.322 -0.358 -0.132
0.324 -0.355 -0.132
0.324 -0.350 -0.131
0.324 -0.345 -0.131
0.322 -0.337 -0.129
0.317 -0.326 -0.127
0.317 -0.321 -0.126
0.310 -0.310 -0.123
0.315 -0.310 -0.124
0.317 -0.307 -0.124
0.315 -0.300 -0.123
0.314 -0.295 -0.122
0.312 -0.288 -0.121
0.313 -0.284 -0.121
0.314 -0.280 -0.121
0.311 -0.274 -0.119
0.310 -0.268 -0.118
0.310 -0.264 -0.118
0.312 -0.261 -0.118
0.311 -0.256 -0.117
0.309 -0.250 -0.116
0.308 -0.246 -0.115
0.309 -0.243 -0.115
0.309 -0.238 -0.115
0.307 -0.233 -0.114
0.304 -0.227 -0.112
0.302 -0.222 -0.111
0.297 -0.214 -0.109
0.295 -0.209 -0.108
0.292 -0.203 -0.106
0.235 -0.150 -0.084
0.225 -0.141 -0.081
0.223 -0.137 -0.080
0.212 -0.128 -0.076
0.209 -0.124 -0.074
0.209 -0.121 -0.074
0.209 -0.119 -0.074
0.224 -0.125 -0.079
0.250 -0.137 -0.088
0.242 -0.130 -0.085
0.244 -0.128 -0.085
0.245 -0.126 -0.086
0.256 -0.129 -0.089
0.309 -0.153 -0.108
0.311 -0.150 -0.108
0.314 -0.148 -0.109
0.317 -0.147 -0.110
0.321 -0.145 -0.111
0.321 -0.142 -0.111
0.326 -0.141 -0.113
0.270 -0.111 -0.093
0.299 -0.114 -0.102
0.350 -0.126 -0.120
0.364 -0.128 -0.124
0.371 -0.127 -0.126
0.374 -0.124 -0.127
0.379 -0.122 -0.129
0.389 -0.122 -0.132
0.401 -0.121 -0.136
0.411 -0.121 -0.139
0.425 -0.120 -0.144
0.437 -0.120 -0.148
0.434 -0.115 -0.147
0.451 -0.115 -0.152
0.449 -0.110 -0.151
0.381 -0.083 -0.128
0.386 -0.080 -0.130
0.390 -0.077 -0.131
0.305 -0.055 -0.102
0.293 -0.050 -0.098
0.292 -0.047 -0.098
0.289 -0.044 -0.097
0.298 -0.043 -0.100
0.305 -0.041 -0.102
0.301 -0.037 -0.101
0.298 -0.034 -0.100
0.297 -0.031 -0.099
0.297 -0.029 -0.099
0.300 -0.026 -0.100
0.309 -0.024 -0.103
0.319 -0.022 -0.107
0.315 -0.019 -0.105
0.306 -0.015 -0.102
0.298 -0.012 -0.099
0.298 -0.010 -0.099
0.317 -0.007 -0.106
0.321 -0.004 -0.107
0.323 -0.001 -0.108
0.319 0.001 -0.106
0.318 0.004 -0.106
0.318 0.007 -0.106
0.314 0.010 -0.105
0.310 0.013 -0.103
0.312 0.016 -0.104
0.318 0.019 -0.106
0.325 0.022 -0.109
0.319 0.025 -0.107
0.311 0.027 -0.104
0.300 0.029 -0.100
0.294 0.031 -0.098
0.291 0.034 -0.097
0.299 0.037 -0.100
0.315 0.042 -0.106
0.328 0.047 -0.110
0.324 0.049 -0.109
0.314 0.051 -0.105
0.309 0.053 -0.104
0.311 0.056 -0.105
0.305 0.058 -0.103
0.302 0.060 -0.102
0.301 0.063 -0.101
0.313 0.068 -0.106
0.307 0.070 -0.104
0.298 0.071 -0.101
0.294 0.072 -0.099
0.302 0.078 -0.102
0.317 0.084 -0.107
0.322 0.089 -0.109
0.320 0.091 -0.109
0.306 0.090 -0.104
0.306 0.093 -0.104
0.313 0.099 -0.107
0.319 0.104 -0.109
0.315 0.105 -0.108
0.318 0.110 -0.109
0.326 0.116 -0.112
0.300 0.116 -0.103
0.333 0.145 -0.116
0.344 0.154 -0.120
0.326 0.149 -0.114
0.353 0.200 -0.126
0.331 -0.446 -0.140
0.328 -0.437 -0.138
0.323 -0.426 -0.136
0.324 -0.421 -0.135
0.326 -0.418 -0.136
0.327 -0.414 -0.136
0.325 -0.405 -0.134
0.327 -0.401 -0.134
0.324 -0.393 -0.133
0.319 -0.381 -0.130
0.319 -0.376 -0.129
0.324 -0.376 -0.131
0.325 -0.371 -0.130
0.324 -0.365 -0.129
0.322 -0.358 -0.128
0.323 -0.353 -0.128
0.323 -0.348 -0.127
0.324 -0.343 -0.127
0.314 -0.328 -0.122
0.313 -0.322 -0.121
0.307 -0.311 -0.119
0.311 -0.310 -0.120
0.314 -0.308 -0.120
0.315 -0.304 -0.120
0.314 -0.298 -0.119
0.310 -0.290 -0.117
0.311 -0.287 -0.117
0.312 -0.283 -0.117
0.312 -0.278 -0.116
0.310 -0.272 -0.115
0.308 -0.266 -0.114
0.309 -0.263 -0.114
0.311 -0.260 -0.114
0.311 -0.256 -0.114
0.308 -0.250 -0.112
0.307 -0.244 -0.111
0.306 -0.240 -0.111
0.304 -0.234 -0.110
0.301 -0.228 -0.108
0.299 -0.223 -0.107
0.299 -0.219 -0.107
0.294 -0.212 -0.105
0.292 -0.206 -0.104
0.206 -0.141 -0.073
0.204 -0.137 -0.072
0.206 -0.136 -0.072
0.210 -0.136 -0.074
0.222 -0.141 -0.077
0.224 -0.140 -0.078
0.227 -0.139 -0.079
0.215 -0.129 -0.074
0.208 -0.123 -0.072
0.208 -0.121 -0.072
0.210 -0.119 -0.072
0.219 -0.122 -0.075
0.242 -0.132 -0.083
0.242 -0.130 -0.083
0.242 -0.127 -0.083
0.244 -0.125 -0.083
0.247 -0.124 -0.084
0.311 -0.153 -0.105
0.313 -0.151 -0.106
0.315 -0.149 -0.106
0.319 -0.147 -0.107
0.321 -0.145 -0.108
0.322 -0.142 -0.108
0.318 -0.137 -0.107
0.282 -0.116 -0.094
0.268 -0.107 -0.089
0.296 -0.113 -0.099
0.313 -0.116 -0.104
0.355 -0.128 -0.118
0.359 -0.126 -0.119
0.368 -0.125 -0.122
0.372 -0.123 -0.123
0.379 -0.122 -0.125
0.393 -0.123 -0.130
0.402 -0.121 -0.132
0.409 -0.120 -0.135
0.427 -0.121 -0.140
0.429 -0.117 -0.141
0.440 -0.116 -0.144
0.445 -0.113 -0.146
0.441 -0.108 -0.144
0.393 -0.085 -0.128
0.397 -0.082 -0.130
0.369 -0.073 -0.120
0.355 -0.067 -0.116
0.297 -0.053 -0.097
0.292 -0.050 -0.095
0.286 -0.046 -0.093
0.287 -0.044 -0.093
0.290 -0.041 -0.094
0.293 -0.039 -0.095
0.295 -0.037 -0.096
0.296 -0.034 -0.096
0.295 -0.031 -0.096
0.291 -0.028 -0.094
0.296 -0.026 -0.096
0.311 -0.024 -0.101
0.317 -0.022 -0.103
0.311 -0.018 -0.101
0.302 -0.015 -0.098
0.305 -0.010 -0.099
0.319 -0.007 -0.103
0.329 -0.005 -0.107
0.327 -0.001 -0.106
0.315 0.001 -0.102
0.315 0.004 -0.102
0.313 0.007 -0.101
0.305 0.010 -0.099
0.288 0.012 -0.093
0.295 0.015 -0.096
0.312 0.019 -0.101
0.319 0.022 -0.104
0.316 0.025 -0.103
0.309 0.027 -0.100
0.297 0.029 -0.096
0.296 0.031 -0.096
0.297 0.034 -0.097
0.307 0.038 -0.100
0.314 0.042 -0.102
0.319 0.046 -0.104
0.316 0.048 -0.103
0.308 0.050 -0.100
0.311 0.053 -0.101
0.318 0.057 -0.104
0.311 0.059 -0.102
0.298 0.059 -0.097
0.310 0.065 -0.101
0.317 0.069 -0.104
0.317 0.072 -0.104
0.309 0.073 -0.101
0.306 0.076 -0.101
0.310 0.079 -0.102
0.320 0.085 -0.105
0.320 0.088 -0.105
0.309 0.088 -0.102
0.307 0.090 -0.101
0.308 0.094 -0.102
0.314 0.099 -0.104
0.321 0.104 -0.106
0.320 0.107 -0.106
0.322 0.111 -0.107
0.322 0.114 -0.107
0.337 0.123 -0.112
0.328 0.123 -0.110
0.315 0.121 -0.105
3.166 1.281 -1.063
0.339 0.151 -0.115
0.356 0.190 -0.123
0.357 0.194 -0.123
0.355 0.205 -0.123
0.336 -0.459 -0.138
0.329 -0.444 -0.135
0.329 -0.438 -0.134
0.328 -0.431 -0.134
0.325 -0.421 -0.132
0.327 -0.418 -0.132
0.325 -0.410 -0.130
0.323 -0.402 -0.129
0.322 -0.396 -0.128
0.323 -0.391 -0.128
0.319 -0.380 -0.126
0.319 -0.375 -0.125
0.323 -0.374 -0.126
0.327 -0.373 -0.127
0.325 -0.365 -0.126
0.320 -0.355 -0.124
0.320 -0.349 -0.123
0.324 -0.348 -0.124
0.313 -0.332 -0.119
0.311 -0.324 -0.117
0.309 -0.317 -0.116
0.310 -0.313 -0.116
0.311 -0.310 -0.116
0.313 -0.306 -0.116
0.313 -0.302 -0.116
0.312 -0.296 -0.115
0.310 -0.290 -0.114
0.310 -0.286 -0.113
0.311 -0.282 -0.113
0.308 -0.274 -0.111
0.307 -0.270 -0.111
0.307 -0.265 -0.110
0.307 -0.261 -0.110
0.309 -0.258 -0.110
0.310 -0.254 -0.110
0.310 -0.250 -0.110
0.305 -0.242 -0.107
0.302 -0.236 -0.106
0.299 -0.230 -0.105
0.298 -0.225 -0.104
0.298 -0.222 -0.104
0.296 -0.216 -0.102
0.290 -0.209 -0.100
0.206 -0.140 -0.070
0.207 -0.139 -0.071
0.208 -0.137 -0.071
0.210 -0.136 -0.071
0.221 -0.141 -0.075
0.225 -0.140 -0.076
0.228 -0.139 -0.077
0.224 -0.135 -0.075
0.207 -0.122 -0.069
0.208 -0.120 -0.070
0.209 -0.119 -0.070
0.218 -0.121 -0.073
0.241 -0.132 -0.080
0.242 -0.130 -0.080
0.243 -0.127 -0.080
0.244 -0.125 -0.080
0.246 -0.124 -0.081
0.299 -0.147 -0.098
0.313 -0.151 -0.103
0.317 -0.149 -0.104
0.318 -0.147 -0.104
0.320 -0.144 -0.105
0.321 -0.142 -0.105
0.310 -0.133 -0.101
0.297 -0.125 -0.097
0.268 -0.105 -0.087
0.284 -0.108 -0.092
0.355 -0.128 -0.114
0.358 -0.125 -0.115
0.362 -0.123 -0.116
0.371 -0.123 -0.119
0.390 -0.125 -0.125
0.395 -0.123 -0.126
0.402 -0.121 -0.128
0.405 -0.118 -0.129
0.404 -0.114 -0.129
0.422 -0.115 -0.134
0.433 -0.114 -0.138
0.444 -0.113 -0.141
0.439 -0.107 -0.139
0.397 -0.086 -0.126
0.395 -0.082 -0.125
0.283 -0.051 -0.090
0.284 -0.048 -0.090
0.286 -0.046 -0.090
0.283 -0.043 -0.089
0.284 -0.040 -0.090
0.287 -0.038 -0.091
0.292 -0.036 -0.092
0.294 -0.034 -0.093
0.299 -0.031 -0.094
0.297 -0.029 -0.094
0.301 -0.026 -0.095
0.311 -0.024 -0.098
0.310 -0.021 -0.097
0.302 -0.018 -0.095
0.286 -0.014 -0.090
0.288 -0.012 -0.090
0.294 -0.009 -0.092
0.308 -0.007 -0.097
0.318 -0.004 -0.100
0.323 -0.001 -0.102
0.316 0.001 -0.099
0.307 0.004 -0.097
0.313 0.007 -0.099
0.304 0.010 -0.096
0.291 0.012 -0.091
0.295 0.015 -0.093
0.301 0.018 -0.095
0.316 0.022 -0.099
0.310 0.024 -0.098
0.306 0.027 -0.096
0.306 0.029 -0.096
0.308 0.033 -0.097
0.308 0.035 -0.097
0.314 0.039 -0.099
0.318 0.042 -0.100
0.311 0.044 -0.098
0.307 0.047 -0.097
0.307 0.050 -0.097
0.318 0.054 -0.101
0.325 0.059 -0.103
0.311 0.059 -0.099
0.299 0.060 -0.095
0.302 0.063 -0.096
0.316 0.069 -0.101
0.321 0.073 -0.102
0.319 0.075 -0.101
0.313 0.077 -0.100
0.310 0.079 -0.099
0.310 0.082 -0.099
0.310 0.085 -0.099
0.301 0.086 -0.096
0.300 0.088 -0.096
0.315 0.099 -0.101
0.319 0.103 -0.103
0.324 0.108 -0.104
0.320 0.110 -0.103
0.326 0.115 -0.105
0.340 0.123 -0.110
0.345 0.129 -0.112
0.335 0.128 -0.109
1.236 0.499 -0.403
0.329 0.147 -0.108
0.336 0.153 -0.110
0.357 0.186 -0.119
0.354 0.188 -0.118
0.328 -0.448 -0.131
0.329 -0.444 -0.131
0.327 -0.435 -0.130
0.326 -0.428 -0.129
0.324 -0.420 -0.127
0.323 -0.413 -0.126
0.324 -0.408 -0.126
0.320 -0.398 -0.124
0.321 -0.394 -0.124
0.322 -0.389 -0.124
0.320 -0.381 -0.122
0.319 -0.375 -0.122
0.324 -0.375 -0.123
0.329 -0.375 -0.124
0.319 -0.358 -0.120
0.318 -0.352 -0.119
0.321 -0.349 -0.119
0.319 -0.342 -0.118
0.316 -0.334 -0.117
0.312 -0.324 -0.114
0.311 -0.318 -0.113
0.311 -0.313 -0.113
0.310 -0.308 -0.112
0.310 -0.303 -0.112
0.312 -0.300 -0.112
0.311 -0.295 -0.111
0.309 -0.288 -0.110
0.308 -0.283 -0.109
0.305 -0.276 -0.107
0.307 -0.273 -0.108
0.308 -0.269 -0.107
0.306 -0.263 -0.106
0.306 -0.259 -0.106
0.306 -0.255 -0.106
0.305 -0.250 -0.105
0.301 -0.243 -0.103
0.300 -0.238 -0.102
0.301 -0.236 -0.103
0.301 -0.231 -0.102
0.299 -0.226 -0.101
0.297 -0.221 -0.100
0.297 -0.217 -0.100
0.289 -0.207 -0.097
0.217 -0.151 -0.072
0.211 -0.144 -0.070
0.209 -0.140 -0.069
0.208 -0.137 -0.069
0.209 -0.135 -0.069
0.221 -0.140 -0.073
0.224 -0.140 -0.073
0.226 -0.138 -0.074
0.227 -0.136 -0.074
0.208 -0.122 -0.067
0.208 -0.120 -0.067
0.209 -0.118 -0.068
0.210 -0.117 -0.068
0.241 -0.131 -0.078
0.242 -0.129 -0.078
0.243 -0.127 -0.078
0.245 -0.126 -0.078
0.246 -0.123 -0.078
0.313 -0.151 -0.100
0.315 -0.148 -0.100
0.317 -0.146 -0.101
0.319 -0.144 -0.101
0.317 -0.140 -0.100
0.316 -0.136 -0.100
0.281 -0.107 -0.088
0.283 -0.105 -0.089
0.354 -0.127 -0.110
0.357 -0.125 -0.111
0.363 -0.124 -0.113
0.382 -0.126 -0.119
0.389 -0.125 -0.121
0.395 -0.123 -0.123
0.400 -0.121 -0.124
0.401 -0.117 -0.124
0.407 -0.115 -0.126
0.423 -0.115 -0.131
0.426 -0.112 -0.131
0.438 -0.111 -0.135
0.446 -0.109 -0.137
0.424 -0.100 -0.131
0.398 -0.086 -0.122
0.399 -0.083 -0.122
0.374 -0.074 -0.115
0.358 -0.067 -0.110
0.280 -0.050 -0.086
0.284 -0.048 -0.087
0.283 -0.045 -0.087
0.280 -0.042 -0.086
0.281 -0.040 -0.086
0.286 -0.038 -0.087
0.292 -0.036 -0.089
0.305 -0.035 -0.093
0.307 -0.032 -0.094
0.311 -0.027 -0.095
0.308 -0.024 -0.094
0.307 -0.021 -0.094
0.298 -0.018 -0.091
0.295 -0.015 -0.090
0.296 -0.012 -0.090
0.290 -0.009 -0.089
0.293 -0.007 -0.089
0.300 -0.004 -0.092
0.304 -0.001 -0.093
0.311 0.001 -0.095
0.315 0.004 -0.096
0.308 0.007 -0.094
0.307 0.010 -0.094
0.306 0.013 -0.093
0.310 0.016 -0.095
0.319 0.019 -0.097
0.311 0.021 -0.095
0.312 0.024 -0.095
0.311 0.027 -0.095
0.312 0.030 -0.095
0.312 0.033 -0.095
0.312 0.036 -0.096
0.319 0.039 -0.097
0.322 0.043 -0.099
0.315 0.045 -0.097
0.314 0.048 -0.096
0.323 0.052 -0.099
0.319 0.054 -0.098
0.319 0.057 -0.098
0.308 0.058 -0.095
0.297 0.059 -0.091
0.300 0.062 -0.092
0.307 0.067 -0.095
0.317 0.072 -0.098
0.322 0.076 -0.099
0.322 0.079 -0.099
0.316 0.081 -0.098
0.308 0.081 -0.095
0.303 0.083 -0.094
0.300 0.085 -0.093
0.302 0.089 -0.094
0.310 0.094 -0.097
0.323 0.101 -0.101
0.326 0.105 -0.102
0.328 0.109 -0.102
0.332 0.114 -0.104
0.328 0.116 -0.103
0.336 0.122 -0.105
0.340 0.127 -0.107
0.342 0.131 -0.108
0.324 0.144 -0.103
0.329 0.150 -0.105
0.350 0.178 -0.113
0.356 0.185 -0.115
0.362 0.208 -0.118
0.328 -0.447 -0.127
0.327 -0.441 -0.126
0.325 -0.432 -0.125
0.322 -0.423 -0.123
0.323 -0.418 -0.123
0.323 -0.412 -0.122
0.319 -0.402 -0.120
0.319 -0.397 -0.120
0.320 -0.392 -0.120
0.319 -0.385 -0.119
0.315 -0.374 -0.117
0.318 -0.373 -0.117
0.321 -0.370 -0.118
0.316 -0.359 -0.115
0.316 -0.354 -0.115
0.318 -0.351 -0.115
0.317 -0.345 -0.114
0.319 -0.341 -0.114
0.317 -0.335 -0.113
0.314 -0.326 -0.111
0.313 -0.320 -0.111
0.312 -0.314 -0.110
0.310 -0.308 -0.109
0.310 -0.303 -0.108
0.311 -0.299 -0.108
0.306 -0.290 -0.106
0.306 -0.285 -0.105
0.305 -0.280 -0.105
0.305 -0.275 -0.104
0.305 -0.271 -0.104
0.306 -0.267 -0.103
0.306 -0.263 -0.103
0.305 -0.259 -0.103
0.305 -0.254 -0.102
0.303 -0.249 -0.101
0.301 -0.243 -0.100
0.300 -0.238 -0.099
0.302 -0.235 -0.100
0.302 -0.232 -0.099
0.300 -0.226 -0.098
0.297 -0.220 -0.097
0.294 -0.215 -0.096
0.297 -0.213 -0.096
0.212 -0.144 -0.068
0.209 -0.140 -0.067
0.208 -0.137 -0.067
0.208 -0.134 -0.066
0.221 -0.140 -0.070
0.225 -0.140 -0.071
0.227 -0.139 -0.072
0.227 -0.136 -0.072
0.209 -0.123 -0.066
0.207 -0.120 -0.065
0.208 -0.118 -0.065
0.209 -0.116 -0.065
0.236 -0.128 -0.073
0.242 -0.129 -0.075
0.243 -0.127 -0.075
0.244 -0.125 -0.075
0.246 -0.123 -0.076
0.258 -0.127 -0.080
0.310 -0.149 -0.096
0.313 -0.147 -0.096
0.315 -0.145 -0.097
0.316 -0.142 -0.097
0.317 -0.139 -0.097
0.312 -0.134 -0.095
0.277 -0.113 -0.084
0.274 -0.104 -0.083
0.279 -0.103 -0.084
0.349 -0.125 -0.105
0.357 -0.125 -0.108
0.366 -0.124 -0.110
0.379 -0.125 -0.114
0.384 -0.123 -0.115
0.389 -0.121 -0.117
0.397 -0.120 -0.119
0.403 -0.118 -0.121
0.409 -0.115 -0.123
0.422 -0.115 -0.126
0.428 -0.113 -0.128
0.432 -0.110 -0.129
0.438 -0.107 -0.131
0.436 -0.102 -0.130
0.400 -0.086 -0.119
0.387 -0.076 -0.115
0.284 -0.048 -0.084
0.285 -0.046 -0.084
0.284 -0.043 -0.084
0.285 -0.040 -0.085
0.290 -0.038 -0.086
0.298 -0.037 -0.088
0.307 -0.035 -0.091
0.319 -0.034 -0.094
0.320 -0.031 -0.095
0.319 -0.028 -0.094
0.318 -0.025 -0.094
0.313 -0.021 -0.092
0.309 -0.018 -0.091
0.310 -0.016 -0.092
0.310 -0.013 -0.092
0.304 -0.010 -0.090
0.295 -0.007 -0.087
0.293 -0.004 -0.087
0.306 -0.001 -0.090
0.303 0.001 -0.089
0.301 0.004 -0.089
0.301 0.007 -0.089
0.303 0.010 -0.090
0.314 0.013 -0.093
0.318 0.016 -0.094
0.323 0.019 -0.096
0.326 0.022 -0.097
0.309 0.024 -0.092
0.308 0.027 -0.091
0.306 0.029 -0.091
0.306 0.032 -0.091
0.306 0.035 -0.091
0.308 0.038 -0.091
0.307 0.041 -0.091
0.308 0.044 -0.092
0.314 0.048 -0.093
0.328 0.053 -0.098
0.328 0.056 -0.098
0.323 0.058 -0.096
0.316 0.060 -0.094
0.310 0.062 -0.092
0.304 0.063 -0.091
0.303 0.066 -0.090
0.311 0.070 -0.093
0.318 0.075 -0.095
0.326 0.080 -0.098
0.321 0.082 -0.096
0.312 0.083 -0.094
0.303 0.083 -0.091
0.298 0.085 -0.090
0.301 0.089 -0.091
0.325 0.099 -0.098
0.330 0.103 -0.100
0.335 0.108 -0.101
0.333 0.111 -0.101
0.326 0.112 -0.099
0.326 0.115 -0.099
0.328 0.119 -0.100
0.322 0.120 -0.098
0.328 0.146 -0.101
0.333 0.151 -0.103
0.347 0.180 -0.109
0.372 0.210 -0.118
0.336 0.212 -0.108
0.324 -0.441 -0.121
0.325 -0.437 -0.121
0.320 -0.425 -0.119
0.320 -0.420 -0.118
0.322 -0.416 -0.118
0.321 -0.410 -0.118
0.318 -0.400 -0.116
0.319 -0.395 -0.116
0.321 -0.393 -0.116
0.312 -0.376 -0.112
0.310 -0.369 -0.111
0.315 -0.368 -0.112
0.317 -0.365 -0.112
0.315 -0.358 -0.111
0.315 -0.352 -0.111
0.315 -0.347 -0.110
0.315 -0.343 -0.110
0.316 -0.338 -0.110
0.315 -0.332 -0.109
0.311 -0.323 -0.107
0.311 -0.318 -0.106
0.312 -0.314 -0.106
0.311 -0.308 -0.105
0.312 -0.304 -0.105
0.309 -0.297 -0.104
0.307 -0.290 -0.103
0.306 -0.285 -0.102
0.306 -0.280 -0.101
0.305 -0.275 -0.101
0.303 -0.269 -0.100
0.304 -0.266 -0.100
0.306 -0.262 -0.100
0.305 -0.258 -0.099
0.303 -0.252 -0.098
0.302 -0.247 -0.097
0.302 -0.243 -0.097
0.300 -0.238 -0.096
0.300 -0.233 -0.096
0.300 -0.230 -0.096
0.297 -0.224 -0.094
0.295 -0.219 -0.093
0.296 -0.216 -0.093
0.284 -0.204 -0.089
0.215 -0.146 -0.067
0.209 -0.140 -0.065
0.208 -0.137 -0.064
0.210 -0.135 -0.065
0.220 -0.139 -0.068
0.224 -0.139 -0.069
0.225 -0.137 -0.069
0.226 -0.135 -0.069
0.214 -0.126 -0.065
0.208 -0.120 -0.063
0.208 -0.118 -0.063
0.209 -0.116 -0.063
0.230 -0.125 -0.070
0.241 -0.128 -0.073
0.243 -0.127 -0.073
0.243 -0.124 -0.073
0.245 -0.123 -0.073
0.254 -0.124 -0.076
0.308 -0.148 -0.092
0.311 -0.146 -0.093
0.314 -0.144 -0.093
0.316 -0.142 -0.094
0.317 -0.139 -0.094
0.312 -0.134 -0.092
0.285 -0.116 -0.084
0.263 -0.102 -0.077
0.260 -0.098 -0.076
0.270 -0.100 -0.079
0.350 -0.126 -0.103
0.355 -0.124 -0.104
0.366 -0.124 -0.107
0.373 -0.123 -0.109
0.382 -0.122 -0.111
0.387 -0.120 -0.113
0.393 -0.118 -0.114
0.404 -0.118 -0.117
0.414 -0.117 -0.120
0.418 -0.114 -0.121
0.426 -0.112 -0.123
0.431 -0.109 -0.125
0.438 -0.107 -0.127
0.423 -0.099 -0.122
0.392 -0.085 -0.113
0.395 -0.082 -0.114
0.356 -0.067 -0.103
0.295 -0.053 -0.085
0.294 -0.050 -0.085
0.285 -0.046 -0.082
0.286 -0.043 -0.082
0.290 -0.041 -0.083
0.296 -0.039 -0.085
0.300 -0.037 -0.086
0.313 -0.036 -0.090
0.316 -0.033 -0.090
0.317 -0.030 -0.091
0.318 -0.028 -0.091
0.319 -0.025 -0.091
0.315 -0.022 -0.090
0.314 -0.019 -0.090
0.305 -0.015 -0.087
0.315 -0.013 -0.090
0.322 -0.010 -0.092
0.307 -0.007 -0.088
0.300 -0.004 -0.086
0.301 -0.001 -0.086
0.303 0.001 -0.087
0.296 0.004 -0.085
0.300 0.007 -0.086
0.310 0.010 -0.089
0.314 0.013 -0.090
0.315 0.016 -0.090
0.302 0.018 -0.087
0.303 0.021 -0.087
0.305 0.024 -0.087
0.307 0.027 -0.088
0.307 0.029 -0.088
0.307 0.032 -0.088
0.308 0.035 -0.088
0.308 0.038 -0.089
0.308 0.041 -0.089
0.309 0.044 -0.089
0.308 0.047 -0.089
0.308 0.050 -0.089
0.308 0.052 -0.089
0.322 0.058 -0.093
0.322 0.061 -0.093
0.315 0.062 -0.091
0.310 0.064 -0.090
0.304 0.066 -0.088
0.306 0.069 -0.089
0.316 0.075 -0.092
0.320 0.078 -0.093
0.320 0.082 -0.093
0.318 0.084 -0.092
0.307 0.084 -0.089
0.305 0.087 -0.089
0.320 0.094 -0.093
0.321 0.097 -0.094
0.331 0.104 -0.097
0.340 0.110 -0.100
0.334 0.111 -0.098
0.314 0.107 -0.092
0.318 0.112 -0.093
0.316 0.115 -0.093
0.310 0.115 -0.091
0.330 0.147 -0.099
0.345 0.156 -0.103
0.343 0.178 -0.104
0.354 0.195 -0.108
0.354 0.199 -0.108
0.355 0.204 -0.109
0.349 0.204 -0.107
0.361 0.215 -0.111
0.372 0.226 -0.115
0.313 -0.431 -0.114
0.319 -0.434 -0.115
0.319 -0.429 -0.115
0.320 -0.425 -0.115
0.321 -0.420 -0.115
0.319 -0.411 -0.113
0.317 -0.404 -0.112
0.318 -0.400 -0.112
0.318 -0.394 -0.112
0.314 -0.383 -0.110
0.308 -0.370 -0.107
0.309 -0.367 -0.107
0.314 -0.366 -0.108
0.316 -0.364 -0.109
0.315 -0.357 -0.108
0.314 -0.351 -0.107
0.314 -0.345 -0.106
0.313 -0.340 -0.105
0.313 -0.334 -0.105
0.311 -0.327 -0.104
0.309 -0.320 -0.103
0.307 -0.313 -0.102
0.306 -0.308 -0.101
0.306 -0.302 -0.100
0.307 -0.299 -0.100
0.308 -0.295 -0.100
0.308 -0.290 -0.099
0.307 -0.285 -0.099
0.306 -0.279 -0.098
0.304 -0.274 -0.097
0.303 -0.269 -0.096
0.305 -0.266 -0.096
0.305 -0.262 -0.096
0.302 -0.255 -0.095
0.301 -0.250 -0.094
0.301 -0.246 -0.094
0.299 -0.241 -0.093
0.296 -0.234 -0.092
0.297 -0.231 -0.092
0.297 -0.227 -0.091
0.293 -0.221 -0.090
0.294 -0.218 -0.090
0.243 -0.174 -0.074
0.233 -0.164 -0.070
0.233 -0.161 -0.070
0.215 -0.146 -0.065
0.208 -0.139 -0.062
0.208 -0.137 -0.062
0.211 -0.136 -0.063
0.215 -0.136 -0.064
0.225 -0.139 -0.067
0.225 -0.137 -0.067
0.223 -0.134 -0.066
0.217 -0.127 -0.064
0.208 -0.120 -0.061
0.208 -0.118 -0.061
0.209 -0.116 -0.061
0.222 -0.121 -0.065
0.241 -0.128 -0.070
0.243 -0.127 -0.071
0.243 -0.124 -0.070
0.245 -0.123 -0.071
0.247 -0.121 -0.071
0.298 -0.143 -0.086
0.311 -0.146 -0.090
0.313 -0.144 -0.090
0.316 -0.142 -0.091
0.318 -0.139 -0.091
0.308 -0.132 -0.088
0.305 -0.128 -0.087
0.248 -0.096 -0.070
0.264 -0.100 -0.075
0.266 -0.098 -0.075
0.351 -0.126 -0.099
0.361 -0.126 -0.102
0.366 -0.124 -0.103
0.373 -0.123 -0.105
0.382 -0.122 -0.108
0.387 -0.120 -0.109
0.391 -0.118 -0.110
0.401 -0.117 -0.113
0.406 -0.114 -0.114
0.415 -0.113 -0.116
0.427 -0.112 -0.120
0.436 -0.110 -0.122
0.441 -0.107 -0.123
0.395 -0.085 -0.110
0.395 -0.081 -0.110
0.386 -0.076 -0.108
0.300 -0.054 -0.084
0.292 -0.049 -0.081
0.290 -0.046 -0.081
0.286 -0.043 -0.079
0.290 -0.041 -0.080
0.298 -0.039 -0.082
0.300 -0.037 -0.083
0.294 -0.033 -0.081
0.303 -0.032 -0.084
0.303 -0.029 -0.084
0.312 -0.027 -0.086
0.317 -0.025 -0.088
0.322 -0.022 -0.089
0.307 -0.018 -0.085
0.306 -0.015 -0.085
0.309 -0.013 -0.085
0.325 -0.010 -0.090
0.316 -0.007 -0.087
0.301 -0.004 -0.083
0.297 -0.001 -0.082
0.305 0.001 -0.084
0.308 0.004 -0.085
0.311 0.007 -0.086
0.306 0.010 -0.085
0.303 0.012 -0.084
0.303 0.015 -0.084
0.305 0.018 -0.085
0.305 0.021 -0.084
0.307 0.024 -0.085
0.308 0.027 -0.085
0.309 0.030 -0.086
0.309 0.032 -0.086
0.310 0.035 -0.086
0.310 0.038 -0.086
0.311 0.041 -0.086
0.310 0.044 -0.086
0.310 0.047 -0.086
0.310 0.050 -0.086
0.310 0.053 -0.086
0.310 0.055 -0.086
0.311 0.059 -0.087
0.315 0.062 -0.088
0.313 0.065 -0.088
0.309 0.067 -0.086
0.310 0.070 -0.087
0.317 0.075 -0.089
0.311 0.076 -0.087
0.319 0.081 -0.089
0.318 0.084 -0.089
0.312 0.085 -0.088
0.310 0.088 -0.087
0.310 0.091 -0.088
0.310 0.094 -0.087
0.318 0.099 -0.090
0.336 0.108 -0.095
0.320 0.106 -0.091
0.308 0.105 -0.087
0.307 0.108 -0.087
0.312 0.113 -0.089
0.310 0.115 -0.088
0.353 0.160 -0.102
0.334 0.173 -0.098
0.345 0.182 -0.101
0.335 0.181 -0.098
0.346 0.191 -0.102
0.350 0.197 -0.103
0.345 0.201 -0.102
0.348 0.215 -0.104
0.311 -0.428 -0.109
0.314 -0.426 -0.110
0.318 -0.427 -0.111
0.320 -0.424 -0.111
0.318 -0.416 -0.110
0.313 -0.404 -0.108
0.314 -0.400 -0.108
0.315 -0.395 -0.107
0.314 -0.389 -0.107
0.310 -0.378 -0.105
0.309 -0.371 -0.104
0.310 -0.367 -0.104
0.312 -0.364 -0.104
0.312 -0.359 -0.103
0.316 -0.358 -0.104
0.314 -0.350 -0.103
0.312 -0.343 -0.102
0.311 -0.337 -0.101
0.311 -0.331 -0.100
0.310 -0.326 -0.100
0.309 -0.319 -0.099
0.308 -0.313 -0.098
0.307 -0.308 -0.097
0.306 -0.302 -0.097
0.307 -0.298 -0.096
0.308 -0.294 -0.096
0.308 -0.290 -0.096
0.305 -0.283 -0.095
0.304 -0.278 -0.094
0.303 -0.272 -0.093
0.304 -0.269 -0.093
0.305 -0.266 -0.093
0.301 -0.258 -0.092
0.300 -0.253 -0.091
0.299 -0.248 -0.090
0.299 -0.244 -0.090
0.296 -0.238 -0.089
0.295 -0.233 -0.088
0.292 -0.227 -0.087
0.286 -0.215 -0.085
0.242 -0.176 -0.071
0.233 -0.167 -0.068
0.229 -0.161 -0.067
0.218 -0.150 -0.063
0.214 -0.145 -0.062
0.208 -0.139 -0.060
0.210 -0.137 -0.061
0.212 -0.136 -0.061
0.215 -0.136 -0.062
0.218 -0.135 -0.062
0.217 -0.132 -0.062
0.218 -0.130 -0.062
0.222 -0.130 -0.063
0.210 -0.121 -0.059
0.209 -0.118 -0.059
0.210 -0.116 -0.059
0.215 -0.117 -0.061
0.241 -0.128 -0.068
0.243 -0.126 -0.068
0.244 -0.124 -0.068
0.244 -0.122 -0.068
0.247 -0.121 -0.069
0.312 -0.146 -0.087
0.314 -0.144 -0.087
0.317 -0.142 -0.088
0.317 -0.139 -0.088
0.311 -0.133 -0.086
0.246 -0.096 -0.068
0.267 -0.101 -0.073
0.263 -0.097 -0.072
0.350 -0.125 -0.096
0.360 -0.126 -0.098
0.368 -0.125 -0.100
0.369 -0.122 -0.101
0.378 -0.121 -0.103
0.386 -0.120 -0.105
0.389 -0.117 -0.106
0.392 -0.114 -0.106
0.406 -0.114 -0.110
0.412 -0.112 -0.112
0.429 -0.113 -0.116
0.439 -0.111 -0.119
0.445 -0.108 -0.120
0.449 -0.105 -0.121
0.404 -0.091 -0.109
0.395 -0.085 -0.106
0.396 -0.082 -0.107
0.389 -0.077 -0.105
0.290 -0.052 -0.078
0.291 -0.049 -0.078
0.290 -0.046 -0.078
0.286 -0.043 -0.077
0.287 -0.041 -0.077
0.292 -0.039 -0.078
0.290 -0.036 -0.078
0.294 -0.034 -0.079
0.290 -0.030 -0.078
0.297 -0.028 -0.079
0.296 -0.026 -0.079
0.306 -0.024 -0.082
0.302 -0.021 -0.081
0.312 -0.016 -0.083
0.300 -0.012 -0.080
0.303 -0.010 -0.081
0.310 -0.007 -0.083
0.296 -0.004 -0.079
0.305 -0.001 -0.082
0.319 0.001 -0.085
0.313 0.004 -0.084
0.300 0.007 -0.080
0.305 0.010 -0.081
0.306 0.013 -0.082
0.306 0.015 -0.082
0.308 0.018 -0.082
0.309 0.021 -0.083
0.310 0.024 -0.083
0.310 0.027 -0.083
0.311 0.030 -0.083
0.311 0.033 -0.083
0.311 0.035 -0.083
0.312 0.039 -0.084
0.313 0.041 -0.084
0.313 0.044 -0.084
0.312 0.047 -0.084
0.312 0.050 -0.084
0.312 0.053 -0.084
0.312 0.056 -0.084
0.314 0.059 -0.085
0.313 0.062 -0.084
0.313 0.065 -0.084
0.315 0.068 -0.085
0.315 0.071 -0.085
0.312 0.073 -0.084
0.318 0.078 -0.086
0.316 0.080 -0.086
0.318 0.084 -0.086
0.315 0.086 -0.086
0.313 0.089 -0.085
0.310 0.091 -0.084
0.305 0.092 -0.083
0.303 0.095 -0.083
0.317 0.102 -0.087
0.321 0.107 -0.088
0.312 0.107 -0.086
0.311 0.109 -0.085
0.322 0.116 -0.088
0.314 0.117 -0.087
0.302 0.115 -0.083
0.341 0.154 -0.095
0.347 0.161 -0.097
0.325 0.168 -0.092
0.343 0.181 -0.097
0.343 0.185 -0.098
0.348 0.191 -0.099
0.345 0.194 -0.098
0.346 0.198 -0.099
0.345 0.201 -0.099
0.368 0.219 -0.106
0.308 -0.423 -0.104
0.312 -0.424 -0.105
0.315 -0.423 -0.106
0.315 -0.417 -0.105
0.314 -0.409 -0.104
0.313 -0.403 -0.104
0.311 -0.395 -0.103
0.310 -0.389 -0.102
0.310 -0.383 -0.101
0.309 -0.376 -0.101
0.308 -0.370 -0.100
0.310 -0.367 -0.100
0.309 -0.360 -0.099
0.310 -0.356 -0.099
0.312 -0.353 -0.099
0.312 -0.348 -0.099
0.311 -0.341 -0.098
0.310 -0.335 -0.097
0.309 -0.330 -0.096
0.308 -0.324 -0.096
0.307 -0.317 -0.095
0.309 -0.314 -0.095
0.308 -0.309 -0.094
0.307 -0.302 -0.093
0.307 -0.298 -0.093
0.307 -0.293 -0.093
0.306 -0.288 -0.092
0.305 -0.282 -0.091
0.301 -0.274 -0.090
0.302 -0.271 -0.090
0.304 -0.269 -0.090
0.304 -0.264 -0.089
0.302 -0.258 -0.089
0.298 -0.251 -0.087
0.296 -0.245 -0.086
0.294 -0.240 -0.085
0.289 -0.231 -0.084
0.286 -0.226 -0.083
0.225 -0.172 -0.064
0.233 -0.175 -0.066
0.244 -0.180 -0.069
0.242 -0.176 -0.069
0.235 -0.168 -0.067
0.228 -0.160 -0.064
0.217 -0.149 -0.061
0.215 -0.146 -0.060
0.210 -0.139 -0.059
0.211 -0.138 -0.059
0.213 -0.137 -0.059
0.216 -0.136 -0.060
0.220 -0.136 -0.061
0.221 -0.134 -0.061
0.223 -0.133 -0.061
0.223 -0.130 -0.061
0.210 -0.121 -0.057
