VERSION .7
FIELDS x y z
SIZE 4 4 4
TYPE F F F
COUNT 1 1 1
WIDTH     2434
HEIGHT 1
VIEWPOINT 0 0 0 1 0 0 0
POINTS     2434
DATA ascii
0.307 0.113 -0.049
0.311 0.117 -0.050
0.317 0.123 -0.051
0.331 0.152 -0.054
0.328 0.154 -0.054
0.343 0.164 -0.056
0.310 0.155 -0.051
0.245 -0.338 -0.047
0.254 -0.347 -0.049
0.257 -0.346 -0.049
0.256 -0.340 -0.049
0.253 -0.331 -0.048
0.260 -0.336 -0.049
0.263 -0.335 -0.049
0.266 -0.335 -0.050
0.265 -0.329 -0.049
0.271 -0.331 -0.050
0.268 -0.323 -0.049
0.267 -0.316 -0.049
0.269 -0.283 -0.048
0.283 -0.293 -0.050
0.287 -0.293 -0.050
0.288 -0.290 -0.050
0.288 -0.285 -0.050
0.298 -0.290 -0.051
0.296 -0.284 -0.051
0.299 -0.282 -0.051
0.299 -0.278 -0.051
0.300 -0.274 -0.051
0.300 -0.270 -0.051
0.302 -0.268 -0.051
0.306 -0.267 -0.051
0.308 -0.265 -0.052
0.310 -0.262 -0.052
0.312 -0.259 -0.052
0.310 -0.254 -0.051
0.305 -0.245 -0.050
0.219 -0.165 -0.036
0.218 -0.162 -0.035
0.221 -0.162 -0.036
0.220 -0.158 -0.036
0.221 -0.156 -0.036
0.222 -0.154 -0.036
0.218 -0.149 -0.035
0.218 -0.146 -0.035
0.219 -0.144 -0.035
0.220 -0.142 -0.035
0.221 -0.140 -0.035
0.219 -0.136 -0.035
0.216 -0.132 -0.034
0.212 -0.128 -0.033
0.210 -0.124 -0.033
0.209 -0.121 -0.033
0.210 -0.119 -0.033
0.214 -0.120 -0.033
0.218 -0.119 -0.034
0.215 -0.116 -0.033
0.214 -0.112 -0.033
0.211 -0.109 -0.033
0.214 -0.108 -0.033
0.213 -0.105 -0.033
0.217 -0.105 -0.033
0.216 -0.103 -0.033
0.218 -0.101 -0.033
0.225 -0.102 -0.034
0.224 -0.099 -0.034
0.220 -0.095 -0.033
0.216 -0.092 -0.033
0.216 -0.089 -0.033
0.219 -0.088 -0.033
0.220 -0.087 -0.033
0.218 -0.084 -0.033
0.209 -0.078 -0.032
0.247 -0.090 -0.037
0.257 -0.091 -0.039
0.272 -0.094 -0.041
0.304 -0.099 -0.046
0.362 -0.111 -0.054
0.379 -0.113 -0.057
0.384 -0.111 -0.058
0.393 -0.109 -0.059
0.398 -0.107 -0.060
0.406 -0.106 -0.061
0.415 -0.104 -0.062
0.420 -0.101 -0.063
0.425 -0.098 -0.063
0.419 -0.093 -0.062
0.401 -0.086 -0.060
0.389 -0.080 -0.058
0.386 -0.075 -0.057
0.282 -0.050 -0.042
0.283 -0.047 -0.042
0.289 -0.046 -0.043
0.293 -0.044 -0.043
0.288 -0.040 -0.043
0.285 -0.037 -0.042
0.287 -0.035 -0.042
0.288 -0.033 -0.043
0.278 -0.029 -0.041
0.279 -0.026 -0.041
0.295 -0.025 -0.044
0.298 -0.023 -0.044
0.294 -0.020 -0.043
0.303 -0.018 -0.045
0.306 -0.015 -0.045
0.300 -0.012 -0.044
0.302 -0.010 -0.045
0.304 -0.007 -0.045
0.305 -0.004 -0.045
0.307 -0.001 -0.045
0.309 0.001 -0.046
0.315 0.004 -0.046
0.316 0.007 -0.047
0.316 0.010 -0.047
0.317 0.013 -0.047
0.316 0.016 -0.047
0.316 0.018 -0.047
0.316 0.021 -0.047
0.315 0.024 -0.047
0.314 0.027 -0.046
0.313 0.030 -0.046
0.313 0.033 -0.046
0.313 0.035 -0.046
0.314 0.038 -0.047
0.316 0.041 -0.047
0.317 0.044 -0.047
0.321 0.048 -0.048
0.323 0.051 -0.048
0.324 0.054 -0.048
0.327 0.058 -0.049
0.324 0.060 -0.048
0.323 0.063 -0.048
0.322 0.066 -0.048
0.321 0.069 -0.048
0.320 0.071 -0.048
0.321 0.075 -0.048
0.319 0.077 -0.048
0.318 0.080 -0.048
0.317 0.083 -0.047
0.316 0.085 -0.047
0.317 0.089 -0.048
0.318 0.092 -0.048
0.311 0.093 -0.047
0.309 0.095 -0.047
0.310 0.099 -0.047
0.309 0.101 -0.047
0.310 0.105 -0.047
0.316 0.110 -0.048
0.312 0.111 -0.047
0.315 0.116 -0.048
0.318 0.120 -0.048
1.288 0.524 -0.197
1.271 0.530 -0.194
0.337 0.154 -0.052
0.327 0.153 -0.050
0.304 0.152 -0.047
0.296 0.151 -0.046
0.254 -0.350 -0.046
0.251 -0.342 -0.045
0.259 -0.349 -0.046
0.255 -0.339 -0.046
0.255 -0.334 -0.045
0.258 -0.334 -0.046
0.265 -0.337 -0.047
0.262 -0.329 -0.046
0.265 -0.328 -0.046
0.265 -0.324 -0.046
0.269 -0.323 -0.046
0.210 -0.245 -0.036
0.201 -0.228 -0.034
0.198 -0.221 -0.033
0.199 -0.216 -0.033
0.281 -0.291 -0.046
0.289 -0.294 -0.047
0.289 -0.290 -0.047
0.290 -0.287 -0.047
0.293 -0.285 -0.048
0.295 -0.283 -0.048
0.295 -0.279 -0.047
0.299 -0.278 -0.048
0.303 -0.277 -0.048
0.305 -0.274 -0.048
0.301 -0.267 -0.048
0.302 -0.263 -0.048
0.304 -0.261 -0.048
0.300 -0.254 -0.047
0.302 -0.251 -0.047
0.307 -0.251 -0.048
0.301 -0.242 -0.047
0.213 -0.166 -0.033
0.203 -0.155 -0.031
0.207 -0.156 -0.032
0.212 -0.157 -0.032
0.212 -0.155 -0.032
0.222 -0.159 -0.034
0.223 -0.157 -0.034
0.220 -0.153 -0.033
0.218 -0.149 -0.033
0.217 -0.145 -0.032
0.219 -0.144 -0.033
0.218 -0.141 -0.032
0.215 -0.137 -0.032
0.214 -0.133 -0.032
0.208 -0.127 -0.031
0.213 -0.128 -0.031
0.211 -0.125 -0.031
0.205 -0.119 -0.030
0.204 -0.116 -0.030
0.203 -0.113 -0.030
0.214 -0.117 -0.031
0.216 -0.116 -0.032
0.198 -0.104 -0.029
0.211 -0.109 -0.031
0.206 -0.104 -0.030
0.215 -0.106 -0.031
0.220 -0.107 -0.032
0.218 -0.103 -0.031
0.220 -0.102 -0.032
0.228 -0.103 -0.033
0.228 -0.101 -0.033
0.227 -0.098 -0.032
0.221 -0.094 -0.032
0.221 -0.091 -0.032
0.218 -0.088 -0.031
0.213 -0.084 -0.030
0.218 -0.084 -0.031
0.222 -0.083 -0.032
0.238 -0.087 -0.034
0.238 -0.085 -0.034
0.249 -0.086 -0.035
0.386 -0.111 -0.054
0.388 -0.108 -0.054
0.398 -0.107 -0.056
0.408 -0.106 -0.057
0.415 -0.104 -0.058
0.421 -0.102 -0.059
0.424 -0.098 -0.059
0.425 -0.095 -0.059
0.404 -0.086 -0.056
0.394 -0.080 -0.055
0.378 -0.074 -0.053
0.290 -0.051 -0.040
0.283 -0.047 -0.039
0.287 -0.046 -0.040
0.287 -0.043 -0.040
0.284 -0.040 -0.039
0.281 -0.037 -0.039
0.286 -0.035 -0.040
0.290 -0.033 -0.040
0.286 -0.030 -0.040
0.287 -0.027 -0.040
0.291 -0.025 -0.040
0.288 -0.022 -0.040
0.289 -0.020 -0.040
0.298 -0.018 -0.041
0.305 -0.015 -0.042
0.300 -0.012 -0.042
0.302 -0.010 -0.042
0.304 -0.007 -0.042
0.307 -0.004 -0.043
0.309 -0.001 -0.043
0.310 0.001 -0.043
0.312 0.004 -0.043
0.316 0.007 -0.044
0.316 0.010 -0.044
0.316 0.013 -0.044
0.317 0.016 -0.044
0.317 0.018 -0.044
0.316 0.021 -0.044
0.314 0.024 -0.044
0.312 0.027 -0.043
0.313 0.030 -0.043
0.312 0.032 -0.043
0.313 0.035 -0.043
0.314 0.038 -0.044
0.315 0.041 -0.044
0.316 0.044 -0.044
0.319 0.048 -0.044
0.323 0.051 -0.045
0.324 0.054 -0.045
0.324 0.057 -0.045
0.325 0.060 -0.045
0.324 0.063 -0.045
0.322 0.066 -0.045
0.321 0.069 -0.045
0.320 0.071 -0.045
0.319 0.074 -0.045
0.320 0.077 -0.045
0.318 0.080 -0.045
0.315 0.082 -0.044
0.315 0.085 -0.044
0.315 0.088 -0.044
0.319 0.092 -0.045
0.307 0.092 -0.043
0.307 0.095 -0.043
0.305 0.097 -0.043
0.308 0.101 -0.044
0.306 0.103 -0.043
0.307 0.107 -0.044
0.312 0.111 -0.044
0.319 0.117 -0.045
0.318 0.120 -0.045
1.270 0.516 -0.182
0.323 0.148 -0.047
0.335 0.157 -0.049
0.330 0.158 -0.048
0.286 0.146 -0.042
0.322 0.178 -0.047
0.218 -0.301 -0.037
0.243 -0.331 -0.041
0.254 -0.342 -0.042
0.259 -0.343 -0.043
0.251 -0.328 -0.042
0.257 -0.332 -0.042
0.257 -0.327 -0.042
0.254 -0.319 -0.042
0.254 -0.315 -0.041
0.260 -0.317 -0.042
0.204 -0.241 -0.033
0.208 -0.243 -0.033
0.192 -0.221 -0.031
0.193 -0.218 -0.031
0.189 -0.211 -0.030
0.186 -0.204 -0.029
0.189 -0.204 -0.029
0.199 -0.212 -0.031
0.277 -0.287 -0.043
0.287 -0.292 -0.044
0.289 -0.290 -0.044
0.290 -0.286 -0.044
0.293 -0.285 -0.044
0.296 -0.283 -0.045
0.295 -0.278 -0.044
0.300 -0.278 -0.045
0.306 -0.280 -0.046
0.306 -0.275 -0.045
0.302 -0.268 -0.045
0.302 -0.263 -0.044
0.301 -0.258 -0.044
0.299 -0.253 -0.044
0.299 -0.248 -0.044
0.302 -0.247 -0.044
0.304 -0.244 -0.044
0.206 -0.160 -0.030
0.202 -0.155 -0.029
0.209 -0.157 -0.030
0.211 -0.156 -0.030
0.208 -0.152 -0.030
0.210 -0.150 -0.030
0.217 -0.153 -0.031
0.219 -0.152 -0.031
0.214 -0.146 -0.030
0.209 -0.140 -0.029
0.202 -0.133 -0.028
0.214 -0.138 -0.030
0.211 -0.134 -0.029
0.208 -0.130 -0.029
0.206 -0.126 -0.028
0.215 -0.129 -0.030
0.215 -0.127 -0.030
0.215 -0.125 -0.030
0.214 -0.122 -0.029
0.211 -0.118 -0.029
0.212 -0.116 -0.029
0.216 -0.116 -0.029
0.216 -0.113 -0.029
0.212 -0.109 -0.029
0.214 -0.108 -0.029
0.216 -0.107 -0.029
0.219 -0.106 -0.030
0.222 -0.105 -0.030
0.222 -0.103 -0.030
0.223 -0.101 -0.030
0.228 -0.101 -0.031
0.224 -0.097 -0.030
0.224 -0.095 -0.030
0.221 -0.091 -0.029
0.214 -0.086 -0.028
0.213 -0.084 -0.028
0.208 -0.080 -0.028
0.233 -0.087 -0.031
0.227 -0.083 -0.030
0.237 -0.084 -0.031
0.240 -0.083 -0.032
0.234 -0.079 -0.031
0.248 -0.081 -0.033
0.394 -0.110 -0.052
0.400 -0.108 -0.052
0.402 -0.104 -0.053
0.414 -0.104 -0.054
0.417 -0.100 -0.054
0.426 -0.099 -0.056
0.428 -0.095 -0.056
0.417 -0.089 -0.054
0.286 -0.050 -0.037
0.282 -0.047 -0.037
0.284 -0.045 -0.037
0.287 -0.043 -0.037
0.284 -0.040 -0.037
0.283 -0.037 -0.037
0.286 -0.035 -0.037
0.292 -0.033 -0.038
0.296 -0.031 -0.038
0.290 -0.027 -0.038
0.289 -0.025 -0.037
0.285 -0.022 -0.037
0.287 -0.019 -0.037
0.297 -0.017 -0.038
0.309 -0.015 -0.040
0.302 -0.012 -0.039
0.303 -0.010 -0.039
0.305 -0.007 -0.039
0.309 -0.004 -0.040
0.311 -0.001 -0.040
0.312 0.001 -0.040
0.314 0.004 -0.041
0.316 0.007 -0.041
0.317 0.010 -0.041
0.317 0.013 -0.041
0.317 0.016 -0.041
0.317 0.018 -0.041
0.316 0.021 -0.041
0.314 0.024 -0.041
0.313 0.027 -0.041
0.312 0.030 -0.041
0.313 0.032 -0.041
0.313 0.035 -0.041
0.314 0.038 -0.041
0.314 0.041 -0.041
0.314 0.044 -0.041
0.318 0.047 -0.041
0.321 0.051 -0.042
0.324 0.054 -0.042
0.324 0.057 -0.042
0.325 0.060 -0.042
0.325 0.063 -0.042
0.323 0.066 -0.042
0.321 0.069 -0.042
0.319 0.071 -0.042
0.319 0.074 -0.042
0.318 0.077 -0.042
0.317 0.080 -0.042
0.316 0.082 -0.041
0.315 0.085 -0.041
0.315 0.088 -0.041
0.321 0.093 -0.042
0.324 0.097 -0.043
0.309 0.095 -0.041
0.310 0.099 -0.041
0.308 0.101 -0.041
0.305 0.103 -0.040
0.300 0.104 -0.040
0.310 0.111 -0.041
0.314 0.118 -0.042
0.330 0.127 -0.044
1.266 0.515 -0.170
0.334 0.156 -0.045
0.335 0.160 -0.045
0.291 0.145 -0.040
0.289 0.147 -0.039
0.323 0.168 -0.044
0.316 0.186 -0.044
0.218 -0.301 -0.034
0.239 -0.326 -0.037
0.249 -0.335 -0.039
0.254 -0.336 -0.039
0.259 -0.339 -0.040
0.249 -0.322 -0.038
0.248 -0.315 -0.038
0.245 -0.307 -0.037
0.198 -0.234 -0.029
0.187 -0.218 -0.028
0.188 -0.216 -0.028
0.181 -0.205 -0.027
0.182 -0.202 -0.027
0.186 -0.204 -0.027
0.182 -0.197 -0.026
0.286 -0.291 -0.041
0.292 -0.292 -0.041
0.291 -0.287 -0.041
0.293 -0.284 -0.041
0.298 -0.285 -0.042
0.297 -0.280 -0.041
0.294 -0.273 -0.041
0.300 -0.274 -0.042
0.303 -0.273 -0.042
0.301 -0.266 -0.041
0.301 -0.262 -0.041
0.302 -0.259 -0.041
0.300 -0.253 -0.041
0.301 -0.250 -0.041
0.302 -0.247 -0.041
0.300 -0.241 -0.040
0.212 -0.165 -0.028
0.208 -0.159 -0.028
0.210 -0.158 -0.028
0.210 -0.155 -0.028
0.205 -0.149 -0.027
0.206 -0.148 -0.027
0.210 -0.148 -0.027
0.213 -0.148 -0.028
0.217 -0.148 -0.028
0.210 -0.140 -0.027
0.209 -0.138 -0.027
0.209 -0.135 -0.027
0.210 -0.133 -0.027
0.209 -0.131 -0.027
0.210 -0.128 -0.027
0.204 -0.123 -0.026
0.220 -0.129 -0.028
0.217 -0.126 -0.028
0.212 -0.118 -0.027
0.213 -0.116 -0.027
0.205 -0.110 -0.026
0.216 -0.113 -0.027
0.203 -0.104 -0.026
0.214 -0.108 -0.027
0.217 -0.107 -0.027
0.219 -0.106 -0.027
0.222 -0.105 -0.028
0.224 -0.104 -0.028
0.225 -0.102 -0.028
0.223 -0.099 -0.028
0.218 -0.094 -0.027
0.217 -0.092 -0.027
0.212 -0.088 -0.026
0.216 -0.087 -0.027
0.209 -0.082 -0.026
0.207 -0.079 -0.026
0.208 -0.078 -0.026
0.229 -0.083 -0.028
0.237 -0.084 -0.029
0.241 -0.083 -0.030
0.241 -0.081 -0.030
0.253 -0.082 -0.031
0.255 -0.081 -0.031
0.256 -0.079 -0.031
0.270 -0.080 -0.033
0.396 -0.110 -0.048
0.398 -0.107 -0.048
0.406 -0.105 -0.049
0.410 -0.103 -0.050
0.417 -0.100 -0.051
0.427 -0.099 -0.052
0.430 -0.096 -0.052
0.410 -0.087 -0.050
0.394 -0.080 -0.048
0.284 -0.050 -0.034
0.282 -0.047 -0.034
0.283 -0.045 -0.034
0.285 -0.042 -0.034
0.285 -0.040 -0.034
0.284 -0.037 -0.034
0.287 -0.035 -0.035
0.295 -0.033 -0.036
0.297 -0.031 -0.036
0.300 -0.028 -0.036
0.294 -0.025 -0.035
0.292 -0.022 -0.035
0.293 -0.020 -0.035
0.303 -0.018 -0.036
0.314 -0.016 -0.038
0.302 -0.012 -0.036
0.303 -0.010 -0.036
0.305 -0.007 -0.037
0.308 -0.004 -0.037
0.310 -0.001 -0.037
0.312 0.001 -0.038
0.314 0.004 -0.038
0.317 0.007 -0.038
0.317 0.010 -0.038
0.317 0.013 -0.038
0.317 0.016 -0.038
0.316 0.018 -0.038
0.316 0.021 -0.038
0.314 0.024 -0.038
0.313 0.027 -0.038
0.313 0.030 -0.038
0.313 0.032 -0.038
0.313 0.035 -0.038
0.313 0.038 -0.038
0.313 0.041 -0.038
0.313 0.044 -0.038
0.317 0.047 -0.038
0.321 0.051 -0.039
0.323 0.054 -0.039
0.324 0.057 -0.039
0.325 0.060 -0.039
0.325 0.063 -0.039
0.323 0.066 -0.039
0.322 0.069 -0.039
0.320 0.071 -0.039
0.319 0.074 -0.039
0.319 0.077 -0.039
0.318 0.080 -0.039
0.316 0.082 -0.039
0.315 0.085 -0.039
0.315 0.088 -0.039
0.322 0.093 -0.039
0.323 0.096 -0.040
0.325 0.100 -0.040
0.316 0.100 -0.039
0.315 0.103 -0.039
0.306 0.103 -0.038
0.304 0.105 -0.038
0.298 0.106 -0.037
0.321 0.124 -0.040
1.261 0.512 -0.157
0.333 0.156 -0.042
0.348 0.166 -0.044
0.228 -0.315 -0.033
0.241 -0.328 -0.035
0.250 -0.335 -0.036
0.253 -0.335 -0.036
0.253 -0.331 -0.036
0.254 -0.328 -0.036
0.248 -0.316 -0.035
0.181 -0.214 -0.025
0.181 -0.210 -0.025
0.175 -0.201 -0.024
0.173 -0.196 -0.024
0.179 -0.199 -0.024
0.188 -0.207 -0.025
0.197 -0.213 -0.026
0.223 -0.234 -0.030
0.275 -0.284 -0.036
0.287 -0.292 -0.038
0.294 -0.294 -0.038
0.294 -0.290 -0.038
0.296 -0.287 -0.038
0.296 -0.283 -0.038
0.300 -0.283 -0.039
0.298 -0.276 -0.038
0.296 -0.270 -0.038
0.298 -0.267 -0.038
0.298 -0.263 -0.038
0.298 -0.260 -0.038
0.300 -0.257 -0.038
0.303 -0.256 -0.038
0.304 -0.252 -0.038
0.302 -0.247 -0.038
0.292 -0.235 -0.036
0.221 -0.172 -0.027
0.210 -0.160 -0.026
0.209 -0.157 -0.026
0.195 -0.144 -0.024
0.207 -0.151 -0.025
0.206 -0.148 -0.025
0.208 -0.147 -0.025
0.212 -0.147 -0.026
0.214 -0.145 -0.026
0.215 -0.144 -0.026
0.212 -0.139 -0.025
0.210 -0.136 -0.025
0.212 -0.135 -0.025
0.211 -0.131 -0.025
0.212 -0.130 -0.025
0.219 -0.131 -0.026
0.218 -0.128 -0.026
0.215 -0.124 -0.025
0.211 -0.120 -0.025
0.198 -0.110 -0.023
0.209 -0.114 -0.024
0.210 -0.112 -0.025
0.200 -0.105 -0.023
0.210 -0.108 -0.024
0.203 -0.103 -0.024
0.215 -0.106 -0.025
0.218 -0.105 -0.025
0.222 -0.105 -0.026
0.224 -0.103 -0.026
0.221 -0.100 -0.026
0.217 -0.096 -0.025
0.214 -0.091 -0.025
0.217 -0.090 -0.025
0.213 -0.086 -0.024
0.212 -0.083 -0.024
0.211 -0.081 -0.024
0.215 -0.080 -0.025
0.229 -0.083 -0.026
0.239 -0.085 -0.027
0.245 -0.085 -0.028
0.254 -0.085 -0.029
0.254 -0.083 -0.029
0.250 -0.079 -0.028
0.254 -0.078 -0.029
0.280 -0.083 -0.032
0.282 -0.081 -0.032
0.393 -0.109 -0.044
0.397 -0.107 -0.045
0.405 -0.105 -0.046
0.409 -0.102 -0.046
0.421 -0.101 -0.047
0.428 -0.099 -0.048
0.427 -0.095 -0.048
0.408 -0.087 -0.046
0.393 -0.080 -0.044
0.286 -0.050 -0.032
0.284 -0.047 -0.032
0.283 -0.045 -0.032
0.283 -0.042 -0.032
0.284 -0.040 -0.032
0.284 -0.037 -0.032
0.286 -0.035 -0.032
0.290 -0.033 -0.032
0.309 -0.032 -0.035
0.296 -0.028 -0.033
0.300 -0.026 -0.033
0.295 -0.023 -0.033
0.298 -0.020 -0.033
0.303 -0.018 -0.034
0.301 -0.012 -0.033
0.303 -0.010 -0.034
0.305 -0.007 -0.034
0.307 -0.004 -0.034
0.309 -0.001 -0.034
0.311 0.001 -0.035
0.313 0.004 -0.035
0.314 0.007 -0.035
0.318 0.010 -0.035
0.318 0.013 -0.035
0.317 0.016 -0.035
0.317 0.018 -0.035
0.316 0.021 -0.035
0.315 0.024 -0.035
0.314 0.027 -0.035
0.313 0.030 -0.035
0.313 0.032 -0.035
0.313 0.035 -0.035
0.313 0.038 -0.035
0.312 0.041 -0.035
0.314 0.044 -0.035
0.318 0.047 -0.036
0.320 0.051 -0.036
0.323 0.054 -0.036
0.324 0.057 -0.036
0.325 0.060 -0.036
0.325 0.063 -0.036
0.324 0.066 -0.036
0.322 0.069 -0.036
0.320 0.071 -0.036
0.319 0.074 -0.036
0.319 0.077 -0.036
0.318 0.080 -0.036
0.317 0.082 -0.036
0.316 0.085 -0.036
0.315 0.088 -0.036
0.321 0.093 -0.036
0.323 0.096 -0.037
0.319 0.098 -0.036
0.319 0.101 -0.036
0.310 0.101 -0.035
0.310 0.105 -0.035
0.302 0.105 -0.034
0.299 0.107 -0.034
0.301 0.110 -0.034
1.268 0.515 -0.146
0.340 0.159 -0.040
0.347 0.166 -0.040
0.344 0.168 -0.040
0.323 0.161 -0.038
0.348 0.216 -0.042
0.361 0.340 -0.047
0.358 0.348 -0.047
0.361 0.363 -0.048
0.243 -0.335 -0.032
0.244 -0.333 -0.032
0.250 -0.335 -0.033
0.256 -0.339 -0.033
0.245 -0.320 -0.032
0.245 -0.315 -0.032
0.239 -0.304 -0.031
0.197 -0.246 -0.025
0.181 -0.220 -0.023
0.179 -0.215 -0.023
0.179 -0.212 -0.023
0.175 -0.204 -0.022
0.171 -0.197 -0.021
0.177 -0.200 -0.022
0.184 -0.204 -0.023
0.194 -0.213 -0.024
0.286 -0.295 -0.035
0.292 -0.297 -0.035
0.294 -0.294 -0.035
0.295 -0.290 -0.035
0.290 -0.282 -0.035
0.297 -0.284 -0.035
0.298 -0.281 -0.035
0.297 -0.275 -0.035
0.296 -0.270 -0.035
0.295 -0.265 -0.034
0.298 -0.263 -0.035
0.300 -0.261 -0.035
0.299 -0.256 -0.035
0.302 -0.255 -0.035
0.305 -0.253 -0.035
0.304 -0.248 -0.035
0.212 -0.162 -0.024
0.207 -0.155 -0.023
0.207 -0.153 -0.023
0.202 -0.147 -0.023
0.206 -0.147 -0.023
0.209 -0.147 -0.023
0.212 -0.146 -0.023
0.215 -0.146 -0.024
0.222 -0.148 -0.024
0.214 -0.141 -0.024
0.214 -0.135 -0.023
0.210 -0.131 -0.023
0.205 -0.125 -0.022
0.211 -0.127 -0.023
0.215 -0.126 -0.023
0.216 -0.125 -0.023
0.212 -0.121 -0.023
0.206 -0.115 -0.022
0.208 -0.113 -0.022
0.213 -0.114 -0.023
0.218 -0.114 -0.023
0.211 -0.109 -0.023
0.211 -0.106 -0.023
0.214 -0.105 -0.023
0.215 -0.104 -0.023
0.222 -0.105 -0.024
0.224 -0.104 -0.024
0.219 -0.099 -0.023
0.221 -0.098 -0.023
0.220 -0.095 -0.023
0.224 -0.095 -0.024
0.217 -0.089 -0.023
0.214 -0.086 -0.023
0.217 -0.085 -0.023
0.210 -0.081 -0.022
0.224 -0.084 -0.024
0.230 -0.084 -0.024
0.241 -0.085 -0.025
0.249 -0.086 -0.026
0.254 -0.085 -0.027
0.255 -0.083 -0.027
0.248 -0.078 -0.026
0.258 -0.079 -0.027
0.391 -0.109 -0.040
0.399 -0.107 -0.041
0.401 -0.104 -0.042
0.413 -0.103 -0.043
0.418 -0.101 -0.043
0.431 -0.100 -0.045
0.424 -0.094 -0.044
0.414 -0.088 -0.043
0.373 -0.073 -0.038
0.360 -0.067 -0.037
0.289 -0.051 -0.030
0.285 -0.048 -0.029
0.283 -0.045 -0.029
0.282 -0.042 -0.029
0.281 -0.039 -0.029
0.284 -0.037 -0.029
0.284 -0.035 -0.029
0.285 -0.032 -0.029
0.294 -0.030 -0.030
0.303 -0.026 -0.031
0.299 -0.023 -0.031
0.298 -0.020 -0.031
0.301 -0.018 -0.031
0.305 -0.015 -0.031
0.301 -0.012 -0.031
0.303 -0.010 -0.031
0.305 -0.007 -0.031
0.307 -0.004 -0.031
0.309 -0.001 -0.032
0.311 0.001 -0.032
0.314 0.004 -0.032
0.314 0.007 -0.032
0.316 0.010 -0.032
0.318 0.013 -0.033
0.318 0.016 -0.033
0.317 0.018 -0.032
0.316 0.021 -0.032
0.316 0.024 -0.032
0.315 0.027 -0.032
0.314 0.030 -0.032
0.313 0.032 -0.032
0.313 0.035 -0.032
0.313 0.038 -0.032
0.313 0.041 -0.032
0.314 0.044 -0.032
0.320 0.048 -0.033
0.321 0.051 -0.033
0.323 0.054 -0.033
0.324 0.057 -0.033
0.325 0.060 -0.033
0.324 0.063 -0.033
0.322 0.066 -0.033
0.322 0.069 -0.033
0.319 0.071 -0.033
0.319 0.074 -0.033
0.318 0.077 -0.033
0.318 0.080 -0.033
0.316 0.082 -0.033
0.315 0.085 -0.033
0.315 0.088 -0.033
0.323 0.093 -0.034
0.322 0.096 -0.034
0.320 0.099 -0.033
0.315 0.100 -0.033
0.317 0.104 -0.033
0.308 0.104 -0.032
0.301 0.104 -0.032
0.302 0.107 -0.032
0.308 0.122 -0.033
1.292 0.590 -0.138
1.277 0.596 -0.136
0.350 0.205 -0.038
0.354 0.216 -0.039
0.359 0.223 -0.040
0.394 0.298 -0.045
0.375 0.341 -0.045
0.372 0.344 -0.044
0.375 0.353 -0.045
0.373 0.357 -0.045
0.370 0.360 -0.045
0.373 0.368 -0.045
0.367 0.368 -0.045
0.379 0.386 -0.046
0.381 0.395 -0.047
0.382 0.403 -0.047
0.388 0.423 -0.049
0.385 0.494 -0.051
0.383 0.499 -0.051
0.255 -0.351 -0.031
0.249 -0.338 -0.030
0.253 -0.340 -0.030
0.248 -0.328 -0.029
0.234 -0.306 -0.028
0.178 -0.219 -0.021
0.176 -0.214 -0.020
0.176 -0.211 -0.020
0.174 -0.205 -0.020
0.173 -0.201 -0.020
0.177 -0.203 -0.020
0.187 -0.212 -0.021
0.200 -0.222 -0.023
0.291 -0.300 -0.032
0.295 -0.300 -0.032
0.295 -0.295 -0.032
0.289 -0.284 -0.031
0.293 -0.284 -0.032
0.296 -0.283 -0.032
0.297 -0.279 -0.032
0.296 -0.274 -0.032
0.295 -0.269 -0.031
0.296 -0.266 -0.032
0.300 -0.265 -0.032
0.301 -0.262 -0.032
0.300 -0.256 -0.032
0.298 -0.251 -0.031
0.304 -0.252 -0.032
0.291 -0.237 -0.030
0.297 -0.239 -0.031
0.221 -0.172 -0.023
0.213 -0.163 -0.022
0.209 -0.157 -0.021
0.206 -0.153 -0.021
0.205 -0.149 -0.021
0.203 -0.145 -0.021
0.206 -0.145 -0.021
0.209 -0.144 -0.021
0.216 -0.147 -0.022
0.217 -0.145 -0.022
0.228 -0.149 -0.023
0.215 -0.139 -0.022
0.202 -0.128 -0.020
0.213 -0.133 -0.021
0.212 -0.130 -0.021
0.208 -0.125 -0.021
0.216 -0.127 -0.021
0.216 -0.125 -0.021
0.210 -0.119 -0.021
0.208 -0.116 -0.020
0.199 -0.108 -0.019
0.215 -0.115 -0.021
0.215 -0.113 -0.021
0.202 -0.104 -0.020
0.212 -0.107 -0.021
0.208 -0.103 -0.020
0.217 -0.105 -0.021
0.221 -0.105 -0.021
0.224 -0.104 -0.022
0.224 -0.101 -0.022
0.220 -0.097 -0.021
0.221 -0.095 -0.021
0.218 -0.092 -0.021
0.212 -0.087 -0.020
0.216 -0.087 -0.021
0.212 -0.083 -0.020
0.224 -0.086 -0.021
0.210 -0.079 -0.020
0.232 -0.084 -0.022
0.244 -0.086 -0.023
0.245 -0.084 -0.023
0.248 -0.083 -0.024
0.252 -0.082 -0.024
0.249 -0.079 -0.024
0.254 -0.078 -0.024
0.259 -0.077 -0.025
0.388 -0.108 -0.037
0.395 -0.106 -0.037
0.402 -0.104 -0.038
0.406 -0.101 -0.038
0.422 -0.102 -0.040
0.424 -0.098 -0.040
0.432 -0.096 -0.041
0.388 -0.079 -0.036
0.380 -0.074 -0.036
0.290 -0.051 -0.027
0.288 -0.048 -0.027
0.286 -0.045 -0.027
0.286 -0.043 -0.027
0.286 -0.040 -0.027
0.282 -0.037 -0.026
0.283 -0.034 -0.026
0.288 -0.033 -0.027
0.302 -0.031 -0.028
0.307 -0.029 -0.029
0.297 -0.025 -0.028
0.298 -0.023 -0.028
0.296 -0.020 -0.028
0.297 -0.017 -0.028
0.306 -0.015 -0.029
0.304 -0.012 -0.028
0.303 -0.010 -0.028
0.304 -0.007 -0.028
0.307 -0.004 -0.029
0.309 -0.001 -0.029
0.311 0.001 -0.029
0.314 0.004 -0.029
0.315 0.007 -0.029
0.315 0.010 -0.029
0.324 0.013 -0.030
0.319 0.016 -0.030
0.318 0.019 -0.030
0.316 0.021 -0.030
0.316 0.024 -0.030
0.316 0.027 -0.030
0.316 0.030 -0.030
0.315 0.033 -0.029
0.314 0.035 -0.029
0.314 0.038 -0.029
0.316 0.041 -0.030
0.318 0.044 -0.030
0.320 0.048 -0.030
0.323 0.051 -0.030
0.324 0.054 -0.030
0.325 0.057 -0.031
0.324 0.060 -0.030
0.323 0.063 -0.030
0.322 0.066 -0.030
0.320 0.068 -0.030
0.318 0.071 -0.030
0.318 0.074 -0.030
0.319 0.077 -0.030
0.318 0.080 -0.030
0.316 0.082 -0.030
0.315 0.085 -0.030
0.314 0.088 -0.030
0.319 0.092 -0.030
0.319 0.095 -0.030
0.317 0.097 -0.030
0.318 0.101 -0.030
0.313 0.102 -0.030
0.307 0.103 -0.029
0.302 0.105 -0.029
0.305 0.109 -0.029
1.291 0.590 -0.126
1.284 0.600 -0.125
1.286 0.655 -0.126
1.283 0.751 -0.128
1.291 0.771 -0.129
1.304 0.793 -0.131
1.310 0.813 -0.132
1.297 0.819 -0.131
1.285 0.827 -0.130
1.300 0.852 -0.132
1.308 0.873 -0.133
1.293 0.879 -0.132
1.294 0.895 -0.132
0.372 0.338 -0.040
0.369 0.341 -0.040
0.370 0.348 -0.040
0.375 0.358 -0.041
0.381 0.370 -0.042
0.380 0.375 -0.042
0.363 0.364 -0.040
0.370 0.378 -0.041
0.382 0.396 -0.043
0.387 0.408 -0.044
0.399 0.435 -0.045
0.395 0.438 -0.045
0.476 0.582 -0.056
0.395 0.506 -0.048
0.367 0.478 -0.044
0.227 -0.312 -0.024
0.251 -0.341 -0.027
0.252 -0.338 -0.027
0.183 -0.229 -0.019
0.183 -0.226 -0.019
0.171 -0.208 -0.018
0.171 -0.205 -0.018
0.170 -0.201 -0.018
0.171 -0.199 -0.018
0.179 -0.205 -0.018
0.193 -0.218 -0.020
0.206 -0.229 -0.021
0.256 -0.276 -0.026
0.270 -0.288 -0.027
0.284 -0.297 -0.028
0.290 -0.299 -0.029
0.295 -0.300 -0.029
0.292 -0.292 -0.029
0.291 -0.287 -0.029
0.293 -0.284 -0.029
0.296 -0.283 -0.029
0.296 -0.278 -0.029
0.295 -0.273 -0.029
0.295 -0.268 -0.028
0.295 -0.265 -0.028
0.298 -0.263 -0.028
0.300 -0.261 -0.029
0.298 -0.255 -0.028
0.293 -0.246 -0.028
0.289 -0.240 -0.027
0.295 -0.241 -0.028
0.294 -0.236 -0.027
0.230 -0.181 -0.021
0.218 -0.169 -0.020
0.213 -0.163 -0.020
0.212 -0.160 -0.020
0.209 -0.154 -0.019
0.205 -0.149 -0.019
0.203 -0.145 -0.019
0.204 -0.144 -0.019
0.208 -0.144 -0.019
0.210 -0.143 -0.019
0.219 -0.146 -0.020
0.218 -0.143 -0.020
0.218 -0.140 -0.020
0.203 -0.128 -0.018
0.217 -0.135 -0.020
0.219 -0.134 -0.020
0.218 -0.131 -0.020
0.219 -0.129 -0.020
0.215 -0.124 -0.019
0.209 -0.119 -0.019
0.200 -0.111 -0.018
0.209 -0.114 -0.019
0.211 -0.113 -0.019
0.207 -0.109 -0.018
0.216 -0.111 -0.019
0.201 -0.101 -0.018
0.204 -0.101 -0.018
0.211 -0.102 -0.019
0.221 -0.105 -0.019
0.222 -0.103 -0.019
0.225 -0.102 -0.020
0.224 -0.099 -0.019
0.219 -0.095 -0.019
0.215 -0.091 -0.019
0.216 -0.089 -0.019
0.208 -0.084 -0.018
0.217 -0.085 -0.019
0.217 -0.083 -0.019
0.219 -0.082 -0.019
0.226 -0.082 -0.019
0.242 -0.086 -0.021
0.242 -0.083 -0.021
0.245 -0.082 -0.021
0.249 -0.081 -0.021
0.251 -0.079 -0.021
0.249 -0.076 -0.021
0.260 -0.077 -0.022
0.387 -0.107 -0.033
0.396 -0.106 -0.034
0.401 -0.104 -0.034
0.408 -0.102 -0.035
0.417 -0.100 -0.035
0.434 -0.100 -0.037
0.428 -0.095 -0.036
0.418 -0.089 -0.035
0.391 -0.080 -0.033
0.381 -0.074 -0.032
0.367 -0.068 -0.031
0.289 -0.051 -0.024
0.286 -0.048 -0.024
0.286 -0.045 -0.024
0.286 -0.043 -0.024
0.285 -0.040 -0.024
0.282 -0.037 -0.024
0.283 -0.034 -0.024
0.289 -0.033 -0.024
0.299 -0.031 -0.025
0.300 -0.028 -0.025
0.302 -0.026 -0.025
0.298 -0.023 -0.025
0.298 -0.020 -0.025
0.297 -0.017 -0.025
0.305 -0.015 -0.026
0.313 -0.013 -0.026
0.302 -0.010 -0.025
0.303 -0.007 -0.026
0.305 -0.004 -0.026
0.308 -0.001 -0.026
0.310 0.001 -0.026
0.314 0.004 -0.026
0.315 0.007 -0.027
0.316 0.010 -0.027
0.326 0.013 -0.027
0.319 0.016 -0.027
0.318 0.019 -0.027
0.317 0.021 -0.027
0.318 0.024 -0.027
0.317 0.027 -0.027
0.317 0.030 -0.027
0.317 0.033 -0.027
0.317 0.036 -0.027
0.318 0.039 -0.027
0.319 0.042 -0.027
0.320 0.045 -0.027
0.321 0.048 -0.027
0.324 0.051 -0.027
0.323 0.054 -0.027
0.327 0.058 -0.028
0.323 0.060 -0.027
0.322 0.063 -0.027
0.322 0.066 -0.027
0.321 0.068 -0.027
0.320 0.071 -0.027
0.319 0.074 -0.027
0.318 0.077 -0.027
0.318 0.080 -0.027
0.317 0.082 -0.027
0.314 0.085 -0.027
0.314 0.087 -0.027
0.319 0.092 -0.027
0.314 0.094 -0.027
0.314 0.097 -0.027
0.318 0.101 -0.027
0.317 0.104 -0.027
0.307 0.103 -0.026
0.303 0.105 -0.026
0.314 0.112 -0.027
0.330 0.121 -0.029
0.323 0.124 -0.028
0.317 0.125 -0.028
1.266 0.578 -0.111
1.283 0.599 -0.113
1.286 0.614 -0.113
1.283 0.626 -0.113
1.292 0.658 -0.115
0.989 0.557 -0.089
1.278 0.748 -0.115
1.293 0.772 -0.117
1.303 0.793 -0.118
1.304 0.808 -0.118
1.291 0.815 -0.117
1.292 0.831 -0.118
1.300 0.851 -0.119
1.301 0.868 -0.119
1.290 0.876 -0.119
1.293 0.894 -0.119
1.307 0.920 -0.121
1.317 0.943 -0.122
1.332 0.971 -0.124
1.318 0.978 -0.123
1.310 0.988 -0.123
0.400 0.436 -0.041
0.392 0.434 -0.040
0.507 0.590 -0.053
0.505 0.598 -0.053
0.499 0.600 -0.053
0.487 0.595 -0.052
0.256 -0.352 -0.025
0.251 -0.342 -0.024
0.180 -0.235 -0.017
0.188 -0.242 -0.018
0.185 -0.235 -0.017
0.181 -0.226 -0.017
0.170 -0.210 -0.016
0.172 -0.209 -0.016
0.169 -0.202 -0.016
0.172 -0.203 -0.016
0.175 -0.204 -0.016
0.186 -0.213 -0.017
0.198 -0.223 -0.018
0.208 -0.232 -0.019
0.260 -0.280 -0.023
0.291 -0.309 -0.026
0.286 -0.299 -0.025
0.286 -0.294 -0.025
0.288 -0.292 -0.025
0.291 -0.291 -0.026
0.292 -0.288 -0.026
0.292 -0.283 -0.025
0.294 -0.280 -0.025
0.297 -0.279 -0.026
0.295 -0.273 -0.025
0.295 -0.268 -0.025
0.294 -0.263 -0.025
0.292 -0.258 -0.025
0.295 -0.257 -0.025
0.292 -0.250 -0.025
0.291 -0.245 -0.025
0.288 -0.239 -0.024
0.289 -0.236 -0.024
0.291 -0.234 -0.024
0.218 -0.169 -0.018
0.211 -0.161 -0.017
0.214 -0.161 -0.018
0.215 -0.159 -0.018
0.208 -0.151 -0.017
0.202 -0.145 -0.017
0.206 -0.145 -0.017
0.209 -0.144 -0.017
0.211 -0.143 -0.017
0.210 -0.140 -0.017
0.216 -0.142 -0.017
0.213 -0.137 -0.017
0.210 -0.133 -0.017
0.209 -0.130 -0.017
0.209 -0.128 -0.017
0.217 -0.130 -0.017
0.219 -0.129 -0.017
0.216 -0.125 -0.017
0.210 -0.119 -0.017
0.205 -0.114 -0.016
0.210 -0.114 -0.017
0.210 -0.112 -0.017
0.211 -0.111 -0.017
0.211 -0.109 -0.017
0.217 -0.109 -0.017
0.214 -0.105 -0.017
0.219 -0.106 -0.017
0.219 -0.103 -0.017
0.222 -0.103 -0.017
0.227 -0.103 -0.018
0.225 -0.100 -0.017
0.220 -0.095 -0.017
0.219 -0.092 -0.017
0.213 -0.088 -0.017
0.216 -0.087 -0.017
0.214 -0.084 -0.016
0.200 -0.076 -0.015
0.218 -0.081 -0.017
0.230 -0.083 -0.018
0.239 -0.084 -0.018
0.245 -0.084 -0.019
0.247 -0.083 -0.019
0.249 -0.081 -0.019
0.252 -0.080 -0.019
0.253 -0.077 -0.019
0.294 -0.087 -0.022
0.299 -0.086 -0.023
0.389 -0.108 -0.030
0.394 -0.106 -0.030
0.403 -0.104 -0.031
0.409 -0.102 -0.031
0.416 -0.100 -0.032
0.425 -0.098 -0.032
0.432 -0.096 -0.033
0.415 -0.088 -0.031
0.395 -0.080 -0.030
0.383 -0.074 -0.029
0.373 -0.069 -0.028
0.283 -0.050 -0.021
0.283 -0.047 -0.021
0.284 -0.045 -0.021
0.283 -0.042 -0.021
0.282 -0.039 -0.021
0.283 -0.037 -0.021
0.283 -0.034 -0.021
0.290 -0.033 -0.022
0.293 -0.030 -0.022
0.297 -0.028 -0.022
0.299 -0.026 -0.023
0.302 -0.023 -0.023
0.299 -0.020 -0.023
0.296 -0.017 -0.022
0.302 -0.015 -0.023
0.308 -0.013 -0.023
0.300 -0.010 -0.023
0.303 -0.007 -0.023
0.304 -0.004 -0.023
0.306 -0.001 -0.023
0.312 0.001 -0.023
0.313 0.004 -0.024
0.314 0.007 -0.024
0.315 0.010 -0.024
0.316 0.013 -0.024
0.323 0.016 -0.024
0.318 0.018 -0.024
0.319 0.021 -0.024
0.318 0.024 -0.024
0.318 0.027 -0.024
0.318 0.030 -0.024
0.318 0.033 -0.024
0.319 0.036 -0.024
0.319 0.039 -0.024
0.320 0.042 -0.024
0.321 0.045 -0.024
0.323 0.048 -0.024
0.324 0.051 -0.024
0.323 0.054 -0.024
0.322 0.057 -0.024
0.322 0.060 -0.024
0.322 0.063 -0.024
0.321 0.065 -0.024
0.321 0.068 -0.024
0.320 0.071 -0.024
0.318 0.074 -0.024
0.317 0.077 -0.024
0.317 0.079 -0.024
0.316 0.082 -0.024
0.314 0.085 -0.024
0.315 0.088 -0.024
0.321 0.092 -0.025
0.311 0.093 -0.024
0.302 0.093 -0.023
0.307 0.097 -0.024
0.307 0.100 -0.024
0.304 0.102 -0.023
0.306 0.106 -0.024
0.327 0.116 -0.025
0.331 0.121 -0.026
0.321 0.124 -0.025
1.259 0.574 -0.099
1.270 0.593 -0.100
1.276 0.609 -0.100
1.280 0.624 -0.101
1.275 0.635 -0.101
1.289 0.656 -0.102
1.294 0.672 -0.103
0.983 0.553 -0.079
1.295 0.773 -0.104
1.301 0.791 -0.105
1.293 0.801 -0.105
1.292 0.816 -0.105
1.297 0.834 -0.105
1.301 0.852 -0.106
1.297 0.865 -0.106
1.292 0.877 -0.106
1.290 0.892 -0.106
1.298 0.913 -0.107
1.303 0.933 -0.108
1.301 0.948 -0.108
1.296 0.961 -0.108
1.326 1.018 -0.111
0.510 0.593 -0.048
0.508 0.601 -0.048
0.504 0.606 -0.048
0.491 0.599 -0.047
0.402 0.515 -0.039
0.391 0.508 -0.038
0.245 -0.337 -0.021
0.184 -0.243 -0.015
0.181 -0.236 -0.015
0.178 -0.229 -0.015
0.176 -0.223 -0.014
0.168 -0.211 -0.014
0.169 -0.209 -0.014
0.165 -0.200 -0.013
0.183 -0.219 -0.015
0.281 -0.294 -0.022
0.281 -0.290 -0.022
0.282 -0.286 -0.022
0.287 -0.287 -0.022
0.291 -0.286 -0.022
0.293 -0.284 -0.022
0.291 -0.278 -0.022
0.293 -0.275 -0.022
0.293 -0.271 -0.022
0.294 -0.268 -0.022
0.292 -0.262 -0.022
0.291 -0.257 -0.022
0.289 -0.251 -0.022
0.290 -0.248 -0.022
0.285 -0.240 -0.021
0.283 -0.235 -0.021
0.278 -0.227 -0.020
0.271 -0.218 -0.020
0.229 -0.181 -0.017
0.220 -0.171 -0.016
0.206 -0.157 -0.015
0.214 -0.161 -0.016
0.216 -0.160 -0.016
0.211 -0.153 -0.015
0.205 -0.147 -0.015
0.205 -0.144 -0.015
0.211 -0.146 -0.015
0.211 -0.143 -0.015
0.212 -0.141 -0.015
0.211 -0.138 -0.015
0.215 -0.139 -0.015
0.214 -0.135 -0.015
0.211 -0.131 -0.015
0.212 -0.129 -0.015
0.211 -0.126 -0.015
0.217 -0.128 -0.015
0.219 -0.127 -0.015
0.214 -0.121 -0.015
0.209 -0.116 -0.015
0.196 -0.107 -0.014
0.210 -0.112 -0.015
0.211 -0.111 -0.015
0.201 -0.103 -0.014
0.210 -0.106 -0.014
0.206 -0.102 -0.014
0.213 -0.103 -0.015
0.219 -0.103 -0.015
0.223 -0.103 -0.015
0.225 -0.102 -0.015
0.224 -0.099 -0.015
0.223 -0.096 -0.015
0.222 -0.094 -0.015
0.217 -0.090 -0.015
0.214 -0.086 -0.015
0.212 -0.083 -0.014
0.205 -0.079 -0.014
0.202 -0.075 -0.014
0.228 -0.083 -0.015
0.239 -0.084 -0.016
0.242 -0.083 -0.016
0.243 -0.081 -0.016
0.246 -0.080 -0.017
0.252 -0.080 -0.017
0.263 -0.081 -0.018
0.390 -0.108 -0.026
0.394 -0.106 -0.026
0.403 -0.105 -0.027
0.411 -0.103 -0.028
0.417 -0.100 -0.028
0.421 -0.097 -0.028
0.421 -0.093 -0.028
0.411 -0.088 -0.027
0.396 -0.081 -0.026
0.376 -0.073 -0.025
0.359 -0.067 -0.024
0.283 -0.050 -0.019
0.282 -0.047 -0.019
0.281 -0.044 -0.019
0.282 -0.042 -0.019
0.282 -0.039 -0.019
0.285 -0.037 -0.019
0.282 -0.034 -0.019
0.293 -0.033 -0.019
0.294 -0.030 -0.020
0.290 -0.027 -0.019
0.293 -0.025 -0.019
0.301 -0.023 -0.020
0.302 -0.020 -0.020
0.296 -0.017 -0.020
0.297 -0.015 -0.020
0.302 -0.012 -0.020
0.301 -0.010 -0.020
0.303 -0.007 -0.020
0.304 -0.004 -0.020
0.305 -0.001 -0.020
0.308 0.001 -0.020
0.312 0.004 -0.021
0.313 0.007 -0.021
0.314 0.010 -0.021
0.316 0.013 -0.021
0.318 0.016 -0.021
0.323 0.019 -0.021
0.318 0.021 -0.021
0.318 0.024 -0.021
0.317 0.027 -0.021
0.319 0.030 -0.021
0.319 0.033 -0.021
0.320 0.036 -0.021
0.320 0.039 -0.021
0.321 0.042 -0.021
0.323 0.045 -0.021
0.323 0.048 -0.022
0.322 0.051 -0.021
0.325 0.054 -0.022
0.321 0.057 -0.021
0.321 0.060 -0.021
0.321 0.063 -0.021
0.321 0.065 -0.021
0.320 0.068 -0.021
0.317 0.071 -0.021
0.317 0.073 -0.021
0.316 0.076 -0.021
0.316 0.079 -0.021
0.315 0.082 -0.021
0.314 0.085 -0.021
0.321 0.090 -0.022
0.322 0.093 -0.022
0.306 0.091 -0.021
0.302 0.093 -0.020
0.305 0.097 -0.021
0.307 0.100 -0.021
0.301 0.101 -0.020
0.304 0.105 -0.021
0.314 0.112 -0.021
0.313 0.115 -0.021
0.290 0.112 -0.020
0.297 0.118 -0.020
1.244 0.542 -0.085
1.265 0.617 -0.088
1.283 0.639 -0.089
1.289 0.656 -0.090
1.292 0.671 -0.090
1.298 0.775 -0.092
1.297 0.788 -0.092
1.287 0.797 -0.092
1.293 0.816 -0.092
1.301 0.837 -0.093
1.306 0.855 -0.094
1.309 0.873 -0.094
1.295 0.879 -0.093
0.512 0.595 -0.042
0.509 0.602 -0.042
0.505 0.606 -0.042
0.489 0.597 -0.041
0.386 0.502 -0.033
0.223 -0.306 -0.016
0.186 -0.249 -0.013
0.182 -0.241 -0.013
0.180 -0.234 -0.013
0.176 -0.226 -0.012
0.166 -0.211 -0.012
0.167 -0.208 -0.012
0.166 -0.205 -0.012
0.173 -0.210 -0.012
0.201 -0.238 -0.014
0.212 -0.246 -0.015
0.224 -0.256 -0.015
0.237 -0.267 -0.016
0.256 -0.284 -0.017
0.267 -0.292 -0.018
0.274 -0.295 -0.018
0.278 -0.295 -0.019
0.279 -0.292 -0.019
0.274 -0.283 -0.018
0.274 -0.278 -0.018
0.279 -0.279 -0.019
0.286 -0.281 -0.019
0.288 -0.279 -0.019
0.289 -0.276 -0.019
0.283 -0.266 -0.018
0.289 -0.267 -0.019
0.291 -0.265 -0.019
0.291 -0.260 -0.019
0.289 -0.255 -0.019
0.290 -0.252 -0.019
0.285 -0.243 -0.018
0.279 -0.235 -0.018
0.274 -0.227 -0.017
0.271 -0.221 -0.017
0.261 -0.209 -0.016
0.207 -0.161 -0.013
0.205 -0.156 -0.013
0.205 -0.154 -0.013
0.212 -0.156 -0.013
0.206 -0.150 -0.013
0.205 -0.146 -0.013
0.201 -0.141 -0.012
0.207 -0.143 -0.013
0.210 -0.142 -0.013
0.212 -0.142 -0.013
0.217 -0.142 -0.013
0.217 -0.140 -0.013
0.215 -0.136 -0.013
0.214 -0.133 -0.013
0.213 -0.130 -0.013
0.215 -0.129 -0.013
0.219 -0.129 -0.013
0.220 -0.127 -0.013
0.216 -0.122 -0.013
0.212 -0.118 -0.013
0.211 -0.115 -0.013
0.210 -0.112 -0.013
0.212 -0.111 -0.013
0.214 -0.110 -0.013
0.203 -0.102 -0.012
0.208 -0.102 -0.012
0.211 -0.102 -0.013
0.218 -0.103 -0.013
0.222 -0.103 -0.013
0.222 -0.100 -0.013
0.222 -0.098 -0.013
0.229 -0.099 -0.014
0.226 -0.096 -0.013
0.219 -0.090 -0.013
0.213 -0.086 -0.013
0.211 -0.083 -0.012
0.211 -0.081 -0.012
0.216 -0.081 -0.013
0.226 -0.082 -0.013
0.235 -0.083 -0.014
0.238 -0.082 -0.014
0.241 -0.081 -0.014
0.246 -0.080 -0.014
0.254 -0.080 -0.015
0.265 -0.081 -0.015
0.275 -0.082 -0.016
0.278 -0.080 -0.016
0.389 -0.108 -0.023
0.395 -0.106 -0.023
0.403 -0.104 -0.023
0.413 -0.103 -0.024
0.419 -0.101 -0.024
0.423 -0.098 -0.024
0.419 -0.093 -0.024
0.407 -0.087 -0.023
0.287 -0.051 -0.017
0.285 -0.048 -0.016
0.283 -0.045 -0.016
0.283 -0.042 -0.016
0.287 -0.040 -0.016
0.288 -0.038 -0.017
0.277 -0.034 -0.016
0.293 -0.033 -0.017
0.295 -0.031 -0.017
0.289 -0.027 -0.017
0.284 -0.024 -0.016
0.292 -0.022 -0.017
0.295 -0.020 -0.017
0.291 -0.017 -0.017
0.291 -0.014 -0.017
0.298 -0.012 -0.017
0.304 -0.010 -0.017
0.302 -0.007 -0.017
0.303 -0.004 -0.017
0.305 -0.001 -0.017
0.308 0.001 -0.018
0.309 0.004 -0.018
0.313 0.007 -0.018
0.314 0.010 -0.018
0.315 0.013 -0.018
0.316 0.016 -0.018
0.320 0.019 -0.018
0.325 0.022 -0.019
0.317 0.024 -0.018
0.317 0.027 -0.018
0.318 0.030 -0.018
0.320 0.033 -0.018
0.320 0.036 -0.018
0.321 0.039 -0.018
0.322 0.042 -0.019
0.323 0.045 -0.019
0.323 0.048 -0.019
0.328 0.052 -0.019
0.320 0.054 -0.018
0.320 0.056 -0.018
0.320 0.059 -0.018
0.320 0.062 -0.018
0.320 0.065 -0.018
0.320 0.068 -0.018
0.318 0.071 -0.018
0.317 0.073 -0.018
0.316 0.076 -0.018
0.315 0.079 -0.018
0.314 0.082 -0.018
0.313 0.084 -0.018
0.323 0.090 -0.019
0.319 0.092 -0.019
0.313 0.093 -0.018
0.310 0.095 -0.018
0.311 0.099 -0.018
0.305 0.099 -0.018
0.302 0.101 -0.018
0.298 0.103 -0.017
0.301 0.107 -0.018
0.302 0.110 -0.018
0.296 0.111 -0.017
0.289 0.112 -0.017
0.295 0.116 -0.017
1.293 0.644 -0.078
1.280 0.651 -0.077
1.303 0.677 -0.078
0.398 0.433 -0.027
0.513 0.596 -0.036
0.509 0.601 -0.036
0.504 0.605 -0.036
0.493 0.602 -0.035
0.371 0.483 -0.027
0.183 -0.249 -0.011
0.177 -0.238 -0.011
0.178 -0.236 -0.011
0.176 -0.230 -0.010
0.168 -0.216 -0.010
0.170 -0.216 -0.010
0.166 -0.208 -0.010
0.173 -0.213 -0.010
0.181 -0.219 -0.011
0.189 -0.226 -0.011
0.200 -0.236 -0.012
0.217 -0.253 -0.013
0.228 -0.261 -0.013
0.240 -0.271 -0.014
0.258 -0.287 -0.015
0.262 -0.287 -0.015
0.265 -0.286 -0.015
0.271 -0.288 -0.015
0.270 -0.282 -0.015
0.265 -0.273 -0.015
0.264 -0.268 -0.015
0.268 -0.268 -0.015
0.276 -0.271 -0.015
0.279 -0.270 -0.015
0.282 -0.257 -0.015
0.284 -0.254 -0.015
0.283 -0.249 -0.015
0.280 -0.243 -0.015
0.283 -0.242 -0.015
0.275 -0.231 -0.015
0.270 -0.223 -0.014
0.269 -0.219 -0.014
0.263 -0.211 -0.014
0.212 -0.165 -0.011
0.203 -0.155 -0.011
0.207 -0.156 -0.011
0.207 -0.153 -0.011
0.205 -0.149 -0.011
0.205 -0.147 -0.011
0.208 -0.146 -0.011
0.200 -0.138 -0.010
0.206 -0.140 -0.011
0.214 -0.143 -0.011
0.217 -0.142 -0.011
0.217 -0.140 -0.011
0.212 -0.134 -0.011
0.212 -0.132 -0.011
0.214 -0.130 -0.011
0.216 -0.129 -0.011
0.220 -0.129 -0.011
0.217 -0.125 -0.011
0.216 -0.122 -0.011
0.213 -0.118 -0.011
0.208 -0.114 -0.011
0.210 -0.112 -0.011
0.212 -0.111 -0.011
0.213 -0.110 -0.011
0.216 -0.109 -0.011
0.211 -0.104 -0.011
0.212 -0.102 -0.011
0.218 -0.103 -0.011
0.219 -0.101 -0.011
0.221 -0.100 -0.011
0.224 -0.099 -0.011
0.229 -0.099 -0.011
0.229 -0.096 -0.011
0.220 -0.091 -0.011
0.214 -0.086 -0.011
0.210 -0.083 -0.010
0.207 -0.079 -0.010
0.213 -0.080 -0.011
0.227 -0.083 -0.011
0.242 -0.085 -0.012
0.243 -0.083 -0.012
0.245 -0.082 -0.012
0.247 -0.080 -0.012
0.252 -0.079 -0.012
0.263 -0.080 -0.013
0.261 -0.077 -0.013
0.267 -0.077 -0.013
0.385 -0.107 -0.019
0.398 -0.107 -0.019
0.403 -0.104 -0.020
0.412 -0.103 -0.020
0.425 -0.102 -0.021
0.428 -0.099 -0.021
0.423 -0.094 -0.021
0.373 -0.076 -0.018
0.368 -0.072 -0.018
0.352 -0.065 -0.017
0.292 -0.051 -0.014
0.286 -0.048 -0.014
0.284 -0.045 -0.014
0.288 -0.043 -0.014
0.291 -0.041 -0.014
0.289 -0.038 -0.014
0.279 -0.034 -0.014
0.280 -0.032 -0.014
0.291 -0.030 -0.014
0.290 -0.027 -0.014
0.287 -0.025 -0.014
0.282 -0.022 -0.014
0.288 -0.019 -0.014
0.292 -0.017 -0.014
0.286 -0.014 -0.014
0.291 -0.012 -0.014
0.302 -0.010 -0.015
0.301 -0.007 -0.015
0.302 -0.004 -0.015
0.304 -0.001 -0.015
0.306 0.001 -0.015
0.308 0.004 -0.015
0.310 0.007 -0.015
0.313 0.010 -0.015
0.314 0.013 -0.015
0.314 0.015 -0.015
0.317 0.018 -0.015
0.319 0.021 -0.015
0.325 0.025 -0.016
0.322 0.027 -0.016
0.320 0.030 -0.015
0.320 0.033 -0.015
0.320 0.036 -0.016
0.322 0.039 -0.016
0.323 0.042 -0.016
0.328 0.046 -0.016
0.330 0.049 -0.016
0.320 0.051 -0.016
0.321 0.054 -0.016
0.320 0.056 -0.016
0.319 0.059 -0.016
0.319 0.062 -0.016
0.319 0.065 -0.016
0.318 0.068 -0.016
0.317 0.070 -0.015
0.317 0.073 -0.015
0.316 0.076 -0.015
0.315 0.079 -0.015
0.314 0.082 -0.015
0.312 0.084 -0.015
0.312 0.087 -0.015
0.320 0.092 -0.016
0.316 0.094 -0.016
0.320 0.098 -0.016
0.310 0.098 -0.015
0.308 0.101 -0.015
0.307 0.103 -0.015
0.301 0.104 -0.015
0.299 0.106 -0.015
0.309 0.116 -0.015
0.302 0.116 -0.015
0.302 0.119 -0.015
0.320 0.198 -0.017
0.327 0.206 -0.017
0.325 0.217 -0.017
0.317 0.215 -0.017
0.317 0.219 -0.017
0.322 0.227 -0.017
0.398 0.440 -0.023
0.486 0.546 -0.028
0.491 0.561 -0.029
0.511 0.603 -0.030
0.504 0.605 -0.030
0.497 0.606 -0.030
0.411 0.534 -0.025
0.170 -0.233 -0.008
0.174 -0.236 -0.008
0.171 -0.229 -0.008
0.168 -0.222 -0.008
0.169 -0.220 -0.008
0.173 -0.223 -0.008
0.177 -0.225 -0.008
0.176 -0.220 -0.008
0.177 -0.218 -0.008
0.187 -0.227 -0.009
0.196 -0.234 -0.009
0.206 -0.243 -0.010
0.201 -0.234 -0.009
0.272 -0.228 -0.012
0.265 -0.219 -0.011
0.266 -0.216 -0.011
0.262 -0.210 -0.011
0.220 -0.173 -0.009
0.209 -0.162 -0.009
0.211 -0.161 -0.009
0.206 -0.155 -0.009
0.206 -0.152 -0.009
0.206 -0.150 -0.009
0.207 -0.147 -0.009
0.206 -0.145 -0.009
0.204 -0.141 -0.009
0.206 -0.140 -0.009
0.211 -0.141 -0.009
0.216 -0.142 -0.009
0.213 -0.137 -0.009
0.208 -0.131 -0.009
0.208 -0.129 -0.009
0.209 -0.128 -0.009
0.213 -0.128 -0.009
0.211 -0.124 -0.009
0.218 -0.126 -0.009
0.219 -0.124 -0.009
0.210 -0.117 -0.009
0.206 -0.112 -0.008
0.202 -0.108 -0.008
0.204 -0.107 -0.008
0.209 -0.107 -0.009
0.207 -0.104 -0.008
0.204 -0.101 -0.008
0.206 -0.099 -0.008
0.211 -0.099 -0.009
0.219 -0.101 -0.009
0.221 -0.100 -0.009
0.225 -0.100 -0.009
0.226 -0.098 -0.009
0.227 -0.096 -0.009
0.219 -0.090 -0.009
0.213 -0.086 -0.009
0.209 -0.082 -0.008
0.208 -0.079 -0.008
0.209 -0.078 -0.008
0.225 -0.082 -0.009
0.239 -0.084 -0.010
0.239 -0.082 -0.010
0.240 -0.080 -0.010
0.243 -0.079 -0.010
0.246 -0.078 -0.010
0.249 -0.076 -0.010
0.260 -0.077 -0.010
0.265 -0.076 -0.011
0.399 -0.107 -0.016
0.403 -0.104 -0.016
0.411 -0.103 -0.016
0.422 -0.101 -0.017
0.430 -0.099 -0.017
0.429 -0.095 -0.017
0.373 -0.079 -0.015
0.373 -0.076 -0.015
0.372 -0.072 -0.015
0.361 -0.067 -0.014
0.291 -0.051 -0.011
0.284 -0.048 -0.011
0.285 -0.045 -0.011
0.289 -0.043 -0.011
0.292 -0.041 -0.012
0.291 -0.038 -0.011
0.285 -0.035 -0.011
0.280 -0.032 -0.011
0.291 -0.030 -0.011
0.292 -0.028 -0.011
0.294 -0.025 -0.012
0.289 -0.022 -0.011
0.287 -0.019 -0.011
0.308 -0.018 -0.012
0.296 -0.015 -0.012
0.286 -0.012 -0.011
0.295 -0.009 -0.012
0.305 -0.007 -0.012
0.301 -0.004 -0.012
0.304 -0.001 -0.012
0.305 0.001 -0.012
0.307 0.004 -0.012
0.309 0.007 -0.012
0.311 0.010 -0.012
0.312 0.013 -0.012
0.313 0.015 -0.012
0.315 0.018 -0.012
0.316 0.021 -0.012
0.318 0.024 -0.013
0.319 0.027 -0.013
0.320 0.030 -0.013
0.321 0.033 -0.013
0.323 0.036 -0.013
0.323 0.039 -0.013
0.322 0.042 -0.013
0.320 0.045 -0.013
0.319 0.047 -0.013
0.318 0.050 -0.013
0.320 0.053 -0.013
0.320 0.056 -0.013
0.319 0.059 -0.013
0.318 0.062 -0.013
0.318 0.065 -0.013
0.317 0.068 -0.013
0.316 0.070 -0.013
0.316 0.073 -0.013
0.316 0.076 -0.013
0.314 0.079 -0.012
0.313 0.081 -0.012
0.324 0.087 -0.013
0.311 0.087 -0.012
0.303 0.087 -0.012
0.312 0.093 -0.012
0.299 0.092 -0.012
0.296 0.094 -0.012
0.309 0.101 -0.012
0.311 0.104 -0.012
0.303 0.105 -0.012
0.317 0.113 -0.013
0.318 0.116 -0.013
0.322 0.121 -0.013
0.317 0.122 -0.013
0.312 0.123 -0.013
0.320 0.130 -0.013
0.322 0.137 -0.013
0.311 0.138 -0.013
0.302 0.160 -0.012
0.298 0.167 -0.012
0.308 0.177 -0.013
0.331 0.194 -0.014
0.329 0.196 -0.014
0.324 0.197 -0.014
0.322 0.200 -0.014
0.320 0.202 -0.013
0.318 0.204 -0.013
0.316 0.207 -0.013
0.314 0.209 -0.013
0.308 0.209 -0.013
0.308 0.212 -0.013
0.308 0.217 -0.013
1.332 1.291 -0.060
0.496 0.557 -0.023
0.499 0.570 -0.024
0.500 0.580 -0.024
0.511 0.604 -0.024
0.503 0.604 -0.024
0.497 0.606 -0.024
0.465 0.605 -0.023
0.171 -0.236 -0.006
0.168 -0.228 -0.006
0.164 -0.220 -0.006
0.161 -0.213 -0.006
0.167 -0.218 -0.006
0.174 -0.224 -0.006
0.180 -0.228 -0.006
0.181 -0.226 -0.006
0.184 -0.227 -0.007
0.193 -0.234 -0.007
0.197 -0.236 -0.007
0.193 -0.228 -0.007
0.194 -0.225 -0.007
0.196 -0.224 -0.007
0.198 -0.224 -0.007
0.200 -0.222 -0.007
0.201 -0.220 -0.007
0.204 -0.220 -0.007
0.206 -0.219 -0.007
0.208 -0.217 -0.007
0.210 -0.217 -0.007
0.213 -0.216 -0.007
0.216 -0.215 -0.007
0.218 -0.214 -0.007
0.220 -0.213 -0.007
0.223 -0.213 -0.008
0.226 -0.212 -0.008
0.229 -0.211 -0.008
0.232 -0.211 -0.008
0.235 -0.210 -0.008
0.237 -0.209 -0.008
0.240 -0.208 -0.008
0.242 -0.207 -0.008
0.244 -0.205 -0.008
0.246 -0.203 -0.008
0.246 -0.200 -0.008
0.237 -0.190 -0.008
0.220 -0.174 -0.007
0.213 -0.165 -0.007
0.211 -0.161 -0.007
0.199 -0.149 -0.006
0.201 -0.148 -0.007
0.207 -0.151 -0.007
0.206 -0.147 -0.007
0.207 -0.145 -0.007
0.206 -0.142 -0.007
0.203 -0.138 -0.007
0.213 -0.142 -0.007
0.211 -0.138 -0.007
0.208 -0.134 -0.007
0.206 -0.130 -0.007
0.207 -0.128 -0.007
0.212 -0.129 -0.007
0.211 -0.126 -0.007
0.214 -0.126 -0.007
0.217 -0.125 -0.007
0.218 -0.124 -0.007
0.216 -0.120 -0.007
0.206 -0.112 -0.006
0.204 -0.109 -0.006
0.205 -0.107 -0.006
0.211 -0.108 -0.007
0.207 -0.104 -0.007
0.212 -0.104 -0.007
0.207 -0.100 -0.006
0.211 -0.099 -0.007
0.217 -0.100 -0.007
0.222 -0.100 -0.007
0.224 -0.099 -0.007
0.227 -0.098 -0.007
0.222 -0.093 -0.007
0.221 -0.091 -0.007
0.216 -0.087 -0.007
0.214 -0.084 -0.007
0.211 -0.081 -0.007
0.216 -0.081 -0.007
0.227 -0.082 -0.007
0.234 -0.083 -0.007
0.244 -0.084 -0.008
0.239 -0.080 -0.007
0.239 -0.078 -0.007
0.243 -0.076 -0.007
0.252 -0.077 -0.008
0.259 -0.077 -0.008
0.276 -0.079 -0.008
0.397 -0.107 -0.012
0.403 -0.104 -0.012
0.407 -0.102 -0.012
0.418 -0.100 -0.013
0.425 -0.098 -0.013
0.431 -0.096 -0.013
0.379 -0.081 -0.012
0.372 -0.076 -0.011
0.375 -0.073 -0.011
0.358 -0.066 -0.011
0.295 -0.052 -0.009
0.285 -0.048 -0.009
0.284 -0.045 -0.009
0.288 -0.043 -0.009
0.291 -0.041 -0.009
0.292 -0.038 -0.009
0.289 -0.035 -0.009
0.281 -0.032 -0.009
0.285 -0.030 -0.009
0.292 -0.028 -0.009
0.292 -0.025 -0.009
0.293 -0.022 -0.009
0.302 -0.020 -0.009
0.306 -0.018 -0.009
0.297 -0.015 -0.009
0.290 -0.012 -0.009
0.294 -0.009 -0.009
0.303 -0.007 -0.009
0.304 -0.004 -0.009
0.303 -0.001 -0.009
0.304 0.001 -0.009
0.306 0.004 -0.009
0.307 0.007 -0.009
0.309 0.010 -0.009
0.310 0.012 -0.009
0.312 0.015 -0.009
0.314 0.018 -0.010
0.315 0.021 -0.010
0.317 0.024 -0.010
0.318 0.027 -0.010
0.318 0.030 -0.010
0.319 0.033 -0.010
0.320 0.036 -0.010
0.320 0.039 -0.010
0.320 0.042 -0.010
0.319 0.045 -0.010
0.319 0.047 -0.010
0.319 0.050 -0.010
0.319 0.053 -0.010
0.319 0.056 -0.010
0.318 0.059 -0.010
0.317 0.062 -0.010
0.317 0.065 -0.010
0.317 0.068 -0.010
0.316 0.070 -0.010
0.315 0.073 -0.010
0.314 0.076 -0.010
0.313 0.078 -0.010
0.311 0.081 -0.010
0.321 0.086 -0.010
0.308 0.086 -0.009
0.300 0.086 -0.009
0.302 0.090 -0.009
0.296 0.091 -0.009
0.299 0.095 -0.009
0.307 0.100 -0.009
0.310 0.104 -0.010
0.313 0.111 -0.010
0.332 0.121 -0.010
0.326 0.122 -0.010
0.312 0.120 -0.010
0.316 0.125 -0.010
0.322 0.130 -0.010
0.333 0.138 -0.010
0.339 0.144 -0.011
0.325 0.145 -0.010
0.314 0.153 -0.010
0.318 0.161 -0.010
0.329 0.171 -0.010
0.294 0.159 -0.009
0.287 0.158 -0.009
0.318 0.182 -0.010
0.330 0.193 -0.011
0.324 0.193 -0.010
0.323 0.196 -0.010
0.322 0.199 -0.010
0.319 0.201 -0.010
0.317 0.203 -0.010
0.315 0.206 -0.010
0.311 0.207 -0.010
0.309 0.209 -0.010
0.309 0.213 -0.010
0.308 0.216 -0.010
0.308 0.220 -0.010
1.304 1.069 -0.044
1.294 1.080 -0.043
1.289 1.093 -0.043
1.296 1.118 -0.044
1.308 1.147 -0.044
1.309 1.167 -0.044
1.305 1.183 -0.044
1.311 1.209 -0.045
1.322 1.260 -0.045
1.336 1.294 -0.046
1.344 1.324 -0.046
0.498 0.559 -0.018
0.497 0.568 -0.018
0.497 0.577 -0.018
0.507 0.599 -0.018
0.504 0.605 -0.018
0.493 0.601 -0.018
0.480 0.595 -0.017
0.420 0.546 -0.015
0.174 -0.239 -0.004
0.165 -0.224 -0.004
0.160 -0.214 -0.004
0.168 -0.222 -0.004
0.169 -0.220 -0.004
0.174 -0.224 -0.004
0.181 -0.229 -0.004
0.186 -0.233 -0.004
0.190 -0.234 -0.005
0.192 -0.234 -0.005
0.193 -0.231 -0.005
0.193 -0.228 -0.005
0.194 -0.225 -0.005
0.196 -0.225 -0.005
0.198 -0.224 -0.005
0.201 -0.223 -0.005
0.203 -0.222 -0.005
0.205 -0.221 -0.005
0.206 -0.219 -0.005
0.208 -0.218 -0.005
0.211 -0.217 -0.005
0.213 -0.216 -0.005
0.216 -0.215 -0.005
0.218 -0.215 -0.005
0.221 -0.214 -0.005
0.224 -0.213 -0.005
0.226 -0.212 -0.005
0.229 -0.211 -0.005
0.232 -0.211 -0.005
0.235 -0.210 -0.005
0.237 -0.209 -0.005
0.240 -0.208 -0.006
0.242 -0.207 -0.006
0.245 -0.206 -0.006
0.246 -0.204 -0.006
0.247 -0.201 -0.006
0.238 -0.191 -0.005
0.222 -0.175 -0.005
0.215 -0.167 -0.005
0.204 -0.156 -0.005
0.204 -0.153 -0.005
0.202 -0.149 -0.005
0.207 -0.150 -0.005
0.208 -0.149 -0.005
0.208 -0.146 -0.005
0.206 -0.142 -0.005
0.203 -0.138 -0.005
0.205 -0.137 -0.005
0.206 -0.135 -0.005
0.209 -0.135 -0.005
0.210 -0.133 -0.005
0.211 -0.131 -0.005
0.211 -0.129 -0.005
0.215 -0.129 -0.005
0.218 -0.128 -0.005
0.217 -0.125 -0.005
0.217 -0.123 -0.005
0.214 -0.119 -0.005
0.202 -0.110 -0.004
0.205 -0.109 -0.005
0.204 -0.107 -0.004
0.206 -0.106 -0.005
0.211 -0.106 -0.005
0.212 -0.104 -0.005
0.212 -0.102 -0.005
0.213 -0.100 -0.005
0.215 -0.099 -0.005
0.219 -0.099 -0.005
0.223 -0.098 -0.005
0.222 -0.096 -0.005
0.220 -0.093 -0.005
0.222 -0.092 -0.005
0.226 -0.091 -0.005
0.215 -0.085 -0.005
0.210 -0.080 -0.005
0.200 -0.075 -0.004
0.232 -0.084 -0.005
0.244 -0.086 -0.005
0.242 -0.083 -0.005
0.242 -0.081 -0.005
0.242 -0.079 -0.005
0.254 -0.080 -0.005
0.257 -0.079 -0.006
0.261 -0.077 -0.006
0.384 -0.106 -0.008
0.396 -0.106 -0.009
0.401 -0.104 -0.009
0.405 -0.101 -0.009
0.412 -0.099 -0.009
0.426 -0.099 -0.009
0.424 -0.094 -0.009
0.390 -0.083 -0.008
0.386 -0.078 -0.008
0.369 -0.072 -0.008
0.361 -0.067 -0.008
0.288 -0.051 -0.006
0.285 -0.048 -0.006
0.285 -0.045 -0.006
0.287 -0.043 -0.006
0.290 -0.040 -0.006
0.290 -0.038 -0.006
0.288 -0.035 -0.006
0.285 -0.032 -0.006
0.281 -0.029 -0.006
0.285 -0.027 -0.006
0.289 -0.025 -0.006
0.290 -0.022 -0.006
0.296 -0.020 -0.006
0.301 -0.018 -0.006
0.301 -0.015 -0.006
0.295 -0.012 -0.006
0.299 -0.009 -0.006
0.304 -0.007 -0.007
0.309 -0.004 -0.007
0.301 -0.001 -0.006
0.302 0.001 -0.006
0.304 0.004 -0.006
0.306 0.007 -0.007
0.307 0.010 -0.007
0.309 0.012 -0.007
0.310 0.015 -0.007
0.313 0.018 -0.007
