VERSION .7
FIELDS x y z
SIZE 4 4 4
TYPE F F F
COUNT 1 1 1
WIDTH     2430
HEIGHT 1
VIEWPOINT 0 0 0 1 0 0 0
POINTS     2430
DATA ascii
0.322 -0.308 -0.133
0.321 -0.302 -0.132
0.319 -0.296 -0.131
0.317 -0.289 -0.129
0.317 -0.284 -0.129
0.316 -0.279 -0.128
0.314 -0.273 -0.127
0.313 -0.267 -0.126
0.312 -0.263 -0.125
0.314 -0.260 -0.125
0.315 -0.256 -0.125
0.311 -0.249 -0.123
0.311 -0.245 -0.123
0.312 -0.241 -0.123
0.309 -0.235 -0.121
0.305 -0.228 -0.119
0.303 -0.223 -0.118
0.305 -0.221 -0.119
0.306 -0.217 -0.118
0.305 -0.213 -0.118
0.300 -0.206 -0.116
0.297 -0.200 -0.114
0.296 -0.196 -0.113
0.292 -0.190 -0.112
0.282 -0.180 -0.107
0.208 -0.126 -0.079
0.208 -0.123 -0.078
0.209 -0.121 -0.078
0.212 -0.121 -0.080
0.251 -0.141 -0.094
0.244 -0.134 -0.091
0.244 -0.132 -0.091
0.246 -0.129 -0.091
0.248 -0.128 -0.092
0.305 -0.154 -0.113
0.309 -0.153 -0.114
0.313 -0.152 -0.115
0.317 -0.151 -0.117
0.319 -0.148 -0.117
0.320 -0.145 -0.117
0.323 -0.143 -0.118
0.322 -0.139 -0.118
0.314 -0.130 -0.114
0.349 -0.130 -0.126
0.354 -0.128 -0.128
0.360 -0.127 -0.130
0.362 -0.124 -0.131
0.366 -0.122 -0.132
0.372 -0.120 -0.134
0.385 -0.121 -0.138
0.401 -0.122 -0.144
0.413 -0.121 -0.148
0.421 -0.120 -0.151
0.430 -0.118 -0.154
0.442 -0.117 -0.158
0.450 -0.115 -0.161
0.391 -0.085 -0.139
0.391 -0.081 -0.139
0.383 -0.076 -0.136
0.304 -0.055 -0.108
0.291 -0.050 -0.103
0.288 -0.046 -0.102
0.293 -0.045 -0.104
0.298 -0.043 -0.105
0.294 -0.039 -0.104
0.290 -0.036 -0.102
0.291 -0.033 -0.103
0.296 -0.031 -0.105
0.295 -0.028 -0.104
0.294 -0.026 -0.104
0.298 -0.023 -0.105
0.303 -0.021 -0.107
0.312 -0.019 -0.110
0.322 -0.016 -0.114
0.318 -0.013 -0.112
0.315 -0.010 -0.111
0.307 -0.007 -0.108
0.310 -0.004 -0.109
0.320 -0.001 -0.113
0.320 0.002 -0.113
0.306 0.004 -0.108
0.307 0.007 -0.108
0.319 0.010 -0.113
0.325 0.013 -0.115
0.320 0.016 -0.113
0.315 0.019 -0.111
0.317 0.022 -0.112
0.344 0.027 -0.122
0.330 0.029 -0.117
0.319 0.031 -0.113
0.319 0.034 -0.113
0.325 0.038 -0.115
0.321 0.040 -0.114
0.316 0.042 -0.112
0.312 0.045 -0.111
0.309 0.047 -0.110
0.317 0.051 -0.113
0.318 0.055 -0.113
0.311 0.056 -0.111
0.315 0.060 -0.112
0.316 0.063 -0.113
0.317 0.066 -0.113
0.320 0.070 -0.114
0.328 0.075 -0.117
0.326 0.078 -0.116
0.304 0.075 -0.109
0.299 0.077 -0.107
0.307 0.082 -0.110
0.331 0.091 -0.119
0.318 0.094 -0.115
0.301 0.092 -0.109
0.299 0.094 -0.108
0.302 0.098 -0.109
0.319 0.107 -0.115
0.328 0.116 -0.119
0.329 0.120 -0.119
0.318 0.119 -0.116
0.315 0.121 -0.115
0.343 0.150 -0.126
0.330 0.148 -0.122
0.331 -0.448 -0.148
0.325 -0.435 -0.145
0.321 -0.424 -0.143
0.323 -0.420 -0.143
0.336 -0.432 -0.148
0.334 -0.423 -0.147
0.331 -0.414 -0.145
0.329 -0.406 -0.143
0.333 -0.405 -0.144
0.334 -0.400 -0.144
0.333 -0.394 -0.143
0.329 -0.383 -0.141
0.328 -0.376 -0.139
0.328 -0.370 -0.139
0.329 -0.367 -0.139
0.320 -0.352 -0.134
0.319 -0.345 -0.133
0.321 -0.342 -0.133
0.321 -0.336 -0.133
0.320 -0.330 -0.132
0.318 -0.323 -0.130
0.318 -0.318 -0.130
0.321 -0.316 -0.130
0.320 -0.310 -0.129
0.320 -0.306 -0.129
0.320 -0.301 -0.128
0.318 -0.294 -0.127
0.317 -0.289 -0.126
0.314 -0.282 -0.124
0.315 -0.278 -0.124
0.314 -0.273 -0.123
0.313 -0.267 -0.122
0.311 -0.261 -0.121
0.310 -0.256 -0.120
0.314 -0.255 -0.121
0.310 -0.248 -0.120
0.311 -0.245 -0.120
0.312 -0.242 -0.120
0.309 -0.235 -0.118
0.304 -0.227 -0.115
0.302 -0.222 -0.114
0.302 -0.218 -0.114
0.304 -0.216 -0.114
0.299 -0.209 -0.112
0.295 -0.202 -0.110
0.296 -0.200 -0.110
0.292 -0.193 -0.109
0.288 -0.187 -0.107
0.245 -0.153 -0.090
0.235 -0.145 -0.086
0.212 -0.128 -0.078
0.207 -0.123 -0.076
0.208 -0.121 -0.076
0.209 -0.119 -0.076
0.255 -0.143 -0.093
0.244 -0.134 -0.089
0.244 -0.131 -0.088
0.245 -0.129 -0.089
0.247 -0.128 -0.089
0.296 -0.150 -0.107
0.308 -0.152 -0.111
0.312 -0.151 -0.112
0.316 -0.150 -0.113
0.320 -0.148 -0.114
0.321 -0.145 -0.114
0.322 -0.142 -0.114
0.316 -0.136 -0.112
0.309 -0.127 -0.109
0.284 -0.111 -0.100
0.349 -0.130 -0.123
0.355 -0.128 -0.125
0.360 -0.127 -0.126
0.363 -0.124 -0.127
0.366 -0.122 -0.128
0.374 -0.121 -0.131
0.387 -0.121 -0.135
0.403 -0.122 -0.141
0.414 -0.121 -0.144
0.421 -0.119 -0.146
0.431 -0.118 -0.150
0.436 -0.115 -0.151
0.438 -0.112 -0.152
0.385 -0.084 -0.133
0.396 -0.082 -0.137
0.386 -0.077 -0.133
0.292 -0.053 -0.101
0.285 -0.049 -0.098
0.289 -0.047 -0.100
0.295 -0.045 -0.101
0.299 -0.043 -0.103
0.297 -0.040 -0.102
0.288 -0.036 -0.099
0.287 -0.033 -0.099
0.292 -0.031 -0.100
0.294 -0.028 -0.101
0.295 -0.026 -0.101
0.296 -0.023 -0.101
0.304 -0.021 -0.104
0.322 -0.019 -0.110
0.324 -0.016 -0.111
0.321 -0.013 -0.110
0.318 -0.010 -0.109
0.313 -0.007 -0.107
0.319 -0.004 -0.109
0.321 -0.001 -0.110
0.320 0.002 -0.110
0.318 0.004 -0.109
0.327 0.008 -0.112
0.329 0.011 -0.113
0.324 0.013 -0.111
0.326 0.017 -0.112
0.329 0.020 -0.113
0.334 0.023 -0.115
0.333 0.026 -0.114
0.321 0.028 -0.111
0.317 0.031 -0.109
0.329 0.035 -0.113
0.323 0.037 -0.111
0.322 0.040 -0.111
0.319 0.043 -0.110
0.314 0.045 -0.108
0.316 0.048 -0.109
0.331 0.054 -0.114
0.336 0.058 -0.116
0.327 0.059 -0.113
0.321 0.061 -0.111
0.326 0.065 -0.113
0.325 0.068 -0.113
0.325 0.071 -0.113
0.322 0.073 -0.112
0.320 0.076 -0.111
0.306 0.076 -0.107
0.299 0.077 -0.104
0.315 0.087 -0.110
0.306 0.087 -0.107
0.314 0.093 -0.110
0.316 0.097 -0.111
0.313 0.099 -0.110
0.319 0.104 -0.112
0.328 0.110 -0.115
0.343 0.118 -0.121
0.326 0.116 -0.115
0.329 0.120 -0.116
0.326 0.122 -0.115
0.317 0.122 -0.112
3.102 1.227 -1.102
0.323 0.141 -0.116
0.333 0.149 -0.119
0.356 0.206 -0.131
0.323 -0.437 -0.141
0.323 -0.431 -0.140
0.320 -0.422 -0.138
0.321 -0.417 -0.138
0.325 -0.417 -0.139
0.330 -0.418 -0.141
0.330 -0.412 -0.140
0.331 -0.407 -0.140
0.330 -0.400 -0.139
0.331 -0.396 -0.139
0.326 -0.384 -0.136
0.324 -0.376 -0.135
0.326 -0.373 -0.135
0.328 -0.370 -0.135
0.322 -0.358 -0.132
0.321 -0.351 -0.131
0.322 -0.347 -0.130
0.321 -0.341 -0.130
0.321 -0.336 -0.129
0.317 -0.326 -0.127
0.314 -0.319 -0.125
0.314 -0.314 -0.125
0.316 -0.310 -0.125
0.317 -0.307 -0.125
0.319 -0.303 -0.125
0.317 -0.297 -0.123
0.315 -0.290 -0.122
0.313 -0.284 -0.121
0.314 -0.280 -0.121
0.313 -0.276 -0.120
0.314 -0.272 -0.120
0.312 -0.265 -0.118
0.310 -0.260 -0.117
0.310 -0.256 -0.117
0.312 -0.253 -0.117
0.312 -0.249 -0.117
0.309 -0.243 -0.115
0.309 -0.238 -0.115
0.307 -0.233 -0.114
0.307 -0.229 -0.113
0.302 -0.221 -0.111
0.300 -0.217 -0.110
0.293 -0.208 -0.107
0.227 -0.142 -0.081
0.231 -0.142 -0.083
0.212 -0.128 -0.076
0.208 -0.123 -0.074
0.208 -0.121 -0.074
0.208 -0.119 -0.074
0.233 -0.130 -0.082
0.246 -0.135 -0.087
0.244 -0.131 -0.086
0.245 -0.129 -0.086
0.247 -0.127 -0.086
0.305 -0.151 -0.106
0.312 -0.151 -0.109
0.316 -0.149 -0.110
0.319 -0.148 -0.111
0.322 -0.146 -0.111
0.327 -0.144 -0.113
0.313 -0.135 -0.108
0.305 -0.125 -0.105
0.286 -0.112 -0.098
0.358 -0.129 -0.122
0.361 -0.127 -0.123
0.365 -0.125 -0.124
0.369 -0.122 -0.126
0.377 -0.121 -0.128
0.388 -0.121 -0.132
0.403 -0.122 -0.137
0.409 -0.120 -0.139
0.417 -0.118 -0.141
0.425 -0.116 -0.144
0.434 -0.115 -0.147
0.439 -0.112 -0.148
0.427 -0.105 -0.144
0.389 -0.084 -0.131
0.388 -0.081 -0.130
0.382 -0.076 -0.128
0.284 -0.051 -0.095
0.279 -0.047 -0.093
0.285 -0.046 -0.095
0.292 -0.044 -0.098
0.299 -0.043 -0.100
0.295 -0.039 -0.098
0.289 -0.036 -0.097
0.294 -0.034 -0.098
0.296 -0.031 -0.099
0.298 -0.029 -0.099
0.292 -0.025 -0.098
0.294 -0.023 -0.098
0.296 -0.020 -0.099
0.306 -0.018 -0.102
0.317 -0.016 -0.106
0.316 -0.013 -0.105
0.316 -0.010 -0.105
0.317 -0.007 -0.106
0.323 -0.004 -0.108
0.327 -0.001 -0.109
0.323 0.002 -0.108
0.323 0.004 -0.108
0.333 0.008 -0.111
0.325 0.010 -0.108
0.323 0.013 -0.108
0.330 0.017 -0.110
0.336 0.020 -0.112
0.336 0.023 -0.112
0.330 0.026 -0.110
0.314 0.027 -0.105
0.313 0.030 -0.105
0.325 0.034 -0.109
0.327 0.038 -0.110
0.319 0.040 -0.107
0.316 0.042 -0.106
0.315 0.045 -0.106
0.315 0.048 -0.106
0.324 0.052 -0.109
0.330 0.057 -0.111
0.320 0.058 -0.108
0.316 0.060 -0.106
0.324 0.064 -0.109
0.333 0.069 -0.112
0.319 0.070 -0.107
0.318 0.072 -0.107
0.323 0.077 -0.109
0.312 0.077 -0.106
0.309 0.079 -0.105
0.310 0.083 -0.105
0.307 0.085 -0.104
0.308 0.088 -0.105
0.323 0.095 -0.110
0.338 0.103 -0.115
0.332 0.105 -0.113
0.324 0.105 -0.111
0.331 0.111 -0.113
0.339 0.117 -0.116
0.336 0.119 -0.115
0.338 0.123 -0.116
0.344 0.129 -0.118
0.337 0.130 -0.116
3.107 1.227 -1.072
0.339 0.151 -0.118
0.363 0.198 -0.129
0.349 0.194 -0.124
0.318 -0.429 -0.134
0.322 -0.430 -0.136
0.322 -0.423 -0.135
0.320 -0.416 -0.134
0.322 -0.413 -0.134
0.327 -0.413 -0.135
0.328 -0.409 -0.135
0.327 -0.403 -0.134
0.328 -0.398 -0.134
0.328 -0.392 -0.133
0.325 -0.383 -0.132
0.325 -0.377 -0.131
0.324 -0.370 -0.130
0.323 -0.364 -0.129
0.319 -0.355 -0.127
0.322 -0.352 -0.127
0.323 -0.348 -0.127
0.322 -0.342 -0.126
0.317 -0.331 -0.124
0.313 -0.322 -0.122
0.313 -0.317 -0.121
0.314 -0.313 -0.121
0.313 -0.307 -0.120
0.314 -0.303 -0.120
0.315 -0.300 -0.120
0.312 -0.292 -0.118
0.310 -0.286 -0.117
0.310 -0.281 -0.116
0.309 -0.276 -0.115
0.313 -0.275 -0.116
0.309 -0.267 -0.114
0.308 -0.262 -0.114
0.310 -0.260 -0.114
0.311 -0.256 -0.114
0.311 -0.252 -0.113
0.308 -0.246 -0.112
0.306 -0.240 -0.111
0.305 -0.235 -0.110
0.306 -0.232 -0.110
0.302 -0.225 -0.108
0.303 -0.222 -0.108
0.295 -0.212 -0.105
0.285 -0.202 -0.101
0.210 -0.144 -0.074
0.207 -0.139 -0.073
0.208 -0.137 -0.073
0.210 -0.136 -0.074
0.223 -0.142 -0.078
0.225 -0.141 -0.078
0.227 -0.139 -0.079
0.213 -0.128 -0.074
0.209 -0.124 -0.072
0.208 -0.121 -0.072
0.209 -0.119 -0.072
0.224 -0.125 -0.077
0.243 -0.133 -0.083
0.244 -0.131 -0.083
0.244 -0.128 -0.083
0.247 -0.127 -0.084
0.253 -0.127 -0.086
0.307 -0.151 -0.104
0.312 -0.151 -0.106
0.316 -0.149 -0.107
0.319 -0.147 -0.107
0.322 -0.145 -0.108
0.324 -0.143 -0.109
0.326 -0.140 -0.109
0.318 -0.134 -0.106
0.307 -0.126 -0.102
0.285 -0.114 -0.095
0.289 -0.110 -0.096
0.353 -0.128 -0.117
0.361 -0.127 -0.120
0.364 -0.124 -0.120
0.370 -0.122 -0.122
0.377 -0.121 -0.124
0.395 -0.123 -0.130
0.400 -0.121 -0.132
0.408 -0.119 -0.134
0.415 -0.118 -0.136
0.428 -0.117 -0.141
0.437 -0.115 -0.143
0.441 -0.112 -0.144
0.441 -0.108 -0.144
0.378 -0.082 -0.123
0.391 -0.081 -0.128
0.385 -0.076 -0.126
0.290 -0.052 -0.094
0.283 -0.048 -0.092
0.284 -0.046 -0.092
0.290 -0.044 -0.094
0.294 -0.042 -0.096
0.295 -0.039 -0.096
0.296 -0.037 -0.096
0.296 -0.034 -0.096
0.299 -0.031 -0.097
0.297 -0.029 -0.096
0.300 -0.026 -0.097
0.304 -0.024 -0.098
0.303 -0.021 -0.098
0.301 -0.018 -0.097
0.299 -0.015 -0.097
0.290 -0.012 -0.094
0.312 -0.010 -0.101
0.320 -0.007 -0.104
0.330 -0.005 -0.107
0.332 -0.002 -0.107
0.318 0.001 -0.103
0.316 0.004 -0.102
0.310 0.007 -0.101
0.319 0.010 -0.103
0.327 0.013 -0.106
0.327 0.017 -0.106
0.327 0.020 -0.106
0.329 0.023 -0.107
0.321 0.025 -0.104
0.314 0.027 -0.102
0.313 0.030 -0.102
0.318 0.034 -0.103
0.327 0.038 -0.106
0.318 0.040 -0.103
0.316 0.042 -0.103
0.315 0.045 -0.102
0.304 0.046 -0.099
0.298 0.048 -0.097
0.301 0.051 -0.098
0.311 0.056 -0.102
0.311 0.059 -0.102
0.319 0.063 -0.104
0.334 0.070 -0.109
0.328 0.071 -0.107
0.319 0.073 -0.105
0.327 0.078 -0.107
0.326 0.080 -0.107
0.315 0.081 -0.104
0.309 0.082 -0.102
0.306 0.084 -0.101
0.313 0.089 -0.103
0.336 0.099 -0.111
0.345 0.105 -0.114
0.340 0.107 -0.113
0.332 0.108 -0.110
0.330 0.110 -0.110
0.332 0.114 -0.110
0.336 0.119 -0.112
0.343 0.125 -0.114
0.348 0.130 -0.116
0.338 0.130 -0.113
3.203 1.296 -1.075
0.350 0.156 -0.118
0.318 -0.435 -0.131
0.320 -0.431 -0.131
0.319 -0.425 -0.130
0.326 -0.428 -0.133
0.325 -0.421 -0.132
0.325 -0.416 -0.131
0.326 -0.412 -0.131
0.327 -0.407 -0.131
0.327 -0.402 -0.130
0.326 -0.394 -0.129
0.325 -0.388 -0.128
0.326 -0.383 -0.128
0.325 -0.377 -0.127
0.323 -0.369 -0.126
0.318 -0.358 -0.123
0.319 -0.354 -0.123
0.320 -0.349 -0.123
0.321 -0.345 -0.123
0.320 -0.339 -0.122
0.319 -0.332 -0.120
0.313 -0.321 -0.118
0.314 -0.317 -0.118
0.317 -0.316 -0.118
0.314 -0.308 -0.117
0.313 -0.302 -0.116
0.313 -0.297 -0.115
0.310 -0.290 -0.114
0.310 -0.285 -0.113
0.308 -0.279 -0.112
0.309 -0.275 -0.112
0.308 -0.270 -0.111
0.307 -0.265 -0.110
0.307 -0.261 -0.110
0.308 -0.257 -0.110
0.310 -0.255 -0.110
0.306 -0.248 -0.108
0.305 -0.242 -0.107
0.302 -0.236 -0.106
0.302 -0.233 -0.106
0.300 -0.227 -0.105
0.299 -0.222 -0.104
0.298 -0.218 -0.103
0.287 -0.206 -0.099
0.210 -0.143 -0.072
0.208 -0.139 -0.071
0.208 -0.137 -0.071
0.211 -0.136 -0.072
0.222 -0.141 -0.075
0.225 -0.141 -0.076
0.227 -0.139 -0.076
0.221 -0.133 -0.074
0.208 -0.123 -0.070
0.209 -0.121 -0.070
0.210 -0.119 -0.070
0.216 -0.121 -0.072
0.240 -0.131 -0.080
0.244 -0.131 -0.081
0.244 -0.128 -0.081
0.244 -0.125 -0.081
0.249 -0.125 -0.082
0.306 -0.151 -0.101
0.311 -0.150 -0.102
0.316 -0.149 -0.103
0.318 -0.147 -0.104
0.319 -0.144 -0.104
0.321 -0.142 -0.105
0.322 -0.139 -0.105
0.316 -0.133 -0.103
0.291 -0.120 -0.094
0.279 -0.112 -0.090
0.275 -0.107 -0.089
0.279 -0.106 -0.090
0.294 -0.109 -0.095
0.352 -0.127 -0.113
0.357 -0.125 -0.115
0.364 -0.124 -0.117
0.370 -0.122 -0.118
0.379 -0.122 -0.121
0.391 -0.122 -0.125
0.402 -0.121 -0.128
0.410 -0.120 -0.131
0.416 -0.118 -0.133
0.426 -0.116 -0.136
0.439 -0.116 -0.140
0.445 -0.113 -0.141
0.430 -0.105 -0.137
0.383 -0.083 -0.121
0.394 -0.082 -0.125
0.393 -0.078 -0.124
0.378 -0.071 -0.120
0.296 -0.053 -0.093
0.290 -0.049 -0.092
0.290 -0.047 -0.091
0.292 -0.044 -0.092
0.297 -0.042 -0.094
0.296 -0.039 -0.093
0.295 -0.036 -0.093
0.296 -0.034 -0.093
0.296 -0.031 -0.093
0.292 -0.028 -0.092
0.298 -0.026 -0.094
0.314 -0.024 -0.099
0.318 -0.022 -0.100
0.306 -0.018 -0.096
0.294 -0.015 -0.092
0.300 -0.012 -0.094
0.306 -0.010 -0.096
0.328 -0.007 -0.103
0.333 -0.005 -0.105
0.319 -0.001 -0.100
0.307 0.001 -0.097
0.298 0.004 -0.094
0.310 0.007 -0.098
0.324 0.010 -0.102
0.326 0.013 -0.103
0.320 0.016 -0.101
0.319 0.019 -0.100
0.315 0.022 -0.099
0.320 0.025 -0.101
0.316 0.028 -0.100
0.315 0.030 -0.099
0.318 0.034 -0.100
0.320 0.037 -0.101
0.321 0.040 -0.101
0.317 0.042 -0.100
0.310 0.044 -0.098
0.306 0.046 -0.097
0.298 0.048 -0.094
0.301 0.051 -0.095
0.312 0.056 -0.099
0.317 0.060 -0.100
0.322 0.064 -0.102
0.326 0.068 -0.104
0.334 0.073 -0.106
0.328 0.075 -0.104
0.333 0.079 -0.106
0.333 0.082 -0.106
0.325 0.083 -0.104
0.315 0.084 -0.101
0.310 0.085 -0.099
0.319 0.091 -0.102
0.334 0.098 -0.107
0.343 0.104 -0.110
0.336 0.106 -0.108
0.333 0.108 -0.107
0.324 0.108 -0.104
0.328 0.113 -0.106
0.330 0.117 -0.107
0.337 0.123 -0.109
0.337 0.126 -0.109
0.338 0.130 -0.110
0.349 0.155 -0.115
0.333 0.152 -0.110
0.326 -0.444 -0.130
0.320 -0.431 -0.127
0.318 -0.423 -0.126
0.318 -0.417 -0.125
0.328 -0.425 -0.129
0.326 -0.417 -0.128
0.326 -0.411 -0.127
0.326 -0.406 -0.127
0.326 -0.399 -0.126
0.322 -0.389 -0.124
0.321 -0.383 -0.123
0.323 -0.379 -0.123
0.321 -0.371 -0.122
0.319 -0.364 -0.120
0.319 -0.358 -0.120
0.318 -0.352 -0.119
0.318 -0.346 -0.118
0.318 -0.341 -0.118
0.319 -0.337 -0.118
0.317 -0.330 -0.116
0.314 -0.322 -0.115
0.316 -0.319 -0.115
0.316 -0.313 -0.114
0.313 -0.306 -0.113
0.313 -0.301 -0.112
0.313 -0.297 -0.112
0.312 -0.291 -0.111
0.310 -0.285 -0.110
0.307 -0.277 -0.108
0.307 -0.273 -0.108
0.307 -0.269 -0.107
0.308 -0.265 -0.107
0.307 -0.260 -0.107
0.306 -0.256 -0.106
0.303 -0.249 -0.104
0.304 -0.245 -0.104
0.303 -0.240 -0.103
0.302 -0.236 -0.103
0.299 -0.230 -0.102
0.298 -0.225 -0.101
0.297 -0.220 -0.100
0.293 -0.214 -0.099
0.283 -0.203 -0.095
0.274 -0.193 -0.091
0.210 -0.143 -0.070
0.207 -0.139 -0.069
0.207 -0.137 -0.068
0.211 -0.136 -0.069
0.220 -0.139 -0.072
0.225 -0.140 -0.074
0.227 -0.139 -0.074
0.227 -0.136 -0.074
0.209 -0.123 -0.068
0.209 -0.121 -0.068
0.210 -0.119 -0.068
0.211 -0.118 -0.068
0.241 -0.131 -0.077
0.244 -0.131 -0.079
0.244 -0.128 -0.078
0.245 -0.125 -0.078
0.247 -0.124 -0.079
0.311 -0.150 -0.099
0.313 -0.148 -0.100
0.317 -0.146 -0.101
0.319 -0.144 -0.101
0.320 -0.141 -0.101
0.317 -0.136 -0.100
0.306 -0.129 -0.096
0.288 -0.118 -0.091
0.282 -0.113 -0.089
0.275 -0.105 -0.086
0.287 -0.106 -0.090
0.351 -0.126 -0.109
0.358 -0.125 -0.111
0.365 -0.124 -0.114
0.372 -0.123 -0.116
0.383 -0.123 -0.119
0.390 -0.122 -0.121
0.404 -0.122 -0.125
0.408 -0.119 -0.126
0.410 -0.116 -0.127
0.426 -0.116 -0.132
0.438 -0.115 -0.135
0.450 -0.114 -0.139
0.401 -0.083 -0.123
0.386 -0.076 -0.118
0.293 -0.052 -0.090
0.292 -0.050 -0.090
0.290 -0.047 -0.089
0.294 -0.044 -0.090
0.296 -0.042 -0.090
0.297 -0.039 -0.091
0.298 -0.037 -0.091
0.298 -0.034 -0.091
0.298 -0.031 -0.091
0.315 -0.030 -0.096
0.305 -0.024 -0.093
0.317 -0.022 -0.097
0.304 -0.018 -0.093
0.293 -0.015 -0.089
0.295 -0.012 -0.090
0.323 -0.010 -0.099
0.338 -0.008 -0.103
0.331 -0.005 -0.101
0.314 -0.001 -0.096
0.306 0.001 -0.093
0.304 0.004 -0.093
0.305 0.007 -0.093
0.312 0.010 -0.095
0.314 0.013 -0.096
0.321 0.016 -0.098
0.320 0.019 -0.098
0.327 0.022 -0.100
0.321 0.025 -0.098
0.315 0.027 -0.096
0.315 0.030 -0.096
0.312 0.033 -0.096
0.319 0.037 -0.098
0.320 0.040 -0.098
0.318 0.042 -0.097
0.316 0.045 -0.097
0.318 0.048 -0.098
0.319 0.051 -0.098
0.318 0.054 -0.098
0.323 0.058 -0.099
0.322 0.061 -0.099
0.319 0.063 -0.098
0.326 0.068 -0.101
0.326 0.071 -0.101
0.323 0.073 -0.100
0.333 0.079 -0.103
0.333 0.082 -0.103
0.328 0.084 -0.101
0.316 0.084 -0.098
0.317 0.087 -0.098
0.322 0.092 -0.100
0.326 0.096 -0.101
0.329 0.100 -0.102
0.333 0.104 -0.104
0.324 0.105 -0.101
0.327 0.109 -0.102
0.321 0.110 -0.101
0.333 0.117 -0.104
0.328 0.119 -0.103
0.333 0.124 -0.105
0.335 0.128 -0.105
0.347 0.155 -0.111
0.337 0.153 -0.107
0.368 0.187 -0.119
0.357 0.186 -0.115
0.340 0.181 -0.110
0.333 0.180 -0.108
0.339 0.192 -0.111
0.366 0.219 -0.120
0.329 -0.448 -0.127
0.322 -0.433 -0.124
0.319 -0.424 -0.122
0.318 -0.417 -0.122
0.323 -0.418 -0.123
0.321 -0.410 -0.122
0.322 -0.405 -0.121
0.325 -0.403 -0.122
0.324 -0.397 -0.121
0.320 -0.387 -0.119
0.319 -0.379 -0.118
0.319 -0.374 -0.118
0.319 -0.368 -0.117
0.317 -0.361 -0.116
0.317 -0.355 -0.115
0.317 -0.350 -0.115
0.316 -0.344 -0.114
0.314 -0.336 -0.112
0.313 -0.330 -0.112
0.313 -0.325 -0.111
0.314 -0.321 -0.111
0.315 -0.317 -0.111
0.313 -0.311 -0.110
0.309 -0.302 -0.108
0.310 -0.298 -0.108
0.313 -0.296 -0.108
0.314 -0.292 -0.108
0.305 -0.279 -0.104
0.306 -0.276 -0.104
0.306 -0.272 -0.104
0.307 -0.268 -0.104
0.307 -0.264 -0.104
0.306 -0.259 -0.103
0.303 -0.253 -0.102
0.304 -0.249 -0.101
0.303 -0.244 -0.101
0.303 -0.240 -0.100
0.301 -0.235 -0.099
0.299 -0.229 -0.098
0.297 -0.224 -0.097
0.295 -0.219 -0.096
0.296 -0.216 -0.096
0.289 -0.207 -0.094
0.212 -0.144 -0.068
0.208 -0.139 -0.067
0.208 -0.137 -0.067
0.210 -0.136 -0.067
0.221 -0.140 -0.070
0.224 -0.140 -0.071
0.226 -0.138 -0.071
0.228 -0.137 -0.072
0.210 -0.123 -0.066
0.210 -0.121 -0.066
0.210 -0.119 -0.066
0.211 -0.117 -0.066
0.237 -0.129 -0.074
0.244 -0.130 -0.076
0.244 -0.128 -0.076
0.244 -0.125 -0.076
0.247 -0.124 -0.076
0.255 -0.125 -0.079
0.310 -0.149 -0.096
0.312 -0.147 -0.096
0.316 -0.145 -0.097
0.318 -0.143 -0.098
0.319 -0.140 -0.098
0.313 -0.134 -0.096
0.299 -0.125 -0.091
0.285 -0.116 -0.087
0.283 -0.110 -0.086
0.277 -0.105 -0.084
0.279 -0.103 -0.085
0.351 -0.126 -0.106
0.359 -0.126 -0.108
0.369 -0.126 -0.111
0.381 -0.126 -0.115
0.385 -0.123 -0.116
0.389 -0.121 -0.117
0.399 -0.120 -0.120
0.404 -0.118 -0.121
0.405 -0.114 -0.121
0.411 -0.112 -0.123
0.405 -0.088 -0.121
0.398 -0.082 -0.118
0.389 -0.077 -0.116
0.377 -0.071 -0.112
0.290 -0.052 -0.086
0.291 -0.049 -0.086
0.294 -0.047 -0.087
0.297 -0.045 -0.088
0.297 -0.042 -0.088
0.298 -0.040 -0.088
0.299 -0.037 -0.088
0.308 -0.035 -0.091
0.314 -0.033 -0.093
0.299 -0.029 -0.088
0.306 -0.027 -0.091
0.303 -0.024 -0.090
0.304 -0.021 -0.090
0.305 -0.018 -0.090
0.296 -0.015 -0.087
0.301 -0.012 -0.089
0.323 -0.010 -0.096
0.333 -0.008 -0.098
0.317 -0.004 -0.094
0.313 -0.001 -0.092
0.311 0.001 -0.092
0.309 0.004 -0.091
0.308 0.007 -0.091
0.311 0.010 -0.092
0.316 0.013 -0.094
0.321 0.016 -0.095
0.328 0.019 -0.097
0.328 0.023 -0.097
0.307 0.024 -0.091
0.306 0.027 -0.091
0.306 0.029 -0.091
0.306 0.032 -0.091
0.305 0.035 -0.091
0.308 0.038 -0.091
0.309 0.041 -0.092
0.311 0.044 -0.092
0.319 0.048 -0.095
0.326 0.053 -0.097
0.327 0.056 -0.097
0.325 0.058 -0.097
0.320 0.060 -0.095
0.313 0.062 -0.093
0.317 0.066 -0.095
0.327 0.071 -0.098
0.326 0.074 -0.097
0.332 0.078 -0.099
0.340 0.084 -0.102
0.332 0.085 -0.099
0.322 0.085 -0.097
0.320 0.088 -0.096
0.319 0.090 -0.096
0.321 0.094 -0.097
0.326 0.099 -0.098
0.322 0.101 -0.097
0.340 0.110 -0.103
0.325 0.108 -0.098
0.342 0.117 -0.104
0.333 0.117 -0.101
0.337 0.122 -0.102
0.343 0.128 -0.104
0.344 0.132 -0.105
0.339 0.150 -0.104
0.318 0.144 -0.098
0.360 0.183 -0.112
0.355 0.184 -0.111
0.342 0.181 -0.107
0.340 0.184 -0.107
0.344 0.190 -0.109
0.355 0.200 -0.112
0.372 0.218 -0.118
0.380 0.273 -0.125
0.323 -0.440 -0.121
0.325 -0.436 -0.121
0.319 -0.424 -0.118
0.319 -0.418 -0.118
0.319 -0.413 -0.118
0.320 -0.408 -0.117
0.316 -0.397 -0.115
0.319 -0.395 -0.116
0.322 -0.393 -0.116
0.320 -0.385 -0.115
0.319 -0.379 -0.114
0.318 -0.372 -0.113
0.318 -0.366 -0.113
0.315 -0.358 -0.111
0.315 -0.353 -0.111
0.316 -0.348 -0.110
0.313 -0.340 -0.109
0.313 -0.335 -0.109
0.313 -0.329 -0.108
0.312 -0.324 -0.107
0.313 -0.320 -0.107
0.314 -0.316 -0.107
0.312 -0.309 -0.106
0.308 -0.301 -0.104
0.309 -0.297 -0.104
0.310 -0.293 -0.104
0.304 -0.283 -0.101
0.303 -0.278 -0.101
0.304 -0.274 -0.100
0.305 -0.271 -0.100
0.305 -0.266 -0.100
0.303 -0.260 -0.099
0.305 -0.257 -0.099
0.303 -0.252 -0.098
0.302 -0.247 -0.097
0.302 -0.243 -0.097
0.301 -0.238 -0.096
0.300 -0.234 -0.096
0.298 -0.228 -0.095
0.297 -0.224 -0.094
0.296 -0.219 -0.094
0.292 -0.213 -0.092
0.259 -0.182 -0.081
0.246 -0.170 -0.077
0.213 -0.144 -0.066
0.208 -0.139 -0.065
0.208 -0.137 -0.064
0.210 -0.135 -0.065
0.219 -0.138 -0.067
0.223 -0.139 -0.069
0.224 -0.137 -0.069
0.226 -0.135 -0.069
0.213 -0.125 -0.065
0.209 -0.121 -0.064
0.209 -0.118 -0.063
0.210 -0.117 -0.064
0.231 -0.126 -0.070
0.242 -0.129 -0.073
0.244 -0.127 -0.073
0.244 -0.125 -0.073
0.246 -0.123 -0.074
0.250 -0.123 -0.075
0.306 -0.147 -0.091
0.311 -0.146 -0.093
0.314 -0.144 -0.093
0.317 -0.142 -0.094
0.319 -0.140 -0.094
0.317 -0.136 -0.094
0.277 -0.113 -0.082
0.277 -0.105 -0.081
0.274 -0.101 -0.080
0.354 -0.127 -0.104
0.357 -0.125 -0.104
0.375 -0.127 -0.110
0.382 -0.126 -0.111
0.384 -0.123 -0.112
0.385 -0.120 -0.112
0.391 -0.118 -0.114
0.401 -0.117 -0.116
0.409 -0.115 -0.119
0.417 -0.114 -0.121
0.428 -0.112 -0.124
0.432 -0.110 -0.125
0.433 -0.106 -0.125
0.433 -0.102 -0.125
0.411 -0.089 -0.118
0.402 -0.083 -0.116
0.388 -0.077 -0.112
0.383 -0.072 -0.110
0.288 -0.052 -0.083
0.290 -0.049 -0.083
0.293 -0.047 -0.084
0.296 -0.045 -0.085
0.295 -0.042 -0.085
0.293 -0.039 -0.084
0.300 -0.037 -0.086
0.312 -0.036 -0.089
0.316 -0.033 -0.091
0.313 -0.030 -0.090
0.302 -0.026 -0.086
0.303 -0.023 -0.087
0.308 -0.021 -0.088
0.311 -0.018 -0.089
0.304 -0.015 -0.087
0.304 -0.012 -0.087
0.315 -0.010 -0.090
0.318 -0.007 -0.091
0.304 -0.004 -0.087
0.312 -0.001 -0.089
0.311 0.001 -0.089
0.313 0.004 -0.090
0.316 0.007 -0.090
0.319 0.010 -0.091
0.321 0.013 -0.092
0.305 0.015 -0.087
0.305 0.018 -0.087
0.305 0.021 -0.087
0.305 0.024 -0.087
0.306 0.027 -0.088
0.308 0.030 -0.088
0.309 0.032 -0.089
0.309 0.035 -0.089
0.310 0.038 -0.089
0.310 0.041 -0.089
0.311 0.044 -0.089
0.308 0.047 -0.089
0.307 0.049 -0.088
0.309 0.053 -0.089
0.324 0.058 -0.093
0.323 0.061 -0.093
0.321 0.064 -0.093
0.321 0.067 -0.093
0.322 0.070 -0.093
0.325 0.073 -0.094
0.332 0.078 -0.096
0.342 0.084 -0.099
0.337 0.086 -0.098
0.329 0.087 -0.096
0.318 0.087 -0.092
0.313 0.089 -0.091
0.316 0.093 -0.092
0.320 0.097 -0.093
0.338 0.106 -0.099
0.341 0.110 -0.100
0.348 0.116 -0.102
0.339 0.116 -0.100
0.339 0.119 -0.100
0.334 0.121 -0.098
0.330 0.146 -0.098
0.315 0.143 -0.094
0.344 0.178 -0.104
0.344 0.182 -0.104
0.349 0.188 -0.106
0.353 0.195 -0.108
0.388 0.223 -0.119
0.388 0.227 -0.119
0.387 0.231 -0.119
0.343 0.217 -0.106
0.312 -0.430 -0.113
0.315 -0.428 -0.114
0.319 -0.428 -0.115
0.318 -0.421 -0.114
0.318 -0.416 -0.114
0.319 -0.412 -0.114
0.315 -0.401 -0.112
0.315 -0.396 -0.111
0.315 -0.390 -0.111
0.318 -0.389 -0.111
0.319 -0.384 -0.111
0.319 -0.378 -0.110
0.317 -0.370 -0.109
0.315 -0.363 -0.108
0.316 -0.359 -0.108
0.315 -0.352 -0.107
0.314 -0.345 -0.106
0.312 -0.339 -0.105
0.312 -0.333 -0.104
0.313 -0.329 -0.104
0.314 -0.326 -0.104
0.313 -0.319 -0.103
0.309 -0.310 -0.102
0.309 -0.305 -0.101
0.310 -0.301 -0.101
0.308 -0.295 -0.100
0.307 -0.290 -0.099
0.303 -0.282 -0.098
0.302 -0.276 -0.097
0.303 -0.272 -0.097
0.303 -0.268 -0.096
0.300 -0.262 -0.095
0.303 -0.260 -0.095
0.302 -0.255 -0.095
0.303 -0.252 -0.095
0.302 -0.247 -0.094
0.300 -0.242 -0.093
0.299 -0.237 -0.093
0.297 -0.231 -0.092
0.296 -0.227 -0.091
0.295 -0.222 -0.090
0.294 -0.218 -0.090
0.285 -0.207 -0.087
0.244 -0.174 -0.074
0.238 -0.167 -0.072
0.241 -0.166 -0.073
0.213 -0.144 -0.064
0.208 -0.139 -0.062
0.208 -0.136 -0.062
0.209 -0.135 -0.062
0.213 -0.135 -0.063
0.221 -0.137 -0.066
0.224 -0.137 -0.066
0.224 -0.134 -0.066
0.220 -0.129 -0.065
0.208 -0.120 -0.061
0.208 -0.118 -0.061
0.209 -0.116 -0.061
0.218 -0.118 -0.064
0.242 -0.129 -0.070
0.243 -0.127 -0.071
0.243 -0.124 -0.070
0.244 -0.122 -0.071
0.249 -0.122 -0.072
0.303 -0.146 -0.088
0.310 -0.146 -0.089
0.314 -0.144 -0.090
0.316 -0.142 -0.091
0.322 -0.141 -0.092
0.317 -0.136 -0.091
0.274 -0.112 -0.078
0.267 -0.104 -0.076
0.273 -0.103 -0.077
0.267 -0.099 -0.076
0.355 -0.127 -0.100
0.360 -0.126 -0.102
0.371 -0.126 -0.105
0.379 -0.125 -0.107
0.381 -0.122 -0.107
0.384 -0.119 -0.108
0.388 -0.117 -0.109
0.402 -0.117 -0.113
0.407 -0.115 -0.114
0.414 -0.113 -0.116
0.423 -0.111 -0.118
0.433 -0.110 -0.121
0.442 -0.108 -0.123
0.448 -0.105 -0.125
0.404 -0.087 -0.113
0.407 -0.084 -0.113
0.392 -0.077 -0.109
0.291 -0.052 -0.081
0.290 -0.049 -0.081
0.293 -0.047 -0.081
0.295 -0.045 -0.082
0.293 -0.042 -0.081
0.293 -0.039 -0.081
0.299 -0.037 -0.083
0.312 -0.036 -0.086
0.318 -0.033 -0.088
0.311 -0.030 -0.086
0.301 -0.026 -0.083
0.303 -0.023 -0.084
0.319 -0.022 -0.088
0.322 -0.019 -0.089
0.310 -0.016 -0.086
0.305 -0.012 -0.084
0.310 -0.010 -0.086
0.312 -0.007 -0.086
0.313 -0.004 -0.087
0.311 -0.001 -0.086
0.315 0.001 -0.087
0.315 0.004 -0.087
0.316 0.007 -0.088
0.320 0.010 -0.088
0.302 0.012 -0.084
0.303 0.015 -0.084
0.306 0.018 -0.085
0.307 0.021 -0.085
0.308 0.024 -0.085
0.309 0.027 -0.086
0.310 0.030 -0.086
0.310 0.033 -0.086
0.311 0.036 -0.086
0.311 0.038 -0.086
0.311 0.041 -0.087
0.312 0.044 -0.087
0.312 0.047 -0.087
0.311 0.050 -0.087
0.311 0.053 -0.087
0.311 0.056 -0.087
0.311 0.059 -0.087
0.325 0.064 -0.091
0.325 0.067 -0.091
0.320 0.069 -0.090
0.314 0.071 -0.088
0.318 0.075 -0.089
0.330 0.081 -0.092
0.335 0.085 -0.094
0.326 0.086 -0.092
0.315 0.086 -0.089
0.310 0.088 -0.087
0.314 0.092 -0.089
0.325 0.098 -0.092
0.339 0.106 -0.096
0.350 0.113 -0.099
0.348 0.115 -0.099
0.337 0.115 -0.096
0.332 0.117 -0.094
0.329 0.119 -0.094
0.326 0.121 -0.093
0.324 0.144 -0.094
0.325 0.148 -0.094
0.331 0.157 -0.096
0.344 0.178 -0.101
0.351 0.189 -0.103
0.364 0.200 -0.107
0.375 0.211 -0.111
0.382 0.219 -0.113
0.392 0.229 -0.116
0.396 0.236 -0.118
0.397 0.241 -0.119
0.339 0.214 -0.102
0.312 -0.429 -0.109
0.311 -0.423 -0.109
0.312 -0.419 -0.109
0.317 -0.420 -0.110
0.317 -0.414 -0.109
0.313 -0.404 -0.108
0.315 -0.401 -0.108
0.312 -0.392 -0.106
0.315 -0.390 -0.107
0.316 -0.385 -0.107
0.316 -0.379 -0.106
0.316 -0.374 -0.106
0.315 -0.368 -0.105
0.314 -0.361 -0.104
0.314 -0.355 -0.103
0.314 -0.350 -0.103
0.313 -0.344 -0.102
0.308 -0.333 -0.100
0.310 -0.331 -0.100
0.313 -0.329 -0.101
0.314 -0.325 -0.101
0.317 -0.322 -0.101
0.309 -0.310 -0.098
0.308 -0.304 -0.097
0.308 -0.299 -0.097
0.307 -0.294 -0.096
0.306 -0.289 -0.096
0.301 -0.279 -0.094
0.301 -0.275 -0.093
0.300 -0.270 -0.092
0.300 -0.265 -0.092
0.301 -0.262 -0.092
0.299 -0.256 -0.091
0.299 -0.252 -0.091
0.302 -0.250 -0.091
0.303 -0.247 -0.091
0.301 -0.241 -0.090
0.288 -0.228 -0.086
0.289 -0.224 -0.086
0.290 -0.222 -0.086
0.292 -0.220 -0.086
0.292 -0.216 -0.086
0.243 -0.176 -0.071
0.236 -0.168 -0.069
0.237 -0.167 -0.069
0.213 -0.147 -0.062
0.212 -0.144 -0.062
0.211 -0.141 -0.061
0.209 -0.137 -0.060
0.210 -0.135 -0.061
0.216 -0.136 -0.062
0.219 -0.136 -0.063
0.219 -0.133 -0.063
0.220 -0.131 -0.063
0.223 -0.131 -0.063
0.207 -0.119 -0.059
0.208 -0.118 -0.059
0.209 -0.116 -0.059
0.216 -0.117 -0.061
0.242 -0.129 -0.068
0.242 -0.126 -0.068
0.242 -0.124 -0.068
0.243 -0.121 -0.068
0.247 -0.121 -0.069
0.310 -0.145 -0.086
0.313 -0.143 -0.087
0.317 -0.142 -0.088
0.321 -0.141 -0.089
0.315 -0.135 -0.087
0.273 -0.111 -0.075
0.266 -0.103 -0.073
0.266 -0.100 -0.073
0.266 -0.098 -0.073
0.352 -0.126 -0.096
0.362 -0.126 -0.099
0.371 -0.126 -0.101
0.375 -0.123 -0.102
0.380 -0.122 -0.103
0.383 -0.119 -0.104
0.386 -0.116 -0.105
0.395 -0.115 -0.107
0.406 -0.114 -0.110
0.412 -0.112 -0.112
0.421 -0.110 -0.114
0.438 -0.111 -0.118
0.448 -0.109 -0.121
0.451 -0.106 -0.122
0.408 -0.092 -0.110
0.412 -0.089 -0.111
0.406 -0.084 -0.109
0.399 -0.079 -0.107
0.291 -0.052 -0.078
0.291 -0.049 -0.078
0.291 -0.047 -0.078
0.294 -0.044 -0.079
0.293 -0.041 -0.079
0.293 -0.039 -0.079
0.304 -0.037 -0.081
0.311 -0.035 -0.083
0.312 -0.033 -0.083
0.309 -0.030 -0.083
0.307 -0.027 -0.082
0.319 -0.025 -0.085
0.331 -0.023 -0.088
0.315 -0.016 -0.084
0.307 -0.013 -0.082
0.307 -0.010 -0.082
0.314 -0.007 -0.084
0.316 -0.004 -0.084
0.320 -0.001 -0.085
0.317 0.001 -0.085
0.314 0.004 -0.084
0.302 0.007 -0.081
0.303 0.010 -0.081
0.305 0.012 -0.082
0.306 0.015 -0.082
0.309 0.018 -0.083
0.310 0.021 -0.083
0.310 0.024 -0.083
0.311 0.027 -0.083
0.312 0.030 -0.084
0.312 0.033 -0.084
0.312 0.036 -0.084
0.312 0.039 -0.084
0.312 0.041 -0.084
0.313 0.044 -0.084
0.313 0.047 -0.084
0.313 0.050 -0.084
0.313 0.053 -0.084
0.312 0.056 -0.084
0.312 0.059 -0.084
0.312 0.062 -0.084
0.312 0.065 -0.084
0.323 0.070 -0.087
0.317 0.072 -0.086
0.317 0.075 -0.086
0.321 0.079 -0.087
0.327 0.083 -0.089
0.325 0.086 -0.088
0.312 0.085 -0.085
0.307 0.087 -0.083
0.309 0.090 -0.084
0.321 0.097 -0.088
0.337 0.105 -0.092
0.341 0.110 -0.093
0.329 0.109 -0.090
0.324 0.110 -0.089
0.317 0.111 -0.087
0.321 0.122 -0.089
0.311 0.122 -0.086
0.340 0.154 -0.095
0.340 0.158 -0.095
0.354 0.183 -0.100
0.339 0.179 -0.096
0.359 0.193 -0.102
0.365 0.201 -0.104
0.362 0.203 -0.103
0.384 0.233 -0.111
0.352 0.230 -0.103
0.362 0.255 -0.107
0.312 -0.429 -0.105
0.309 -0.420 -0.104
0.311 -0.417 -0.104
0.314 -0.416 -0.105
0.314 -0.409 -0.104
0.311 -0.401 -0.103
0.312 -0.396 -0.103
0.317 -0.397 -0.104
0.315 -0.389 -0.103
0.314 -0.382 -0.102
0.314 -0.377 -0.102
0.315 -0.372 -0.102
0.314 -0.366 -0.101
0.312 -0.359 -0.100
0.312 -0.352 -0.099
0.311 -0.346 -0.098
0.307 -0.337 -0.097
0.308 -0.333 -0.096
0.310 -0.330 -0.097
0.312 -0.327 -0.097
0.315 -0.325 -0.097
0.311 -0.316 -0.096
0.306 -0.306 -0.094
0.305 -0.301 -0.093
0.304 -0.296 -0.092
0.306 -0.293 -0.092
0.305 -0.287 -0.092
0.304 -0.281 -0.091
0.301 -0.274 -0.090
0.303 -0.272 -0.090
0.300 -0.265 -0.089
0.300 -0.261 -0.089
0.300 -0.257 -0.088
0.297 -0.250 -0.087
0.298 -0.247 -0.087
0.302 -0.246 -0.088
0.292 -0.234 -0.084
0.282 -0.222 -0.081
0.216 -0.165 -0.062
0.218 -0.164 -0.062
0.245 -0.178 -0.069
0.237 -0.169 -0.067
0.236 -0.165 -0.066
0.213 -0.147 -0.060
0.213 -0.144 -0.060
0.211 -0.140 -0.059
0.212 -0.138 -0.059
0.211 -0.136 -0.059
0.219 -0.138 -0.061
0.220 -0.137 -0.061
0.220 -0.134 -0.061
0.221 -0.132 -0.061
0.223 -0.131 -0.061
0.210 -0.120 -0.057
0.208 -0.117 -0.057
0.210 -0.116 -0.057
0.213 -0.115 -0.058
0.240 -0.127 -0.065
0.244 -0.127 -0.066
0.244 -0.125 -0.066
0.243 -0.121 -0.065
0.243 -0.119 -0.066
0.309 -0.145 -0.083
0.312 -0.143 -0.084
0.318 -0.142 -0.085
0.320 -0.140 -0.086
0.313 -0.134 -0.083
0.268 -0.109 -0.071
0.261 -0.101 -0.069
0.264 -0.100 -0.070
0.255 -0.094 -0.067
0.351 -0.126 -0.093
0.359 -0.125 -0.095
0.371 -0.126 -0.098
0.376 -0.124 -0.099
0.377 -0.120 -0.099
0.381 -0.118 -0.100
0.391 -0.117 -0.102
0.397 -0.115 -0.104
0.406 -0.114 -0.106
0.414 -0.112 -0.108
0.423 -0.111 -0.110
0.434 -0.110 -0.113
0.448 -0.109 -0.117
0.457 -0.107 -0.119
0.410 -0.088 -0.107
0.404 -0.083 -0.105
0.395 -0.078 -0.103
0.290 -0.052 -0.075
0.290 -0.049 -0.075
0.291 -0.047 -0.075
0.290 -0.044 -0.075
0.294 -0.042 -0.076
0.303 -0.040 -0.078
0.304 -0.037 -0.079
0.303 -0.035 -0.078
0.305 -0.032 -0.079
0.305 -0.029 -0.079
0.316 -0.027 -0.082
0.333 -0.026 -0.086
0.343 -0.023 -0.088
0.332 -0.020 -0.086
0.317 -0.016 -0.082
0.305 -0.012 -0.079
0.302 -0.010 -0.078
0.307 -0.007 -0.079
0.318 -0.004 -0.082
0.319 -0.001 -0.082
0.317 0.001 -0.082
0.302 0.004 -0.078
0.303 0.007 -0.078
0.305 0.010 -0.079
0.306 0.013 -0.079
0.308 0.015 -0.080
0.310 0.018 -0.080
0.311 0.021 -0.080
0.312 0.024 -0.081
0.313 0.027 -0.081
0.313 0.030 -0.081
0.313 0.033 -0.081
0.314 0.036 -0.081
0.314 0.039 -0.081
0.313 0.041 -0.081
0.314 0.044 -0.081
0.314 0.047 -0.081
0.314 0.050 -0.081
0.314 0.053 -0.082
0.314 0.056 -0.082
0.313 0.059 -0.081
0.313 0.062 -0.081
0.313 0.065 -0.081
0.311 0.067 -0.081
0.325 0.073 -0.085
0.320 0.075 -0.084
0.321 0.078 -0.084
0.320 0.081 -0.084
0.321 0.085 -0.084
0.313 0.085 -0.082
0.310 0.088 -0.081
0.310 0.091 -0.081
0.317 0.096 -0.083
0.326 0.102 -0.086
0.327 0.105 -0.086
0.317 0.105 -0.084
0.320 0.109 -0.085
0.325 0.114 -0.086
0.333 0.120 -0.088
0.333 0.123 -0.088
0.326 0.124 -0.087
0.346 0.157 -0.093
0.348 0.161 -0.094
0.374 0.197 -0.102
0.365 0.197 -0.100
0.351 0.193 -0.096
0.347 0.198 -0.096
0.349 0.203 -0.096
0.356 0.212 -0.099
0.343 0.212 -0.096
0.330 0.208 -0.092
0.340 0.218 -0.095
0.306 -0.420 -0.100
0.307 -0.417 -0.100
0.310 -0.415 -0.100
0.313 -0.413 -0.101
0.312 -0.407 -0.100
0.310 -0.399 -0.099
0.314 -0.398 -0.100
0.316 -0.395 -0.100
0.313 -0.386 -0.099
0.313 -0.380 -0.098
0.312 -0.374 -0.097
0.313 -0.369 -0.097
0.312 -0.363 -0.096
0.311 -0.357 -0.096
0.310 -0.350 -0.095
0.308 -0.343 -0.094
0.309 -0.339 -0.094
0.310 -0.334 -0.093
0.308 -0.327 -0.092
0.309 -0.323 -0.092
0.309 -0.319 -0.092
0.305 -0.309 -0.090
0.304 -0.304 -0.090
0.304 -0.299 -0.089
0.305 -0.296 -0.089
0.305 -0.291 -0.089
0.304 -0.286 -0.088
0.303 -0.281 -0.088
0.302 -0.275 -0.087
0.303 -0.272 -0.087
0.303 -0.267 -0.086
0.300 -0.261 -0.085
0.298 -0.255 -0.084
0.297 -0.250 -0.084
0.298 -0.246 -0.084
0.287 -0.233 -0.080
0.282 -0.226 -0.078
0.215 -0.167 -0.060
0.214 -0.163 -0.059
0.216 -0.162 -0.060
0.226 -0.166 -0.062
0.248 -0.180 -0.068
0.240 -0.171 -0.065
0.236 -0.165 -0.064
0.216 -0.138 -0.058
0.220 -0.139 -0.059
0.222 -0.137 -0.059
0.218 -0.133 -0.058
0.219 -0.131 -0.058
0.221 -0.129 -0.058
0.212 -0.122 -0.056
0.207 -0.117 -0.055
0.209 -0.115 -0.055
0.211 -0.114 -0.055
0.232 -0.123 -0.061
0.245 -0.127 -0.064
0.245 -0.125 -0.064
0.243 -0.121 -0.063
0.243 -0.119 -0.063
0.309 -0.145 -0.080
0.314 -0.144 -0.081
0.316 -0.141 -0.081
0.316 -0.138 -0.081
0.311 -0.133 -0.080
0.297 -0.124 -0.076
0.254 -0.101 -0.065
0.254 -0.098 -0.065
0.268 -0.101 -0.068
0.254 -0.093 -0.065
0.348 -0.124 -0.088
0.359 -0.125 -0.091
0.370 -0.125 -0.094
0.374 -0.123 -0.095
0.377 -0.120 -0.095
0.381 -0.118 -0.096
0.390 -0.117 -0.098
0.400 -0.116 -0.101
0.405 -0.114 -0.102
0.415 -0.113 -0.104
0.423 -0.111 -0.106
0.434 -0.110 -0.109
0.449 -0.109 -0.113
0.456 -0.107 -0.114
0.404 -0.087 -0.101
0.397 -0.082 -0.099
0.385 -0.076 -0.096
0.295 -0.052 -0.074
0.291 -0.049 -0.073
0.287 -0.046 -0.072
0.287 -0.043 -0.072
0.292 -0.041 -0.073
0.306 -0.040 -0.076
0.307 -0.038 -0.076
0.300 -0.034 -0.075
0.301 -0.032 -0.075
0.312 -0.030 -0.078
0.349 -0.027 -0.087
0.347 -0.024 -0.086
0.310 -0.016 -0.077
0.302 -0.012 -0.075
0.303 -0.010 -0.075
0.312 -0.007 -0.078
0.316 -0.004 -0.079
0.322 -0.001 -0.080
0.301 0.001 -0.075
0.305 0.004 -0.076
0.306 0.007 -0.076
0.306 0.010 -0.076
0.308 0.013 -0.076
0.310 0.015 -0.077
0.311 0.018 -0.077
0.312 0.021 -0.078
0.313 0.024 -0.078
0.314 0.027 -0.078
0.314 0.030 -0.078
0.315 0.033 -0.079
0.315 0.036 -0.079
0.315 0.039 -0.079
0.315 0.042 -0.079
0.315 0.045 -0.079
0.315 0.048 -0.079
0.315 0.050 -0.079
0.315 0.053 -0.079
0.315 0.056 -0.079
0.315 0.059 -0.079
0.314 0.062 -0.079
0.313 0.065 -0.079
0.312 0.067 -0.079
0.312 0.070 -0.078
0.322 0.076 -0.081
0.321 0.078 -0.081
0.317 0.080 -0.080
0.311 0.082 -0.079
0.319 0.087 -0.081
0.322 0.091 -0.082
0.322 0.094 -0.082
0.320 0.096 -0.081
0.318 0.099 -0.081
0.320 0.103 -0.081
0.329 0.109 -0.084
0.335 0.117 -0.085
0.338 0.122 -0.086
0.333 0.123 -0.085
0.321 0.122 -0.082
0.349 0.158 -0.091
0.346 0.160 -0.090
0.326 0.158 -0.085
0.360 0.189 -0.095
0.350 0.188 -0.092
0.354 0.194 -0.094
0.346 0.194 -0.092
0.346 0.198 -0.092
0.354 0.206 -0.094
0.360 0.218 -0.096
0.356 0.220 -0.096
0.343 0.216 -0.093
0.345 0.225 -0.094
0.364 0.289 -0.102
0.316 -0.439 -0.099
0.304 -0.417 -0.095
0.305 -0.413 -0.095
0.307 -0.411 -0.096
0.309 -0.408 -0.096
0.310 -0.404 -0.096
0.312 -0.401 -0.096
0.310 -0.393 -0.095
0.312 -0.389 -0.095
0.314 -0.387 -0.095
0.310 -0.376 -0.094
0.310 -0.371 -0.093
0.309 -0.365 -0.092
0.310 -0.360 -0.092
0.310 -0.355 -0.092
0.309 -0.349 -0.091
0.307 -0.341 -0.090
0.310 -0.339 -0.090
0.309 -0.333 -0.090
0.307 -0.326 -0.089
0.306 -0.320 -0.088
0.306 -0.315 -0.088
0.308 -0.312 -0.088
0.306 -0.306 -0.087
0.306 -0.301 -0.086
0.307 -0.298 -0.086
0.306 -0.292 -0.086
0.303 -0.285 -0.085
0.300 -0.277 -0.083
0.302 -0.274 -0.083
0.302 -0.271 -0.083
0.302 -0.266 -0.083
0.300 -0.260 -0.082
0.297 -0.254 -0.081
0.297 -0.250 -0.081
0.296 -0.244 -0.080
0.286 -0.233 -0.077
0.223 -0.173 -0.059
0.220 -0.168 -0.058
0.213 -0.160 -0.056
0.212 -0.156 -0.056
0.236 -0.171 -0.062
0.246 -0.175 -0.065
0.240 -0.168 -0.063
0.217 -0.149 -0.057
0.231 -0.156 -0.060
0.227 -0.151 -0.059
0.207 -0.135 -0.053
0.216 -0.138 -0.056
0.221 -0.139 -0.057
0.222 -0.137 -0.057
0.222 -0.135 -0.057
0.219 -0.130 -0.056
0.219 -0.128 -0.056
0.218 -0.125 -0.055
0.207 -0.116 -0.052
0.208 -0.115 -0.053
0.209 -0.113 -0.053
0.231 -0.122 -0.058
0.243 -0.126 -0.061
0.246 -0.125 -0.062
0.243 -0.121 -0.061
0.243 -0.119 -0.061
0.310 -0.145 -0.077
0.312 -0.143 -0.078
0.315 -0.141 -0.078
0.318 -0.139 -0.079
0.320 -0.137 -0.079
0.306 -0.127 -0.075
0.257 -0.099 -0.063
0.273 -0.103 -0.067
0.351 -0.126 -0.086
0.361 -0.125 -0.088
0.365 -0.123 -0.089
0.370 -0.122 -0.090
0.375 -0.120 -0.091
0.381 -0.118 -0.093
0.389 -0.117 -0.095
0.398 -0.115 -0.097
0.406 -0.114 -0.098
0.412 -0.112 -0.100
0.423 -0.111 -0.102
0.435 -0.110 -0.105
0.445 -0.108 -0.108
0.450 -0.105 -0.109
0.419 -0.094 -0.101
0.403 -0.087 -0.097
0.388 -0.080 -0.093
0.380 -0.075 -0.091
0.374 -0.070 -0.090
0.297 -0.053 -0.071
0.291 -0.049 -0.070
0.286 -0.046 -0.069
0.285 -0.043 -0.068
0.286 -0.040 -0.069
0.307 -0.041 -0.074
0.307 -0.038 -0.074
0.295 -0.033 -0.071
0.300 -0.031 -0.072
0.345 -0.030 -0.083
0.346 -0.027 -0.083
0.341 -0.023 -0.082
0.317 -0.019 -0.076
0.303 -0.015 -0.072
0.300 -0.012 -0.072
0.308 -0.010 -0.074
0.314 -0.007 -0.075
0.316 -0.004 -0.076
0.302 -0.001 -0.072
0.302 0.001 -0.072
0.306 0.004 -0.073
0.307 0.007 -0.074
0.309 0.010 -0.074
0.310 0.013 -0.074
0.311 0.016 -0.075
0.312 0.018 -0.075
0.313 0.021 -0.075
0.314 0.024 -0.075
0.315 0.027 -0.075
0.316 0.030 -0.076
0.317 0.033 -0.076
0.317 0.036 -0.076
0.317 0.039 -0.076
0.317 0.042 -0.076
0.317 0.045 -0.076
0.317 0.048 -0.076
0.317 0.051 -0.076
0.316 0.053 -0.076
0.317 0.056 -0.076
0.316 0.059 -0.076
0.316 0.062 -0.076
0.314 0.065 -0.076
0.314 0.068 -0.076
0.314 0.071 -0.076
0.314 0.074 -0.076
0.325 0.079 -0.079
0.320 0.081 -0.078
0.309 0.081 -0.075
0.312 0.085 -0.076
0.324 0.092 -0.079
0.328 0.096 -0.080
0.324 0.098 -0.079
0.316 0.098 -0.077
0.324 0.104 -0.079
0.335 0.111 -0.082
0.338 0.115 -0.083
0.340 0.119 -0.083
0.341 0.123 -0.084
0.338 0.125 -0.083
0.326 0.124 -0.081
0.347 0.157 -0.087
0.339 0.156 -0.085
0.349 0.184 -0.089
0.352 0.189 -0.089
0.354 0.194 -0.090
0.365 0.204 -0.093
0.372 0.212 -0.095
0.379 0.221 -0.097
0.359 0.217 -0.093
0.365 0.225 -0.094
0.369 0.232 -0.096
0.337 0.219 -0.088
0.355 0.244 -0.094
0.368 0.281 -0.099
0.310 -0.425 -0.093
0.303 -0.411 -0.091
0.302 -0.403 -0.090
0.305 -0.403 -0.091
0.308 -0.401 -0.091
0.307 -0.394 -0.091
0.308 -0.390 -0.091
0.311 -0.388 -0.091
0.312 -0.383 -0.091
0.309 -0.375 -0.090
0.309 -0.370 -0.089
0.309 -0.364 -0.089
0.308 -0.358 -0.088
0.309 -0.354 -0.088
0.308 -0.347 -0.087
0.307 -0.341 -0.086
0.309 -0.338 -0.087
0.309 -0.333 -0.086
0.307 -0.326 -0.085
0.309 -0.322 -0.085
0.309 -0.318 -0.085
0.308 -0.312 -0.084
0.308 -0.308 -0.084
0.308 -0.302 -0.083
0.307 -0.297 -0.083
0.303 -0.289 -0.082
0.302 -0.283 -0.081
0.300 -0.277 -0.080
0.299 -0.272 -0.079
0.300 -0.269 -0.079
0.301 -0.265 -0.079
0.300 -0.259 -0.079
0.298 -0.254 -0.078
0.296 -0.248 -0.077
0.294 -0.242 -0.076
0.284 -0.230 -0.073
0.277 -0.222 -0.071
0.202 -0.151 -0.051
0.208 -0.153 -0.053
0.226 -0.163 -0.057
0.237 -0.169 -0.060
0.221 -0.154 -0.055
0.221 -0.152 -0.055
0.226 -0.152 -0.056
0.228 -0.151 -0.057
0.214 -0.140 -0.053
0.215 -0.138 -0.053
0.222 -0.140 -0.055
0.221 -0.137 -0.055
0.213 -0.129 -0.052
0.216 -0.129 -0.053
0.219 -0.128 -0.054
0.220 -0.126 -0.054
0.207 -0.116 -0.050
0.208 -0.115 -0.051
0.209 -0.113 -0.051
0.220 -0.117 -0.053
0.241 -0.125 -0.058
0.244 -0.124 -0.059
0.243 -0.121 -0.059
0.244 -0.119 -0.059
0.249 -0.119 -0.060
0.309 -0.144 -0.074
0.312 -0.142 -0.074
0.314 -0.140 -0.075
0.316 -0.138 -0.075
0.315 -0.134 -0.075
0.310 -0.129 -0.074
0.274 -0.111 -0.065
0.270 -0.104 -0.064
0.277 -0.104 -0.065
0.361 -0.125 -0.085
0.365 -0.123 -0.086
0.369 -0.121 -0.086
0.374 -0.119 -0.088
0.380 -0.117 -0.089
0.386 -0.116 -0.090
0.394 -0.114 -0.092
0.404 -0.113 -0.094
0.415 -0.112 -0.097
0.427 -0.112 -0.099
0.425 -0.107 -0.099
0.447 -0.109 -0.104
0.444 -0.104 -0.103
0.423 -0.095 -0.098
0.412 -0.088 -0.095
0.401 -0.082 -0.093
0.385 -0.076 -0.089
0.378 -0.071 -0.088
0.294 -0.052 -0.068
0.292 -0.049 -0.067
0.288 -0.046 -0.066
0.286 -0.043 -0.066
0.293 -0.041 -0.068
0.308 -0.041 -0.071
0.304 -0.037 -0.070
0.299 -0.034 -0.069
0.305 -0.032 -0.070
0.315 -0.030 -0.072
0.312 -0.027 -0.072
0.315 -0.021 -0.072
0.307 -0.018 -0.071
0.300 -0.015 -0.069
0.302 -0.012 -0.070
0.316 -0.010 -0.073
0.318 -0.007 -0.073
0.307 -0.004 -0.071
0.301 -0.001 -0.069
0.304 0.001 -0.070
0.307 0.004 -0.071
0.309 0.007 -0.071
0.310 0.010 -0.071
0.311 0.013 -0.072
0.312 0.016 -0.072
0.313 0.018 -0.072
0.313 0.021 -0.072
0.315 0.024 -0.073
0.317 0.027 -0.073
0.317 0.030 -0.073
0.317 0.033 -0.073
0.318 0.036 -0.073
0.318 0.039 -0.073
0.319 0.042 -0.074
0.319 0.045 -0.074
0.318 0.048 -0.074
0.317 0.051 -0.073
0.317 0.054 -0.074
0.317 0.057 -0.074
0.317 0.059 -0.074
0.317 0.062 -0.074
0.317 0.065 -0.074
0.315 0.068 -0.073
0.315 0.071 -0.073
0.315 0.074 -0.073
0.315 0.077 -0.074
0.322 0.081 -0.075
0.314 0.082 -0.073
0.312 0.085 -0.073
0.315 0.089 -0.074
0.321 0.093 -0.075
0.322 0.097 -0.075
0.318 0.099 -0.075
0.313 0.100 -0.074
0.325 0.107 -0.076
0.337 0.115 -0.080
0.340 0.119 -0.080
0.337 0.121 -0.080
0.338 0.125 -0.080
0.322 0.122 -0.076
0.310 0.121 -0.074
0.330 0.149 -0.079
0.332 0.153 -0.080
0.353 0.185 -0.086
0.348 0.187 -0.085
0.364 0.200 -0.089
0.375 0.210 -0.092
0.387 0.221 -0.095
0.381 0.221 -0.094
0.361 0.214 -0.089
0.352 0.212 -0.087
0.362 0.223 -0.090
0.364 0.228 -0.091
0.352 0.225 -0.088
0.335 0.218 -0.084
0.335 0.222 -0.084
0.363 0.259 -0.093
0.312 -0.433 -0.090
0.306 -0.420 -0.088
0.300 -0.405 -0.086
0.299 -0.400 -0.086
0.301 -0.397 -0.086
0.302 -0.392 -0.086
0.303 -0.389 -0.086
0.306 -0.387 -0.086
0.310 -0.387 -0.087
0.310 -0.381 -0.087
0.311 -0.377 -0.086
0.310 -0.370 -0.086
0.309 -0.364 -0.085
0.308 -0.357 -0.084
0.307 -0.351 -0.084
0.306 -0.344 -0.083
0.306 -0.339 -0.083
0.307 -0.336 -0.083
0.307 -0.331 -0.082
0.308 -0.326 -0.082
0.309 -0.322 -0.082
0.309 -0.318 -0.082
0.306 -0.309 -0.080
0.305 -0.304 -0.080
0.306 -0.301 -0.080
0.305 -0.294 -0.079
0.304 -0.290 -0.079
0.302 -0.283 -0.078
0.301 -0.277 -0.077
0.298 -0.271 -0.076
0.300 -0.268 -0.076
0.301 -0.265 -0.076
0.301 -0.260 -0.076
0.299 -0.255 -0.075
0.296 -0.248 -0.074
0.294 -0.242 -0.073
0.289 -0.235 -0.072
0.282 -0.225 -0.070
0.203 -0.152 -0.049
0.209 -0.154 -0.051
0.221 -0.160 -0.054
0.233 -0.166 -0.056
0.228 -0.159 -0.055
0.225 -0.154 -0.054
0.227 -0.153 -0.054
0.240 -0.159 -0.057
0.216 -0.140 -0.051
0.217 -0.139 -0.052
0.222 -0.139 -0.053
0.212 -0.131 -0.050
0.208 -0.126 -0.049
0.213 -0.127 -0.050
0.218 -0.127 -0.051
0.224 -0.128 -0.052
0.207 -0.116 -0.048
0.208 -0.114 -0.048
0.209 -0.113 -0.049
0.212 -0.112 -0.049
0.240 -0.124 -0.056
0.242 -0.123 -0.056
0.245 -0.122 -0.057
0.244 -0.119 -0.056
0.244 -0.116 -0.056
0.307 -0.143 -0.071
0.311 -0.142 -0.071
0.314 -0.140 -0.072
0.315 -0.137 -0.072
0.314 -0.134 -0.072
0.266 -0.108 -0.060
0.267 -0.106 -0.061
0.271 -0.105 -0.062
0.268 -0.101 -0.061
0.363 -0.126 -0.082
0.365 -0.123 -0.082
0.368 -0.121 -0.083
0.372 -0.119 -0.084
0.381 -0.117 -0.085
0.386 -0.115 -0.087
0.391 -0.113 -0.088
0.400 -0.112 -0.089
0.412 -0.112 -0.092
0.419 -0.110 -0.094
0.424 -0.107 -0.095
0.434 -0.105 -0.097
0.444 -0.103 -0.099
0.428 -0.096 -0.095
0.420 -0.090 -0.093
0.417 -0.086 -0.093
0.388 -0.076 -0.086
0.374 -0.070 -0.083
0.296 -0.053 -0.066
0.291 -0.049 -0.065
0.288 -0.046 -0.064
0.288 -0.043 -0.064
0.294 -0.041 -0.065
0.300 -0.040 -0.066
0.300 -0.037 -0.066
0.297 -0.034 -0.066
0.305 -0.032 -0.067
0.307 -0.029 -0.068
0.310 -0.027 -0.068
0.302 -0.023 -0.067
0.306 -0.021 -0.068
0.302 -0.018 -0.067
0.296 -0.015 -0.065
0.311 -0.013 -0.069
0.318 -0.010 -0.070
0.320 -0.007 -0.071
0.300 -0.004 -0.066
0.303 -0.001 -0.067
0.306 0.001 -0.068
0.308 0.004 -0.068
0.311 0.007 -0.069
0.312 0.010 -0.069
0.312 0.013 -0.069
0.313 0.016 -0.069
0.314 0.018 -0.069
0.315 0.021 -0.070
0.318 0.025 -0.070
0.319 0.027 -0.071
0.318 0.030 -0.070
0.318 0.033 -0.070
0.318 0.036 -0.071
0.319 0.039 -0.071
0.320 0.042 -0.071
0.320 0.045 -0.071
0.319 0.048 -0.071
0.318 0.051 -0.071
0.317 0.054 -0.071
0.318 0.057 -0.071
0.318 0.060 -0.071
0.318 0.062 -0.071
0.317 0.065 -0.071
0.316 0.068 -0.071
0.315 0.071 -0.070
0.315 0.074 -0.070
0.315 0.077 -0.070
0.315 0.080 -0.071
0.318 0.083 -0.071
0.312 0.085 -0.070
0.316 0.089 -0.071
0.320 0.093 -0.072
0.327 0.098 -0.074
0.323 0.100 -0.073
0.309 0.099 -0.070
0.323 0.107 -0.073
0.333 0.113 -0.075
0.344 0.120 -0.078
0.325 0.120 -0.074
0.312 0.118 -0.071
0.336 0.152 -0.078
0.353 0.185 -0.082
0.357 0.191 -0.084
0.359 0.197 -0.084
0.381 0.212 -0.090
0.379 0.216 -0.090
0.371 0.215 -0.088
0.357 0.211 -0.085
0.347 0.210 -0.083
0.350 0.215 -0.084
0.365 0.229 -0.087
0.363 0.250 -0.088
0.307 -0.425 -0.085
0.303 -0.415 -0.084
0.302 -0.408 -0.083
0.302 -0.403 -0.083
0.302 -0.398 -0.083
0.302 -0.392 -0.082
0.304 -0.389 -0.082
0.306 -0.387 -0.083
0.308 -0.384 -0.083
0.310 -0.381 -0.083
0.308 -0.373 -0.082
0.309 -0.369 -0.082
0.308 -0.362 -0.081
0.307 -0.356 -0.081
0.307 -0.350 -0.080
0.305 -0.342 -0.079
0.303 -0.336 -0.078
0.303 -0.331 -0.078
0.303 -0.326 -0.078
0.303 -0.321 -0.077
0.304 -0.317 -0.077
0.305 -0.313 -0.077
0.302 -0.305 -0.076
0.303 -0.302 -0.076
0.304 -0.298 -0.076
0.305 -0.294 -0.076
0.304 -0.289 -0.075
0.304 -0.284 -0.075
0.297 -0.274 -0.073
0.298 -0.270 -0.073
0.299 -0.267 -0.073
0.300 -0.263 -0.073
0.301 -0.260 -0.073
0.301 -0.256 -0.072
0.299 -0.250 -0.072
0.296 -0.243 -0.070
0.297 -0.241 -0.071
0.302 -0.241 -0.072
0.299 -0.234 -0.070
0.232 -0.170 -0.054
0.226 -0.163 -0.052
0.224 -0.159 -0.052
0.236 -0.165 -0.055
0.240 -0.165 -0.055
0.246 -0.166 -0.056
0.242 -0.160 -0.055
0.235 -0.153 -0.054
0.220 -0.140 -0.050
0.222 -0.139 -0.050
0.209 -0.129 -0.047
0.207 -0.125 -0.047
0.208 -0.123 -0.047
0.216 -0.126 -0.049
0.224 -0.128 -0.050
0.207 -0.116 -0.046
0.208 -0.114 -0.046
0.208 -0.112 -0.046
0.210 -0.111 -0.047
0.236 -0.122 -0.052
0.242 -0.123 -0.054
0.247 -0.123 -0.055
0.242 -0.118 -0.053
0.242 -0.115 -0.053
0.301 -0.140 -0.066
0.311 -0.142 -0.068
0.314 -0.140 -0.069
0.316 -0.138 -0.069
0.307 -0.131 -0.067
0.274 -0.114 -0.060
0.260 -0.106 -0.057
0.266 -0.105 -0.058
0.270 -0.104 -0.059
0.265 -0.100 -0.058
0.250 -0.091 -0.054
0.363 -0.126 -0.078
0.365 -0.123 -0.079
0.367 -0.120 -0.079
0.370 -0.118 -0.080
0.376 -0.116 -0.081
0.387 -0.116 -0.083
0.393 -0.114 -0.084
0.400 -0.112 -0.086
0.412 -0.112 -0.088
0.418 -0.109 -0.090
0.425 -0.107 -0.091
0.438 -0.106 -0.094
0.448 -0.104 -0.096
0.437 -0.098 -0.093
0.421 -0.090 -0.090
0.293 -0.052 -0.062
0.290 -0.049 -0.062
0.289 -0.046 -0.061
0.289 -0.043 -0.061
0.287 -0.040 -0.061
0.292 -0.038 -0.062
0.292 -0.036 -0.062
0.287 -0.033 -0.061
0.290 -0.030 -0.061
0.304 -0.023 -0.064
0.306 -0.021 -0.065
0.304 -0.018 -0.064
0.303 -0.015 -0.064
0.312 -0.013 -0.066
0.320 -0.010 -0.068
0.301 -0.007 -0.064
0.303 -0.004 -0.064
0.305 -0.001 -0.065
0.306 0.001 -0.065
0.310 0.004 -0.065
0.311 0.007 -0.066
0.313 0.010 -0.066
0.314 0.013 -0.066
