VERSION .7
FIELDS x y z
SIZE 4 4 4
TYPE F F F
COUNT 1 1 1
WIDTH     2586
HEIGHT 1
VIEWPOINT 0 0 0 1 0 0 0
POINTS     2586
DATA ascii
0.220 -0.015 0.072
0.220 -0.013 0.072
0.222 -0.011 0.073
0.256 -0.011 0.084
0.259 -0.008 0.085
0.260 -0.006 0.085
0.262 -0.004 0.086
0.270 -0.001 0.088
0.281 0.001 0.092
0.279 0.004 0.091
0.271 0.006 0.089
0.265 0.009 0.087
0.259 0.011 0.085
0.256 0.013 0.084
0.252 0.015 0.083
0.263 0.018 0.086
0.261 0.020 0.085
0.252 0.022 0.083
0.251 0.024 0.083
0.268 0.028 0.088
0.272 0.031 0.089
0.262 0.033 0.086
0.265 0.036 0.087
0.271 0.039 0.089
0.273 0.042 0.090
0.271 0.044 0.089
0.262 0.045 0.086
0.264 0.048 0.087
0.261 0.050 0.086
0.255 0.051 0.084
0.235 0.049 0.078
0.222 0.049 0.074
0.207 0.047 0.069
0.204 0.049 0.068
0.214 0.053 0.071
0.260 0.069 0.087
0.266 0.073 0.089
0.266 0.076 0.089
0.269 0.080 0.090
0.264 0.081 0.088
0.251 0.079 0.084
0.242 0.079 0.081
0.243 0.081 0.082
0.241 0.083 0.081
0.240 0.085 0.081
0.239 0.087 0.081
0.237 0.089 0.080
0.236 0.091 0.080
0.235 0.093 0.080
0.235 0.095 0.080
0.235 0.098 0.080
0.237 0.101 0.081
0.238 0.104 0.082
0.237 0.106 0.081
0.237 0.108 0.081
0.236 0.111 0.081
0.234 0.112 0.081
0.233 0.114 0.081
0.232 0.116 0.081
0.232 0.119 0.081
0.232 0.121 0.081
0.232 0.124 0.081
0.232 0.127 0.081
0.232 0.129 0.081
0.239 0.136 0.084
0.235 0.136 0.083
0.236 0.139 0.084
0.236 0.142 0.084
0.235 0.145 0.084
0.235 0.147 0.084
0.233 0.149 0.084
0.233 0.152 0.084
0.237 0.157 0.085
0.246 0.166 0.089
0.241 0.166 0.088
0.235 0.164 0.086
0.233 0.166 0.085
0.252 0.183 0.093
0.245 0.182 0.091
0.239 0.180 0.089
0.230 0.176 0.085
0.217 0.170 0.081
0.213 0.169 0.080
0.202 0.163 0.076
0.194 0.160 0.073
0.188 0.158 0.072
0.191 0.162 0.073
0.194 0.168 0.074
0.197 0.173 0.076
0.199 0.179 0.077
0.200 0.183 0.078
0.198 0.184 0.078
0.197 0.186 0.078
0.196 0.188 0.078
0.192 0.187 0.076
0.196 0.195 0.079
0.201 0.203 0.081
0.203 0.209 0.082
0.194 0.202 0.079
0.194 0.206 0.079
0.201 0.217 0.083
0.195 0.214 0.081
0.193 0.215 0.080
0.191 0.217 0.080
0.191 0.221 0.081
0.191 0.224 0.081
0.191 0.228 0.082
0.194 0.235 0.083
0.193 0.238 0.084
0.191 0.239 0.083
0.190 0.241 0.083
0.187 0.241 0.083
0.189 0.247 0.084
0.188 0.250 0.084
0.188 0.253 0.084
0.102 -0.137 0.046
0.103 -0.137 0.046
0.104 -0.137 0.046
0.104 -0.135 0.046
0.105 -0.134 0.046
0.103 -0.130 0.045
0.104 -0.129 0.045
0.119 -0.146 0.052
0.116 -0.140 0.050
0.113 -0.134 0.049
0.111 -0.130 0.048
0.101 -0.116 0.043
0.102 -0.116 0.043
0.096 -0.108 0.041
0.097 -0.107 0.041
0.097 -0.106 0.041
0.098 -0.105 0.041
0.101 -0.106 0.042
0.107 -0.111 0.044
0.107 -0.109 0.044
0.102 -0.103 0.042
0.104 -0.103 0.042
0.109 -0.106 0.044
0.116 -0.111 0.046
0.230 -0.214 0.091
0.230 -0.211 0.091
0.231 -0.208 0.091
0.236 -0.209 0.092
0.235 -0.204 0.091
0.235 -0.202 0.091
0.239 -0.201 0.092
0.239 -0.198 0.092
0.237 -0.194 0.091
0.232 -0.186 0.089
0.225 -0.177 0.086
0.221 -0.171 0.084
0.198 -0.151 0.075
0.193 -0.145 0.073
0.195 -0.144 0.073
0.197 -0.143 0.074
0.200 -0.143 0.075
0.195 -0.137 0.073
0.187 -0.129 0.069
0.186 -0.126 0.069
0.187 -0.124 0.069
0.199 -0.130 0.073
0.201 -0.129 0.074
0.200 -0.126 0.073
0.202 -0.125 0.074
0.201 -0.122 0.073
0.203 -0.120 0.073
0.205 -0.120 0.074
0.208 -0.119 0.075
0.208 -0.117 0.075
0.211 -0.116 0.076
0.211 -0.114 0.075
0.211 -0.112 0.075
0.208 -0.108 0.074
0.208 -0.105 0.074
0.208 -0.103 0.073
0.204 -0.099 0.072
0.206 -0.098 0.072
0.206 -0.095 0.072
0.207 -0.094 0.072
0.205 -0.091 0.072
0.206 -0.089 0.072
0.206 -0.087 0.072
0.206 -0.085 0.072
0.205 -0.082 0.071
0.207 -0.081 0.072
0.206 -0.079 0.071
0.207 -0.077 0.072
0.207 -0.075 0.071
0.209 -0.074 0.072
0.211 -0.072 0.073
0.213 -0.071 0.073
0.219 -0.071 0.075
0.227 -0.071 0.078
0.237 -0.072 0.081
0.239 -0.070 0.082
0.243 -0.069 0.083
0.245 -0.067 0.084
0.248 -0.066 0.085
0.254 -0.065 0.087
0.255 -0.063 0.087
0.254 -0.060 0.087
0.261 -0.059 0.089
0.257 -0.056 0.087
0.253 -0.053 0.086
0.254 -0.051 0.086
0.256 -0.048 0.087
0.253 -0.046 0.086
0.251 -0.043 0.085
0.251 -0.041 0.085
0.250 -0.038 0.085
0.250 -0.036 0.084
0.253 -0.034 0.085
0.254 -0.032 0.086
0.253 -0.029 0.086
0.251 -0.027 0.085
0.248 -0.024 0.084
0.250 -0.022 0.084
0.249 -0.019 0.084
0.226 -0.016 0.076
0.220 -0.013 0.074
0.219 -0.011 0.074
0.219 -0.009 0.074
0.234 -0.008 0.079
0.258 -0.006 0.087
0.264 -0.004 0.089
0.278 -0.001 0.094
0.282 0.001 0.095
0.263 0.004 0.089
0.250 0.006 0.084
0.251 0.008 0.085
0.250 0.010 0.084
0.247 0.013 0.083
0.250 0.015 0.084
0.256 0.018 0.087
0.255 0.020 0.086
0.245 0.022 0.083
0.248 0.024 0.084
0.257 0.027 0.087
0.265 0.031 0.090
0.267 0.033 0.090
0.267 0.036 0.090
0.267 0.038 0.091
0.268 0.041 0.091
0.264 0.043 0.090
0.257 0.044 0.087
0.253 0.046 0.086
0.250 0.048 0.085
0.237 0.047 0.081
0.225 0.047 0.077
0.205 0.045 0.070
0.203 0.046 0.069
0.205 0.049 0.070
0.219 0.054 0.075
0.234 0.060 0.080
0.253 0.068 0.087
0.261 0.072 0.090
0.262 0.075 0.090
0.253 0.075 0.087
0.250 0.077 0.086
0.243 0.077 0.084
0.239 0.078 0.083
0.229 0.077 0.079
0.237 0.082 0.082
0.236 0.084 0.082
0.236 0.086 0.082
0.234 0.088 0.081
0.233 0.090 0.081
0.232 0.092 0.081
0.230 0.093 0.080
0.228 0.095 0.080
0.234 0.100 0.082
0.234 0.102 0.082
0.232 0.104 0.082
0.231 0.106 0.082
0.232 0.109 0.082
0.231 0.111 0.082
0.228 0.112 0.081
0.228 0.114 0.081
0.227 0.117 0.081
0.227 0.119 0.081
0.227 0.121 0.082
0.227 0.124 0.082
0.228 0.127 0.082
0.229 0.130 0.083
0.233 0.135 0.085
0.230 0.136 0.084
0.230 0.139 0.084
0.232 0.143 0.085
0.231 0.145 0.085
0.230 0.147 0.085
0.230 0.150 0.085
0.234 0.156 0.087
0.242 0.164 0.090
0.240 0.166 0.090
0.235 0.165 0.088
0.240 0.172 0.091
0.248 0.181 0.094
0.243 0.180 0.092
0.231 0.174 0.088
0.219 0.168 0.084
0.206 0.161 0.079
0.190 0.152 0.074
0.198 0.160 0.077
0.194 0.160 0.076
0.192 0.161 0.075
0.194 0.166 0.076
0.194 0.169 0.077
0.198 0.175 0.079
0.198 0.178 0.079
0.198 0.181 0.079
0.194 0.180 0.078
0.195 0.184 0.079
0.194 0.186 0.079
0.192 0.188 0.079
0.189 0.188 0.078
0.194 0.196 0.080
0.188 0.194 0.079
0.188 0.197 0.079
0.188 0.200 0.079
0.192 0.208 0.081
0.190 0.210 0.081
0.189 0.211 0.081
0.187 0.213 0.081
0.186 0.215 0.081
0.186 0.219 0.082
0.187 0.224 0.083
0.189 0.229 0.084
0.188 0.232 0.084
0.185 0.232 0.083
0.184 0.234 0.083
0.185 0.239 0.084
0.181 0.238 0.083
0.184 0.245 0.085
0.176 0.238 0.081
0.104 -0.140 0.048
0.103 -0.136 0.047
0.103 -0.135 0.047
0.103 -0.134 0.047
0.103 -0.132 0.047
0.110 -0.139 0.050
0.115 -0.143 0.052
0.115 -0.140 0.051
0.114 -0.138 0.051
0.106 -0.126 0.047
0.108 -0.126 0.047
0.099 -0.114 0.043
0.096 -0.109 0.042
0.097 -0.109 0.042
0.096 -0.107 0.042
0.097 -0.105 0.042
0.099 -0.106 0.042
0.107 -0.113 0.046
0.105 -0.109 0.045
0.101 -0.103 0.042
0.099 -0.099 0.041
0.103 -0.102 0.043
0.107 -0.105 0.044
0.112 -0.108 0.046
0.218 -0.203 0.089
0.221 -0.202 0.090
0.226 -0.204 0.091
0.228 -0.203 0.092
0.230 -0.200 0.092
0.231 -0.199 0.092
0.233 -0.197 0.093
0.234 -0.194 0.093
0.233 -0.190 0.092
0.233 -0.187 0.092
0.225 -0.178 0.088
0.219 -0.170 0.085
0.207 -0.158 0.081
0.199 -0.149 0.077
0.197 -0.145 0.076
0.198 -0.144 0.076
0.195 -0.139 0.075
0.192 -0.135 0.073
0.187 -0.129 0.071
0.192 -0.130 0.073
0.201 -0.133 0.076
0.202 -0.132 0.076
0.202 -0.129 0.076
0.203 -0.128 0.076
0.201 -0.124 0.075
0.201 -0.122 0.075
0.202 -0.120 0.075
0.204 -0.119 0.076
0.205 -0.117 0.076
0.205 -0.115 0.076
0.205 -0.113 0.076
0.206 -0.111 0.076
0.207 -0.109 0.076
0.206 -0.107 0.075
0.205 -0.104 0.075
0.205 -0.102 0.075
0.207 -0.100 0.075
0.203 -0.096 0.073
0.206 -0.096 0.075
0.203 -0.092 0.073
0.202 -0.090 0.073
0.205 -0.089 0.074
0.206 -0.087 0.074
0.207 -0.086 0.074
0.201 -0.081 0.072
0.203 -0.080 0.072
0.205 -0.079 0.073
0.207 -0.077 0.074
0.208 -0.075 0.074
0.211 -0.074 0.075
0.210 -0.072 0.075
0.211 -0.070 0.075
0.218 -0.071 0.077
0.230 -0.072 0.081
0.235 -0.072 0.083
0.238 -0.070 0.084
0.240 -0.068 0.084
0.241 -0.066 0.085
0.244 -0.065 0.086
0.248 -0.063 0.087
0.250 -0.062 0.088
0.250 -0.059 0.088
0.250 -0.057 0.087
0.249 -0.054 0.087
0.249 -0.052 0.087
0.248 -0.049 0.087
0.249 -0.047 0.087
0.248 -0.045 0.087
0.245 -0.042 0.085
0.245 -0.040 0.085
0.245 -0.037 0.085
0.246 -0.035 0.086
0.248 -0.033 0.086
0.250 -0.031 0.087
0.249 -0.029 0.087
0.247 -0.026 0.086
0.246 -0.024 0.085
0.247 -0.022 0.086
0.247 -0.019 0.086
0.249 -0.017 0.086
0.250 -0.015 0.087
0.219 -0.011 0.076
0.218 -0.009 0.075
0.217 -0.007 0.075
0.262 -0.004 0.091
0.271 -0.001 0.094
0.261 0.001 0.091
0.245 0.003 0.085
0.239 0.006 0.083
0.242 0.008 0.084
0.244 0.010 0.085
0.241 0.012 0.084
0.237 0.014 0.082
0.245 0.017 0.085
0.248 0.019 0.086
0.251 0.022 0.087
0.251 0.024 0.087
0.255 0.027 0.089
0.260 0.030 0.090
0.265 0.033 0.092
0.265 0.036 0.092
0.261 0.038 0.091
0.259 0.040 0.090
0.260 0.042 0.091
0.256 0.044 0.090
0.239 0.043 0.084
0.220 0.044 0.077
0.208 0.044 0.073
0.201 0.044 0.071
0.202 0.046 0.071
0.215 0.051 0.075
0.230 0.057 0.081
0.240 0.062 0.085
0.249 0.067 0.088
0.258 0.072 0.091
0.260 0.075 0.092
0.253 0.075 0.090
0.241 0.074 0.086
0.240 0.076 0.085
0.236 0.077 0.084
0.234 0.079 0.083
0.229 0.079 0.082
0.233 0.083 0.083
0.232 0.085 0.083
0.232 0.087 0.083
0.229 0.088 0.082
0.228 0.091 0.082
0.226 0.092 0.081
0.224 0.094 0.081
0.224 0.096 0.081
0.225 0.099 0.082
0.224 0.101 0.081
0.226 0.104 0.082
0.227 0.107 0.083
0.226 0.109 0.083
0.223 0.110 0.082
0.224 0.113 0.082
0.224 0.115 0.082
0.223 0.117 0.082
0.223 0.120 0.083
0.224 0.122 0.083
0.225 0.126 0.084
0.225 0.128 0.084
0.223 0.130 0.083
0.224 0.133 0.084
0.225 0.136 0.085
0.225 0.139 0.085
0.228 0.143 0.086
0.226 0.145 0.086
0.227 0.148 0.087
0.233 0.155 0.089
0.239 0.162 0.092
0.237 0.164 0.091
0.238 0.167 0.092
0.243 0.174 0.094
0.243 0.178 0.095
0.233 0.173 0.091
0.225 0.170 0.088
0.215 0.166 0.085
0.196 0.154 0.078
0.189 0.151 0.075
0.199 0.162 0.080
0.199 0.164 0.080
0.194 0.163 0.078
0.195 0.167 0.079
0.196 0.170 0.080
0.196 0.174 0.080
0.197 0.178 0.081
0.193 0.177 0.080
0.191 0.178 0.079
0.193 0.183 0.081
0.194 0.187 0.082
0.190 0.187 0.080
0.188 0.188 0.080
0.186 0.188 0.079
0.186 0.192 0.080
0.186 0.195 0.080
0.186 0.198 0.081
0.187 0.203 0.082
0.188 0.207 0.083
0.186 0.209 0.083
0.185 0.212 0.083
0.184 0.213 0.083
0.183 0.216 0.083
0.183 0.220 0.083
0.184 0.224 0.084
0.182 0.225 0.084
0.180 0.227 0.083
0.179 0.228 0.083
0.179 0.231 0.084
0.178 0.233 0.084
0.175 0.234 0.083
0.102 -0.135 0.048
0.102 -0.135 0.048
0.111 -0.144 0.052
0.111 -0.142 0.052
0.107 -0.136 0.050
0.108 -0.135 0.050
0.106 -0.130 0.049
0.102 -0.123 0.047
0.102 -0.122 0.047
0.095 -0.112 0.043
0.095 -0.111 0.043
0.097 -0.111 0.044
0.099 -0.112 0.044
0.106 -0.117 0.047
0.108 -0.118 0.048
0.100 -0.108 0.044
0.103 -0.109 0.045
0.102 -0.107 0.045
0.100 -0.102 0.043
0.101 -0.102 0.043
0.102 -0.102 0.044
0.106 -0.104 0.045
0.108 -0.104 0.046
0.117 -0.111 0.049
0.217 -0.199 0.091
0.221 -0.199 0.092
0.224 -0.199 0.093
0.225 -0.197 0.093
0.226 -0.194 0.093
0.228 -0.193 0.093
0.229 -0.191 0.093
0.227 -0.185 0.092
0.225 -0.181 0.091
0.223 -0.177 0.090
0.214 -0.166 0.086
0.207 -0.158 0.083
0.203 -0.153 0.081
0.200 -0.148 0.079
0.193 -0.140 0.076
0.192 -0.137 0.076
0.193 -0.135 0.076
0.194 -0.134 0.076
0.200 -0.135 0.078
0.202 -0.134 0.078
0.202 -0.132 0.078
0.203 -0.130 0.079
0.202 -0.128 0.078
0.202 -0.125 0.078
0.201 -0.122 0.077
0.201 -0.120 0.077
0.199 -0.117 0.076
0.204 -0.117 0.077
0.203 -0.114 0.077
0.201 -0.111 0.076
0.203 -0.110 0.077
0.204 -0.108 0.077
0.200 -0.104 0.075
0.206 -0.105 0.077
0.199 -0.099 0.075
0.204 -0.099 0.076
0.207 -0.099 0.077
0.205 -0.096 0.076
0.205 -0.093 0.076
0.204 -0.091 0.076
0.201 -0.088 0.075
0.208 -0.088 0.077
0.204 -0.084 0.075
0.207 -0.083 0.076
0.206 -0.081 0.076
0.205 -0.079 0.075
0.208 -0.078 0.076
0.209 -0.076 0.076
0.211 -0.074 0.077
0.210 -0.072 0.077
0.214 -0.072 0.078
0.220 -0.071 0.080
0.232 -0.073 0.084
0.235 -0.071 0.085
0.236 -0.069 0.085
0.236 -0.067 0.085
0.238 -0.065 0.086
0.240 -0.064 0.087
0.243 -0.062 0.088
0.245 -0.061 0.088
0.246 -0.058 0.089
0.246 -0.056 0.088
0.244 -0.053 0.088
0.243 -0.051 0.087
0.243 -0.048 0.087
0.243 -0.046 0.087
0.242 -0.044 0.087
0.240 -0.041 0.086
0.240 -0.039 0.086
0.243 -0.037 0.087
0.243 -0.035 0.087
0.243 -0.033 0.087
0.242 -0.030 0.087
0.242 -0.028 0.086
0.241 -0.026 0.086
0.241 -0.023 0.086
0.243 -0.021 0.087
0.242 -0.019 0.086
0.241 -0.017 0.086
0.244 -0.015 0.087
0.249 -0.013 0.089
0.229 -0.009 0.081
0.240 -0.008 0.085
0.230 -0.005 0.082
0.244 -0.003 0.087
0.254 -0.001 0.091
0.250 0.001 0.089
0.237 0.003 0.085
0.230 0.005 0.082
0.235 0.008 0.084
0.237 0.010 0.085
0.238 0.012 0.085
0.233 0.014 0.083
0.232 0.016 0.083
0.240 0.019 0.086
0.249 0.022 0.089
0.255 0.025 0.091
0.255 0.027 0.091
0.257 0.030 0.092
0.255 0.032 0.091
0.256 0.034 0.092
0.253 0.036 0.091
0.253 0.039 0.091
0.251 0.041 0.090
0.220 0.040 0.079
0.206 0.039 0.074
0.198 0.040 0.071
0.199 0.042 0.072
0.198 0.043 0.071
0.204 0.047 0.074
0.224 0.053 0.081
0.235 0.058 0.085
0.242 0.062 0.088
0.249 0.067 0.090
0.256 0.071 0.093
0.257 0.074 0.094
0.252 0.075 0.092
0.243 0.074 0.088
0.232 0.073 0.085
0.236 0.077 0.086
0.233 0.078 0.085
0.230 0.080 0.084
0.226 0.081 0.083
0.224 0.082 0.082
0.222 0.084 0.082
0.225 0.087 0.083
0.222 0.088 0.082
0.222 0.091 0.082
0.221 0.093 0.082
0.219 0.094 0.082
0.219 0.096 0.081
0.220 0.099 0.082
0.220 0.101 0.082
0.219 0.103 0.082
0.215 0.104 0.081
0.216 0.106 0.081
0.220 0.111 0.083
0.221 0.114 0.084
0.219 0.115 0.083
0.216 0.116 0.082
0.215 0.118 0.082
0.215 0.120 0.082
0.221 0.126 0.085
0.220 0.128 0.084
0.216 0.129 0.083
0.219 0.133 0.085
0.220 0.136 0.085
0.221 0.139 0.086
0.223 0.143 0.087
0.223 0.146 0.087
0.228 0.152 0.090
0.231 0.157 0.091
0.230 0.159 0.091
0.237 0.167 0.094
0.243 0.174 0.097
0.235 0.172 0.094
0.220 0.164 0.089
0.218 0.165 0.088
0.208 0.160 0.084
0.187 0.147 0.076
0.185 0.148 0.076
0.193 0.157 0.079
0.192 0.159 0.079
0.194 0.164 0.081
0.193 0.166 0.080
0.193 0.168 0.081
0.192 0.170 0.081
0.190 0.171 0.080
0.190 0.175 0.081
0.189 0.177 0.081
0.189 0.179 0.081
0.190 0.184 0.082
0.189 0.186 0.082
0.187 0.187 0.082
0.185 0.188 0.081
0.184 0.191 0.081
0.183 0.193 0.082
0.184 0.197 0.082
0.184 0.200 0.083
0.183 0.202 0.083
0.181 0.204 0.083
0.183 0.210 0.084
0.182 0.212 0.084
0.180 0.213 0.084
0.179 0.215 0.084
0.179 0.218 0.084
0.177 0.219 0.084
0.176 0.221 0.084
0.175 0.224 0.084
0.175 0.226 0.084
0.174 0.229 0.084
0.173 0.231 0.084
0.114 -0.152 0.056
0.114 -0.149 0.055
0.112 -0.145 0.054
0.106 -0.136 0.051
0.103 -0.131 0.049
0.104 -0.130 0.050
0.101 -0.124 0.048
0.094 -0.115 0.044
0.093 -0.112 0.044
0.093 -0.110 0.043
0.096 -0.112 0.045
0.102 -0.117 0.047
0.107 -0.120 0.049
0.101 -0.112 0.046
0.098 -0.107 0.044
0.100 -0.107 0.045
0.101 -0.107 0.046
0.098 -0.102 0.044
0.100 -0.102 0.044
0.101 -0.102 0.045
0.102 -0.101 0.045
0.105 -0.103 0.046
0.107 -0.103 0.047
0.111 -0.105 0.048
0.214 -0.196 0.092
0.215 -0.194 0.092
0.217 -0.193 0.093
0.220 -0.193 0.093
0.221 -0.190 0.093
0.224 -0.190 0.094
0.225 -0.188 0.094
0.222 -0.182 0.093
0.221 -0.179 0.092
0.217 -0.172 0.090
0.210 -0.164 0.087
0.202 -0.155 0.083
0.197 -0.149 0.081
0.195 -0.144 0.079
0.193 -0.141 0.079
0.193 -0.138 0.078
0.195 -0.138 0.079
0.197 -0.136 0.079
0.198 -0.135 0.079
0.202 -0.135 0.081
0.203 -0.133 0.081
0.196 -0.126 0.078
0.200 -0.126 0.079
0.201 -0.125 0.079
0.199 -0.121 0.078
0.200 -0.119 0.079
0.202 -0.118 0.079
0.198 -0.114 0.077
0.201 -0.113 0.078
0.202 -0.111 0.079
0.201 -0.109 0.078
0.204 -0.108 0.079
0.206 -0.107 0.079
0.205 -0.104 0.079
0.207 -0.103 0.079
0.208 -0.101 0.080
0.205 -0.098 0.079
0.203 -0.095 0.078
0.204 -0.093 0.078
0.204 -0.091 0.078
0.203 -0.088 0.077
0.204 -0.087 0.077
0.206 -0.086 0.078
0.203 -0.082 0.077
0.202 -0.079 0.076
0.204 -0.079 0.077
0.206 -0.077 0.077
0.207 -0.075 0.078
0.207 -0.073 0.078
0.208 -0.072 0.078
0.212 -0.071 0.079
0.221 -0.072 0.083
0.230 -0.072 0.086
0.228 -0.070 0.085
0.229 -0.068 0.085
0.231 -0.066 0.086
0.233 -0.064 0.086
0.236 -0.063 0.088
0.239 -0.061 0.089
0.241 -0.060 0.089
0.242 -0.057 0.089
0.240 -0.055 0.089
0.239 -0.052 0.088
0.238 -0.050 0.088
0.238 -0.048 0.088
0.237 -0.045 0.087
0.236 -0.043 0.087
0.235 -0.040 0.087
0.236 -0.038 0.087
0.239 -0.036 0.088
0.240 -0.034 0.088
0.237 -0.032 0.087
0.236 -0.029 0.086
0.236 -0.027 0.087
0.236 -0.025 0.087
0.237 -0.023 0.087
0.237 -0.021 0.087
0.238 -0.019 0.087
0.237 -0.016 0.087
0.242 -0.015 0.089
0.252 -0.013 0.092
0.256 -0.011 0.094
0.253 -0.008 0.093
0.242 -0.006 0.089
0.236 -0.003 0.087
0.242 -0.001 0.089
0.235 0.001 0.086
0.225 0.003 0.082
0.224 0.005 0.082
0.230 0.007 0.084
0.234 0.010 0.086
0.241 0.012 0.088
0.238 0.014 0.087
0.235 0.016 0.086
0.240 0.019 0.088
0.243 0.021 0.089
0.248 0.024 0.091
0.254 0.027 0.093
0.249 0.029 0.092
0.246 0.031 0.090
0.245 0.033 0.090
0.246 0.035 0.091
0.242 0.037 0.089
0.233 0.038 0.086
0.220 0.038 0.081
0.211 0.038 0.078
0.195 0.037 0.072
0.190 0.038 0.070
0.195 0.041 0.072
0.198 0.044 0.074
0.216 0.050 0.080
0.226 0.054 0.084
0.239 0.060 0.089
0.248 0.064 0.092
0.249 0.067 0.093
0.250 0.069 0.093
0.249 0.072 0.093
0.246 0.073 0.092
0.235 0.072 0.088
0.226 0.072 0.085
0.222 0.073 0.084
0.228 0.077 0.086
0.224 0.078 0.084
0.219 0.078 0.083
0.218 0.080 0.082
0.219 0.083 0.083
0.217 0.084 0.082
0.217 0.086 0.082
0.217 0.089 0.083
0.218 0.091 0.083
0.217 0.093 0.083
0.215 0.095 0.082
0.216 0.097 0.083
0.214 0.099 0.082
0.212 0.100 0.082
0.210 0.102 0.081
0.210 0.104 0.081
0.217 0.110 0.084
0.219 0.113 0.085
0.217 0.114 0.085
0.214 0.115 0.084
0.212 0.116 0.083
0.213 0.120 0.084
0.214 0.122 0.084
0.213 0.124 0.084
0.211 0.126 0.084
0.213 0.129 0.085
0.216 0.134 0.086
0.215 0.136 0.086
0.211 0.136 0.085
0.211 0.138 0.085
0.213 0.143 0.086
0.214 0.146 0.087
0.209 0.145 0.085
0.220 0.161 0.091
0.215 0.161 0.089
0.210 0.160 0.087
0.201 0.156 0.084
0.190 0.149 0.079
0.184 0.148 0.077
0.184 0.150 0.078
0.189 0.157 0.080
0.188 0.159 0.080
0.191 0.164 0.082
0.189 0.166 0.082
0.188 0.167 0.081
0.186 0.168 0.081
0.187 0.172 0.082
0.187 0.175 0.082
0.185 0.177 0.082
0.185 0.179 0.082
0.187 0.184 0.084
0.185 0.186 0.083
0.183 0.186 0.083
0.181 0.188 0.082
0.181 0.191 0.083
0.182 0.195 0.084
0.181 0.197 0.084
0.178 0.198 0.083
0.177 0.200 0.083
0.179 0.205 0.084
0.179 0.209 0.085
0.177 0.209 0.084
0.176 0.212 0.085
0.175 0.215 0.085
0.174 0.217 0.085
0.173 0.218 0.084
0.172 0.220 0.085
0.171 0.222 0.085
0.171 0.226 0.085
0.171 0.228 0.085
0.113 -0.150 0.056
0.112 -0.148 0.056
0.105 -0.137 0.052
0.102 -0.131 0.050
0.099 -0.125 0.048
0.095 -0.119 0.046
0.094 -0.116 0.046
0.093 -0.112 0.045
0.099 -0.119 0.048
0.104 -0.123 0.050
0.107 -0.125 0.051
0.103 -0.118 0.049
0.100 -0.113 0.047
0.096 -0.107 0.045
0.097 -0.107 0.045
0.100 -0.108 0.046
0.110 -0.117 0.051
0.102 -0.107 0.047
0.100 -0.103 0.046
0.101 -0.102 0.046
0.103 -0.103 0.047
0.105 -0.103 0.047
0.106 -0.103 0.048
0.110 -0.105 0.049
0.118 -0.111 0.053
0.212 -0.193 0.093
0.213 -0.190 0.093
0.214 -0.188 0.093
0.209 -0.180 0.091
0.206 -0.175 0.089
0.205 -0.172 0.088
0.200 -0.164 0.086
0.198 -0.160 0.085
0.198 -0.157 0.084
0.198 -0.155 0.084
0.197 -0.151 0.083
0.195 -0.148 0.082
0.195 -0.145 0.082
0.196 -0.143 0.082
0.199 -0.143 0.083
0.200 -0.141 0.083
0.198 -0.137 0.082
0.198 -0.135 0.082
0.200 -0.134 0.082
0.201 -0.132 0.082
0.199 -0.128 0.081
0.200 -0.127 0.081
0.203 -0.126 0.082
0.206 -0.126 0.084
0.204 -0.122 0.082
0.202 -0.119 0.081
0.203 -0.117 0.081
0.200 -0.113 0.080
0.202 -0.112 0.081
0.204 -0.110 0.081
0.204 -0.109 0.081
0.204 -0.106 0.081
0.205 -0.104 0.081
0.206 -0.103 0.081
0.200 -0.098 0.079
0.200 -0.095 0.079
0.202 -0.094 0.079
0.197 -0.090 0.077
0.203 -0.090 0.079
0.202 -0.088 0.079
0.202 -0.086 0.079
0.207 -0.086 0.080
0.203 -0.082 0.079
0.203 -0.080 0.079
0.199 -0.077 0.077
0.201 -0.075 0.078
0.204 -0.074 0.079
0.205 -0.073 0.079
0.207 -0.071 0.079
0.215 -0.072 0.083
0.219 -0.071 0.084
0.223 -0.070 0.086
0.227 -0.069 0.087
0.227 -0.067 0.087
0.228 -0.065 0.087
0.229 -0.063 0.087
0.230 -0.061 0.088
0.234 -0.060 0.089
0.236 -0.058 0.090
0.236 -0.056 0.090
0.235 -0.054 0.089
0.235 -0.051 0.089
0.235 -0.049 0.089
0.234 -0.047 0.089
0.232 -0.044 0.088
0.231 -0.042 0.087
0.231 -0.040 0.087
0.232 -0.038 0.088
0.233 -0.036 0.088
0.232 -0.033 0.087
0.231 -0.031 0.087
0.232 -0.029 0.087
0.233 -0.027 0.088
0.234 -0.025 0.088
0.235 -0.023 0.088
0.234 -0.021 0.088
0.236 -0.019 0.089
0.250 -0.017 0.094
0.259 -0.016 0.097
0.257 -0.013 0.097
0.256 -0.011 0.096
0.250 -0.008 0.094
0.246 -0.006 0.092
0.239 -0.003 0.090
0.231 -0.001 0.087
0.222 0.001 0.083
0.220 0.003 0.083
0.222 0.005 0.084
0.229 0.007 0.086
0.233 0.010 0.088
0.237 0.012 0.089
0.236 0.014 0.089
0.235 0.016 0.089
0.238 0.019 0.089
0.238 0.021 0.090
0.236 0.023 0.089
0.245 0.026 0.092
0.245 0.028 0.092
0.241 0.030 0.091
0.239 0.032 0.090
0.234 0.034 0.088
0.228 0.035 0.086
0.216 0.035 0.082
0.206 0.036 0.078
0.196 0.036 0.074
0.200 0.038 0.076
0.194 0.039 0.074
0.185 0.039 0.070
0.209 0.046 0.080
0.221 0.051 0.084
0.228 0.055 0.087
0.243 0.061 0.093
0.245 0.063 0.094
0.243 0.065 0.093
0.240 0.067 0.092
0.237 0.068 0.091
0.226 0.067 0.087
0.218 0.067 0.084
0.216 0.069 0.083
0.216 0.071 0.083
0.217 0.073 0.084
0.216 0.075 0.083
0.214 0.076 0.083
0.214 0.079 0.083
0.213 0.080 0.083
0.211 0.082 0.082
0.211 0.084 0.082
0.213 0.087 0.083
0.213 0.089 0.083
0.213 0.092 0.084
0.212 0.094 0.084
0.209 0.094 0.082
0.209 0.096 0.082
0.205 0.097 0.081
0.201 0.097 0.080
0.190 0.094 0.075
0.187 0.095 0.075
0.183 0.094 0.073
0.177 0.093 0.071
0.175 0.094 0.070
0.173 0.095 0.070
0.178 0.102 0.072
0.186 0.109 0.076
0.195 0.119 0.080
0.192 0.119 0.079
0.191 0.121 0.079
0.197 0.127 0.081
0.203 0.134 0.084
0.207 0.139 0.086
0.204 0.139 0.085
0.202 0.140 0.084
0.226 0.160 0.095
0.226 0.163 0.095
0.217 0.159 0.092
0.209 0.156 0.089
0.207 0.158 0.088
0.201 0.156 0.086
0.190 0.150 0.082
0.184 0.148 0.080
0.182 0.149 0.079
0.182 0.151 0.079
0.186 0.158 0.082
0.186 0.161 0.082
0.186 0.163 0.082
0.185 0.165 0.082
0.183 0.166 0.082
0.183 0.168 0.082
0.183 0.172 0.083
0.183 0.174 0.083
0.182 0.177 0.083
0.182 0.180 0.083
0.180 0.181 0.083
0.179 0.183 0.083
0.179 0.186 0.084
0.177 0.188 0.083
0.177 0.191 0.084
0.178 0.194 0.085
0.176 0.196 0.084
0.175 0.198 0.084
0.174 0.201 0.085
0.174 0.203 0.085
0.175 0.207 0.086
0.173 0.209 0.085
0.173 0.212 0.086
0.172 0.214 0.086
0.171 0.216 0.086
0.170 0.218 0.086
0.169 0.220 0.086
0.168 0.222 0.086
0.103 -0.136 0.053
0.101 -0.132 0.051
0.097 -0.125 0.049
0.097 -0.124 0.049
0.095 -0.119 0.048
0.103 -0.127 0.051
0.104 -0.127 0.052
0.104 -0.125 0.051
0.104 -0.123 0.051
0.101 -0.118 0.050
0.097 -0.112 0.047
0.099 -0.112 0.048
0.103 -0.115 0.050
0.109 -0.119 0.052
0.114 -0.124 0.054
0.110 -0.118 0.052
0.109 -0.114 0.052
0.101 -0.105 0.048
0.101 -0.103 0.047
0.103 -0.103 0.048
0.104 -0.103 0.048
0.108 -0.105 0.050
0.110 -0.105 0.050
0.114 -0.107 0.052
0.193 -0.175 0.087
0.195 -0.174 0.088
0.195 -0.172 0.087
0.196 -0.170 0.087
0.197 -0.168 0.087
0.198 -0.166 0.088
0.197 -0.162 0.087
0.197 -0.160 0.086
0.197 -0.157 0.086
0.198 -0.155 0.086
0.201 -0.155 0.087
0.202 -0.153 0.087
0.207 -0.154 0.089
0.208 -0.152 0.089
0.205 -0.147 0.088
0.200 -0.141 0.085
0.199 -0.138 0.084
0.199 -0.136 0.084
0.200 -0.134 0.084
0.199 -0.131 0.084
0.199 -0.129 0.084
0.201 -0.127 0.084
0.205 -0.128 0.085
0.207 -0.126 0.086
0.205 -0.123 0.085
0.205 -0.120 0.085
0.206 -0.119 0.085
0.207 -0.117 0.085
0.204 -0.113 0.084
0.204 -0.111 0.083
0.205 -0.109 0.084
0.206 -0.108 0.084
0.210 -0.107 0.085
0.208 -0.104 0.084
0.205 -0.100 0.083
0.204 -0.097 0.082
0.202 -0.094 0.081
0.206 -0.094 0.083
0.207 -0.093 0.083
0.207 -0.090 0.083
0.208 -0.088 0.083
0.206 -0.086 0.082
0.206 -0.084 0.082
0.206 -0.082 0.082
0.206 -0.079 0.082
0.202 -0.076 0.080
0.202 -0.074 0.080
0.206 -0.073 0.082
0.212 -0.073 0.084
0.217 -0.073 0.085
0.220 -0.072 0.087
0.223 -0.070 0.088
0.223 -0.068 0.087
0.226 -0.067 0.088
0.226 -0.065 0.089
0.225 -0.062 0.088
0.226 -0.060 0.088
0.227 -0.059 0.089
0.231 -0.057 0.090
0.230 -0.055 0.090
0.231 -0.053 0.090
0.231 -0.051 0.090
0.232 -0.049 0.090
0.232 -0.046 0.090
0.229 -0.044 0.089
0.227 -0.041 0.088
0.228 -0.039 0.088
0.228 -0.037 0.088
0.227 -0.035 0.088
0.227 -0.033 0.088
0.227 -0.031 0.088
0.227 -0.028 0.088
0.228 -0.026 0.088
0.231 -0.025 0.089
0.231 -0.022 0.089
0.238 -0.021 0.092
0.248 -0.020 0.096
0.252 -0.017 0.097
0.252 -0.015 0.097
0.253 -0.013 0.098
0.245 -0.010 0.094
0.238 -0.008 0.092
0.234 -0.005 0.090
0.228 -0.003 0.088
0.207 -0.001 0.080
0.218 0.001 0.084
0.215 0.003 0.083
0.217 0.005 0.084
0.225 0.007 0.087
0.229 0.010 0.089
0.228 0.012 0.088
0.227 0.014 0.088
0.227 0.016 0.088
0.232 0.018 0.090
0.232 0.021 0.090
0.233 0.023 0.090
0.237 0.025 0.092
0.243 0.028 0.094
0.235 0.030 0.091
0.229 0.031 0.089
0.223 0.032 0.087
0.214 0.033 0.083
0.204 0.033 0.079
0.193 0.033 0.075
0.196 0.036 0.076
0.197 0.038 0.077
0.195 0.039 0.076
0.194 0.041 0.076
0.205 0.045 0.080
0.223 0.051 0.087
0.230 0.055 0.090
0.232 0.058 0.091
0.235 0.061 0.092
0.234 0.063 0.092
0.232 0.065 0.091
0.224 0.065 0.088
0.216 0.064 0.085
0.210 0.065 0.083
0.211 0.067 0.083
0.212 0.070 0.084
0.211 0.071 0.084
0.213 0.074 0.084
0.204 0.073 0.081
0.207 0.076 0.082
0.207 0.078 0.082
0.202 0.079 0.081
0.191 0.077 0.077
0.196 0.080 0.078
0.201 0.085 0.081
0.201 0.087 0.081
0.196 0.087 0.079
0.194 0.088 0.078
0.187 0.087 0.076
0.185 0.088 0.075
0.184 0.089 0.075
0.185 0.092 0.076
0.183 0.093 0.075
0.183 0.095 0.075
0.181 0.096 0.074
0.183 0.099 0.075
0.186 0.102 0.077
0.191 0.108 0.079
0.188 0.108 0.078
0.200 0.117 0.083
0.203 0.121 0.085
0.200 0.122 0.084
0.198 0.123 0.083
0.200 0.127 0.085
0.202 0.131 0.086
0.203 0.134 0.086
0.201 0.135 0.086
0.201 0.137 0.086
0.200 0.139 0.086
0.222 0.158 0.096
0.222 0.161 0.096
0.210 0.154 0.091
0.196 0.147 0.086
0.204 0.155 0.089
0.201 0.156 0.089
0.194 0.153 0.086
0.185 0.149 0.082
0.180 0.148 0.080
0.180 0.150 0.081
0.181 0.154 0.082
0.182 0.157 0.082
0.182 0.160 0.083
0.181 0.162 0.083
0.180 0.164 0.083
0.179 0.166 0.083
0.179 0.168 0.083
0.180 0.172 0.084
0.180 0.175 0.084
0.179 0.177 0.084
0.176 0.177 0.083
0.175 0.179 0.083
0.176 0.183 0.084
0.175 0.186 0.085
0.175 0.188 0.085
0.174 0.191 0.085
0.174 0.194 0.085
0.173 0.196 0.085
0.172 0.198 0.086
0.172 0.201 0.086
0.171 0.203 0.086
0.170 0.206 0.086
0.170 0.209 0.087
0.170 0.212 0.087
0.168 0.213 0.087
0.168 0.217 0.087
0.167 0.217 0.087
0.165 0.219 0.086
0.096 -0.127 0.050
0.096 -0.126 0.050
0.096 -0.123 0.050
0.096 -0.122 0.050
0.100 -0.125 0.051
0.102 -0.126 0.052
0.103 -0.125 0.052
0.104 -0.126 0.053
0.104 -0.123 0.052
0.099 -0.115 0.050
0.111 -0.128 0.055
0.113 -0.128 0.056
0.113 -0.126 0.056
0.116 -0.128 0.057
0.116 -0.126 0.057
0.116 -0.124 0.056
0.108 -0.113 0.052
0.103 -0.106 0.049
0.102 -0.104 0.049
0.103 -0.103 0.049
0.104 -0.103 0.049
0.108 -0.105 0.051
0.111 -0.106 0.052
0.115 -0.108 0.054
0.180 -0.164 0.084
0.193 -0.173 0.089
0.194 -0.171 0.089
0.195 -0.169 0.089
0.197 -0.168 0.090
0.198 -0.167 0.090
0.199 -0.165 0.090
0.203 -0.165 0.091
0.202 -0.161 0.091
0.202 -0.159 0.090
0.203 -0.156 0.090
0.204 -0.155 0.090
0.205 -0.153 0.090
0.199 -0.146 0.088
0.198 -0.143 0.087
0.199 -0.141 0.087
0.199 -0.138 0.087
0.199 -0.136 0.086
0.200 -0.134 0.087
0.198 -0.130 0.085
0.200 -0.129 0.086
0.200 -0.127 0.086
0.201 -0.126 0.086
0.203 -0.124 0.087
0.203 -0.122 0.086
0.202 -0.119 0.086
0.208 -0.120 0.088
0.208 -0.118 0.088
0.204 -0.113 0.086
0.202 -0.110 0.085
0.203 -0.108 0.085
0.206 -0.107 0.086
0.208 -0.106 0.087
0.209 -0.105 0.087
0.208 -0.102 0.086
0.206 -0.099 0.085
0.209 -0.098 0.087
0.210 -0.096 0.087
0.209 -0.094 0.086
0.209 -0.091 0.086
0.208 -0.089 0.085
0.208 -0.087 0.085
0.209 -0.085 0.085
0.209 -0.083 0.085
0.207 -0.080 0.085
0.204 -0.077 0.083
0.203 -0.074 0.083
0.204 -0.073 0.083
0.212 -0.073 0.086
0.216 -0.073 0.087
0.213 -0.069 0.086
0.216 -0.068 0.087
0.216 -0.066 0.087
0.217 -0.064 0.087
0.221 -0.063 0.089
0.220 -0.061 0.088
0.222 -0.059 0.089
0.225 -0.058 0.090
0.225 -0.056 0.090
0.226 -0.054 0.090
0.224 -0.051 0.090
0.225 -0.049 0.090
0.228 -0.048 0.091
0.228 -0.046 0.091
0.224 -0.043 0.089
0.223 -0.041 0.089
0.224 -0.039 0.089
0.223 -0.036 0.089
0.223 -0.034 0.089
0.223 -0.032 0.089
0.224 -0.030 0.089
0.224 -0.028 0.089
0.223 -0.026 0.089
0.227 -0.024 0.090
0.235 -0.023 0.093
0.239 -0.021 0.095
0.242 -0.019 0.096
0.241 -0.017 0.095
0.238 -0.014 0.094
0.236 -0.012 0.094
0.228 -0.009 0.090
0.202 -0.003 0.080
0.202 -0.001 0.080
0.194 0.001 0.077
0.197 0.003 0.078
0.212 0.005 0.084
0.210 0.007 0.083
0.214 0.009 0.085
0.217 0.011 0.086
0.212 0.013 0.084
0.216 0.015 0.086
0.222 0.018 0.088
0.226 0.020 0.090
0.225 0.022 0.089
0.235 0.025 0.093
0.231 0.027 0.092
0.206 0.028 0.082
0.206 0.030 0.082
0.200 0.031 0.080
0.189 0.031 0.075
0.183 0.032 0.073
0.187 0.034 0.075
0.190 0.037 0.076
0.187 0.038 0.075
0.196 0.041 0.079
0.212 0.047 0.085
0.226 0.052 0.091
0.231 0.056 0.093
0.230 0.058 0.093
0.229 0.060 0.092
0.225 0.061 0.091
0.220 0.061 0.089
0.213 0.062 0.086
0.209 0.062 0.084
0.206 0.064 0.083
0.202 0.065 0.082
0.202 0.067 0.082
0.198 0.067 0.081
0.195 0.068 0.079
0.196 0.070 0.080
0.198 0.073 0.081
0.200 0.076 0.082
0.197 0.077 0.081
0.195 0.078 0.080
0.195 0.080 0.080
0.200 0.084 0.082
0.199 0.086 0.082
0.193 0.085 0.080
0.189 0.086 0.078
0.190 0.088 0.079
0.189 0.090 0.079
0.187 0.091 0.078
0.184 0.091 0.077
0.185 0.094 0.078
0.186 0.096 0.078
0.188 0.100 0.079
0.188 0.102 0.080
0.186 0.103 0.079
0.187 0.105 0.079
0.193 0.111 0.082
0.204 0.120 0.087
0.200 0.120 0.086
0.192 0.118 0.083
0.180 0.115 0.078
0.187 0.121 0.081
0.200 0.132 0.087
0.199 0.134 0.087
0.199 0.136 0.087
0.197 0.138 0.087
0.216 0.153 0.095
0.213 0.154 0.095
0.198 0.146 0.088
0.194 0.146 0.087
0.195 0.149 0.088
0.195 0.152 0.088
0.194 0.154 0.088
0.190 0.154 0.087
0.178 0.146 0.081
0.178 0.148 0.082
0.179 0.153 0.083
0.179 0.155 0.083
0.178 0.157 0.083
0.178 0.160 0.084
0.177 0.161 0.083
0.176 0.163 0.083
0.176 0.167 0.084
0.176 0.169 0.084
0.176 0.172 0.085
0.175 0.174 0.085
0.173 0.175 0.084
0.172 0.177 0.085
0.173 0.181 0.085
0.173 0.184 0.086
0.172 0.186 0.086
0.171 0.188 0.086
0.169 0.189 0.086
0.169 0.192 0.086
0.169 0.195 0.086
0.169 0.198 0.087
0.168 0.201 0.087
0.167 0.203 0.087
0.167 0.206 0.088
0.167 0.209 0.088
0.167 0.212 0.088
0.164 0.211 0.087
0.164 0.214 0.087
0.097 -0.127 0.052
0.099 -0.128 0.053
0.101 -0.128 0.053
0.105 -0.131 0.055
0.102 -0.127 0.054
0.101 -0.124 0.053
0.103 -0.125 0.054
0.109 -0.130 0.057
0.115 -0.135 0.059
0.119 -0.137 0.061
0.117 -0.133 0.060
0.117 -0.131 0.059
0.118 -0.130 0.059
0.119 -0.129 0.060
0.116 -0.124 0.058
0.113 -0.119 0.056
0.110 -0.114 0.054
0.102 -0.104 0.050
0.103 -0.104 0.051
0.105 -0.103 0.051
0.108 -0.105 0.052
0.110 -0.106 0.053
0.116 -0.110 0.056
0.123 -0.115 0.059
0.194 -0.174 0.092
0.194 -0.172 0.092
0.196 -0.170 0.092
0.197 -0.169 0.092
0.198 -0.167 0.092
0.199 -0.165 0.092
0.200 -0.163 0.092
0.200 -0.160 0.092
0.201 -0.158 0.092
0.201 -0.155 0.092
0.201 -0.153 0.092
0.201 -0.151 0.091
0.196 -0.144 0.089
0.197 -0.143 0.089
0.198 -0.141 0.089
0.198 -0.138 0.088
0.199 -0.137 0.089
0.199 -0.134 0.088
0.199 -0.132 0.088
0.199 -0.129 0.088
0.199 -0.127 0.088
0.199 -0.124 0.087
0.199 -0.122 0.087
0.200 -0.120 0.087
0.199 -0.118 0.087
0.199 -0.115 0.086
0.200 -0.114 0.087
0.200 -0.111 0.086
0.198 -0.108 0.085
0.199 -0.106 0.085
0.199 -0.104 0.085
0.200 -0.103 0.086
0.202 -0.101 0.086
0.203 -0.099 0.086
0.206 -0.099 0.087
0.208 -0.098 0.088
0.211 -0.097 0.089
0.205 -0.092 0.087
0.206 -0.090 0.087
0.209 -0.089 0.088
0.206 -0.086 0.086
0.208 -0.085 0.087
0.209 -0.083 0.087
0.204 -0.079 0.085
0.203 -0.076 0.085
0.203 -0.074 0.085
0.204 -0.073 0.085
0.209 -0.072 0.087
0.208 -0.070 0.086
0.209 -0.068 0.086
0.211 -0.067 0.087
0.213 -0.065 0.088
0.213 -0.063 0.088
0.213 -0.061 0.088
0.214 -0.059 0.088
0.217 -0.058 0.089
0.220 -0.057 0.091
0.223 -0.055 0.091
0.220 -0.053 0.090
0.220 -0.051 0.090
0.221 -0.049 0.090
0.219 -0.046 0.090
0.220 -0.044 0.090
0.219 -0.042 0.089
0.219 -0.040 0.089
0.219 -0.038 0.089
0.219 -0.036 0.089
0.218 -0.033 0.089
0.221 -0.032 0.090
0.222 -0.030 0.090
0.221 -0.028 0.090
0.225 -0.026 0.091
0.237 -0.025 0.096
0.238 -0.023 0.097
0.236 -0.021 0.096
0.232 -0.018 0.094
0.224 -0.016 0.091
0.185 -0.009 0.075
0.184 -0.008 0.075
0.187 -0.006 0.076
0.186 -0.004 0.076
0.192 -0.003 0.078
0.197 -0.001 0.080
0.194 0.001 0.079
0.191 0.003 0.078
0.188 0.004 0.076
0.195 0.006 0.079
0.205 0.009 0.083
0.201 0.010 0.081
0.195 0.012 0.079
0.187 0.013 0.076
0.217 0.021 0.088
0.183 0.021 0.075
0.184 0.023 0.075
0.189 0.026 0.077
0.183 0.027 0.075
0.167 0.027 0.068
0.171 0.030 0.070
0.179 0.033 0.073
0.183 0.035 0.075
0.186 0.038 0.076
0.202 0.043 0.083
0.216 0.048 0.089
0.223 0.052 0.092
0.232 0.056 0.095
0.234 0.059 0.096
0.225 0.059 0.093
0.215 0.058 0.089
0.206 0.058 0.085
0.203 0.059 0.084
0.200 0.060 0.083
0.199 0.062 0.083
0.200 0.064 0.083
0.196 0.065 0.082
0.195 0.066 0.081
0.194 0.068 0.081
0.193 0.070 0.081
0.193 0.072 0.081
0.195 0.074 0.082
0.197 0.077 0.083
0.198 0.079 0.083
0.198 0.082 0.084
0.197 0.083 0.084
0.195 0.084 0.082
0.195 0.086 0.083
0.196 0.089 0.083
0.193 0.090 0.082
0.193 0.092 0.082
0.192 0.093 0.082
0.189 0.094 0.081
0.190 0.097 0.082
0.192 0.100 0.083
0.190 0.101 0.082
0.182 0.099 0.079
0.176 0.098 0.077
0.178 0.101 0.078
0.163 0.094 0.072
0.155 0.091 0.068
0.154 0.092 0.068
0.174 0.107 0.077
0.178 0.114 0.079
0.181 0.117 0.081
0.189 0.125 0.084
0.193 0.130 0.087
0.188 0.129 0.085
0.188 0.132 0.085
0.211 0.150 0.096
0.210 0.152 0.096
0.192 0.142 0.088
0.178 0.134 0.082
0.184 0.141 0.085
0.183 0.143 0.085
0.189 0.150 0.088
0.190 0.154 0.089
0.179 0.148 0.084
0.177 0.148 0.083
0.175 0.150 0.083
0.175 0.152 0.083
0.174 0.154 0.084
0.174 0.157 0.084
0.173 0.159 0.084
0.173 0.161 0.084
0.174 0.165 0.085
0.174 0.167 0.085
0.174 0.170 0.086
0.173 0.172 0.086
0.172 0.174 0.086
0.170 0.176 0.086
0.171 0.179 0.086
0.171 0.182 0.087
0.170 0.185 0.087
0.168 0.186 0.087
0.167 0.187 0.087
0.166 0.189 0.087
0.166 0.193 0.087
0.167 0.196 0.088
0.166 0.198 0.088
0.164 0.199 0.087
0.164 0.203 0.088
0.164 0.206 0.089
0.163 0.208 0.089
0.162 0.209 0.088
0.160 0.209 0.088
0.101 -0.132 0.055
0.101 -0.131 0.055
0.102 -0.130 0.055
0.105 -0.132 0.057
0.103 -0.128 0.055
0.104 -0.127 0.056
0.125 -0.151 0.067
0.122 -0.145 0.065
0.121 -0.142 0.064
0.122 -0.142 0.064
0.123 -0.140 0.064
0.119 -0.133 0.062
0.119 -0.131 0.062
0.119 -0.129 0.061
0.118 -0.127 0.061
0.114 -0.121 0.058
0.112 -0.116 0.057
0.108 -0.110 0.054
0.104 -0.104 0.052
0.105 -0.104 0.052
0.108 -0.105 0.054
0.109 -0.105 0.054
0.115 -0.109 0.057
0.117 -0.109 0.058
0.194 -0.172 0.094
0.195 -0.170 0.094
0.196 -0.168 0.094
0.196 -0.166 0.094
0.197 -0.163 0.093
0.197 -0.161 0.093
0.198 -0.159 0.093
0.197 -0.156 0.093
0.197 -0.153 0.092
0.197 -0.150 0.092
0.196 -0.147 0.091
0.195 -0.144 0.090
0.196 -0.142 0.090
0.196 -0.139 0.090
0.196 -0.137 0.090
0.198 -0.136 0.090
0.199 -0.134 0.090
0.198 -0.131 0.090
0.197 -0.128 0.089
0.198 -0.126 0.089
0.198 -0.124 0.089
0.198 -0.122 0.089
0.200 -0.120 0.089
0.200 -0.118 0.089
0.200 -0.116 0.089
0.200 -0.114 0.089
0.200 -0.112 0.089
0.199 -0.109 0.088
0.199 -0.106 0.088
0.199 -0.104 0.087
0.200 -0.103 0.088
0.200 -0.101 0.088
0.201 -0.099 0.087
0.202 -0.097 0.088
0.202 -0.095 0.088
0.202 -0.093 0.087
0.201 -0.090 0.087
0.201 -0.088 0.087
0.201 -0.086 0.087
0.203 -0.085 0.088
0.203 -0.083 0.087
0.202 -0.080 0.086
0.200 -0.077 0.085
0.199 -0.075 0.085
0.200 -0.073 0.085
0.203 -0.073 0.087
0.205 -0.071 0.087
0.207 -0.070 0.088
0.208 -0.068 0.088
0.209 -0.066 0.089
0.210 -0.065 0.089
0.210 -0.062 0.089
0.209 -0.060 0.088
0.210 -0.059 0.089
0.212 -0.057 0.089
0.212 -0.055 0.089
0.217 -0.054 0.091
0.217 -0.052 0.091
0.215 -0.049 0.090
0.216 -0.047 0.090
0.215 -0.045 0.090
0.214 -0.043 0.090
0.215 -0.041 0.090
0.214 -0.039 0.089
0.214 -0.037 0.090
0.213 -0.035 0.089
0.213 -0.033 0.089
0.216 -0.031 0.090
0.219 -0.030 0.091
0.222 -0.028 0.093
0.236 -0.027 0.098
0.238 -0.025 0.099
0.235 -0.023 0.098
0.229 -0.020 0.095
0.169 -0.009 0.070
0.167 -0.007 0.069
0.173 -0.006 0.072
0.175 -0.004 0.073
0.178 -0.002 0.074
0.193 -0.001 0.080
0.193 0.001 0.080
0.177 0.003 0.073
0.182 0.004 0.076
0.191 0.006 0.080
0.181 0.008 0.075
0.186 0.010 0.078
0.181 0.011 0.075
0.178 0.012 0.074
0.176 0.014 0.073
0.171 0.017 0.071
0.173 0.019 0.072
0.170 0.020 0.071
0.176 0.022 0.073
0.174 0.024 0.073
0.167 0.024 0.070
0.151 0.023 0.063
0.155 0.026 0.065
0.159 0.028 0.067
0.171 0.031 0.072
0.181 0.035 0.076
0.188 0.038 0.079
0.205 0.044 0.086
0.216 0.048 0.091
0.222 0.051 0.093
0.224 0.054 0.094
0.228 0.057 0.096
0.196 0.051 0.083
0.196 0.053 0.083
0.198 0.055 0.084
0.196 0.057 0.083
0.198 0.059 0.084
0.196 0.061 0.084
0.197 0.063 0.084
0.195 0.065 0.083
0.195 0.066 0.083
0.195 0.068 0.083
0.194 0.070 0.083
0.194 0.072 0.083
0.194 0.074 0.083
0.196 0.077 0.084
0.197 0.079 0.085
0.196 0.081 0.085
0.193 0.082 0.084
0.192 0.083 0.084
0.193 0.086 0.084
0.192 0.088 0.084
0.191 0.089 0.084
0.192 0.091 0.084
0.192 0.094 0.084
0.194 0.097 0.085
0.194 0.099 0.086
0.194 0.101 0.086
0.189 0.100 0.084
0.177 0.097 0.079
0.172 0.095 0.077
0.164 0.093 0.073
0.159 0.092 0.071
0.155 0.091 0.070
0.148 0.089 0.067
0.179 0.112 0.081
0.182 0.116 0.083
0.186 0.121 0.085
0.188 0.125 0.086
0.187 0.126 0.086
0.186 0.128 0.086
0.185 0.130 0.086
0.208 0.148 0.097
0.202 0.147 0.095
0.182 0.135 0.085
0.174 0.131 0.082
0.170 0.131 0.081
0.174 0.136 0.082
0.175 0.139 0.083
0.186 0.151 0.089
0.185 0.153 0.089
0.179 0.151 0.087
0.174 0.149 0.084
0.172 0.149 0.084
0.171 0.151 0.084
0.172 0.155 0.085
0.171 0.157 0.085
0.169 0.158 0.085
0.169 0.161 0.085
0.171 0.165 0.086
0.172 0.169 0.087
0.171 0.171 0.087
0.169 0.172 0.087
0.168 0.174 0.087
0.167 0.176 0.087
0.169 0.180 0.088
0.169 0.184 0.089
0.167 0.185 0.088
0.165 0.185 0.088
0.164 0.187 0.087
0.164 0.190 0.088
0.165 0.194 0.089
0.163 0.196 0.089
0.161 0.196 0.088
0.162 0.200 0.089
0.161 0.202 0.089
0.159 0.203 0.089
0.159 0.206 0.089
0.159 0.209 0.089
0.102 -0.134 0.057
0.102 -0.132 0.057
0.102 -0.130 0.057
0.103 -0.130 0.057
0.114 -0.142 0.063
0.122 -0.150 0.067
0.125 -0.151 0.068
0.125 -0.149 0.068
0.124 -0.146 0.067
0.124 -0.144 0.067
0.122 -0.140 0.065
0.122 -0.137 0.065
0.120 -0.133 0.064
0.120 -0.132 0.064
0.119 -0.128 0.063
0.118 -0.125 0.062
0.113 -0.118 0.059
0.112 -0.115 0.058
0.104 -0.105 0.054
0.105 -0.105 0.054
0.107 -0.105 0.055
0.109 -0.105 0.055
0.113 -0.107 0.057
0.118 -0.110 0.059
0.129 -0.119 0.065
0.193 -0.172 0.096
0.194 -0.169 0.096
0.193 -0.166 0.095
0.193 -0.163 0.094
0.194 -0.161 0.094
0.194 -0.159 0.094
0.194 -0.156 0.094
0.194 -0.154 0.094
0.194 -0.151 0.093
0.194 -0.149 0.093
0.194 -0.146 0.092
0.194 -0.143 0.092
0.193 -0.140 0.091
0.194 -0.138 0.091
0.194 -0.136 0.091
0.195 -0.134 0.091
0.196 -0.132 0.091
0.195 -0.129 0.091
0.195 -0.127 0.090
0.195 -0.125 0.090
0.196 -0.123 0.090
0.196 -0.121 0.090
0.198 -0.119 0.091
0.198 -0.117 0.090
0.197 -0.114 0.090
0.197 -0.112 0.089
0.198 -0.110 0.090
0.198 -0.108 0.089
0.198 -0.106 0.089
0.199 -0.105 0.090
0.200 -0.103 0.090
0.200 -0.101 0.090
0.200 -0.098 0.089
0.199 -0.096 0.089
0.200 -0.094 0.089
0.201 -0.093 0.089
0.200 -0.090 0.089
0.200 -0.088 0.088
0.200 -0.086 0.088
0.201 -0.084 0.089
0.202 -0.082 0.089
0.201 -0.080 0.088
0.200 -0.078 0.088
0.200 -0.075 0.087
0.201 -0.074 0.088
0.202 -0.072 0.088
0.203 -0.071 0.089
0.205 -0.069 0.089
0.206 -0.068 0.090
0.207 -0.066 0.090
0.207 -0.064 0.090
0.206 -0.061 0.089
0.206 -0.060 0.089
0.207 -0.058 0.090
0.208 -0.056 0.090
0.209 -0.054 0.090
0.208 -0.052 0.090
0.212 -0.051 0.091
0.211 -0.049 0.091
0.210 -0.046 0.090
0.212 -0.045 0.091
0.212 -0.043 0.091
0.211 -0.041 0.090
0.210 -0.038 0.090
0.209 -0.036 0.089
0.209 -0.034 0.089
0.208 -0.032 0.089
0.210 -0.030 0.090
0.217 -0.029 0.093
0.230 -0.029 0.098
0.241 -0.028 0.103
0.236 -0.025 0.101
0.223 -0.022 0.095
0.169 -0.012 0.072
0.170 -0.010 0.072
0.166 -0.008 0.071
0.162 -0.007 0.069
0.170 -0.005 0.072
0.168 -0.004 0.072
0.166 -0.002 0.071
0.169 -0.001 0.072
0.171 0.001 0.073
0.175 0.003 0.074
0.174 0.004 0.074
0.173 0.006 0.074
0.165 0.007 0.070
0.165 0.009 0.070
0.173 0.011 0.074
0.171 0.012 0.073
0.164 0.013 0.070
0.157 0.014 0.067
0.156 0.015 0.066
0.158 0.017 0.068
0.162 0.019 0.069
0.159 0.020 0.068
0.156 0.021 0.067
0.148 0.022 0.063
0.139 0.022 0.059
0.144 0.024 0.062
0.143 0.025 0.061
0.168 0.031 0.072
0.176 0.034 0.076
0.190 0.039 0.082
0.203 0.043 0.088
0.212 0.047 0.091
0.214 0.050 0.093
0.215 0.052 0.093
0.195 0.049 0.084
0.191 0.050 0.083
0.192 0.052 0.083
0.194 0.055 0.084
0.196 0.057 0.085
0.196 0.059 0.085
0.195 0.061 0.085
0.194 0.062 0.085
0.193 0.064 0.085
0.193 0.066 0.085
0.193 0.068 0.085
0.193 0.070 0.085
0.192 0.072 0.085
0.193 0.074 0.085
0.194 0.076 0.085
0.193 0.078 0.085
0.192 0.079 0.085
0.190 0.081 0.085
0.189 0.082 0.084
0.188 0.084 0.084
0.188 0.086 0.084
0.188 0.088 0.084
0.188 0.090 0.085
0.192 0.094 0.087
0.192 0.096 0.087
0.189 0.097 0.085
0.186 0.097 0.084
0.183 0.098 0.083
0.172 0.094 0.078
0.163 0.091 0.074
0.161 0.092 0.074
0.160 0.093 0.073
0.160 0.095 0.074
0.176 0.106 0.081
0.181 0.111 0.084
0.182 0.114 0.085
0.184 0.118 0.086
0.187 0.122 0.087
0.185 0.123 0.087
0.184 0.125 0.087
0.183 0.126 0.087
0.183 0.129 0.087
0.201 0.144 0.096
0.200 0.146 0.096
0.183 0.136 0.088
0.176 0.133 0.085
0.170 0.131 0.082
0.166 0.130 0.081
0.169 0.135 0.083
0.174 0.141 0.085
0.182 0.151 0.090
0.181 0.152 0.090
0.176 0.151 0.088
0.170 0.149 0.085
0.169 0.150 0.085
0.168 0.152 0.085
0.168 0.155 0.086
0.168 0.157 0.086
0.167 0.159 0.086
0.167 0.161 0.086
0.168 0.166 0.088
0.167 0.167 0.087
0.166 0.169 0.087
0.164 0.170 0.087
0.163 0.172 0.087
0.164 0.177 0.088
0.166 0.181 0.089
0.164 0.182 0.089
0.161 0.182 0.088
0.161 0.185 0.088
0.160 0.187 0.088
0.161 0.190 0.089
0.160 0.193 0.089
0.159 0.194 0.089
0.158 0.195 0.089
0.158 0.199 0.090
0.157 0.201 0.089
0.157 0.204 0.090
0.119 -0.153 0.068
0.116 -0.146 0.065
0.118 -0.148 0.067
0.122 -0.149 0.068
0.124 -0.151 0.069
0.125 -0.149 0.069
0.125 -0.147 0.069
0.126 -0.147 0.070
0.125 -0.143 0.069
0.124 -0.140 0.068
0.124 -0.138 0.067
0.123 -0.134 0.066
0.122 -0.132 0.066
0.120 -0.127 0.064
0.114 -0.119 0.061
0.111 -0.114 0.059
0.108 -0.109 0.057
0.106 -0.106 0.056
0.108 -0.106 0.056
0.109 -0.106 0.057
0.111 -0.106 0.057
0.117 -0.110 0.060
0.121 -0.111 0.062
0.181 -0.161 0.092
0.184 -0.161 0.093
0.189 -0.163 0.095
0.191 -0.162 0.096
0.190 -0.159 0.095
0.191 -0.157 0.095
0.192 -0.155 0.095
0.193 -0.153 0.095
0.192 -0.150 0.094
0.192 -0.147 0.094
0.192 -0.145 0.094
0.191 -0.142 0.093
0.191 -0.139 0.093
0.192 -0.137 0.092
0.192 -0.135 0.092
0.191 -0.132 0.092
0.192 -0.130 0.092
0.192 -0.128 0.092
0.192 -0.125 0.091
0.192 -0.123 0.091
0.192 -0.121 0.091
0.193 -0.119 0.091
0.193 -0.117 0.091
0.194 -0.115 0.091
0.194 -0.113 0.090
0.195 -0.111 0.091
0.195 -0.109 0.091
0.196 -0.107 0.091
0.196 -0.105 0.091
0.197 -0.103 0.091
0.198 -0.102 0.091
0.198 -0.100 0.091
0.198 -0.098 0.091
0.196 -0.095 0.090
0.197 -0.093 0.090
0.199 -0.092 0.090
0.200 -0.090 0.091
0.198 -0.087 0.090
0.198 -0.085 0.090
0.196 -0.082 0.089
0.199 -0.082 0.090
0.199 -0.079 0.089
0.199 -0.077 0.089
0.199 -0.075 0.089
0.200 -0.074 0.089
0.200 -0.072 0.089
0.198 -0.069 0.089
0.201 -0.068 0.090
0.203 -0.067 0.090
0.204 -0.065 0.091
0.203 -0.063 0.090
0.203 -0.061 0.090
0.203 -0.059 0.090
0.204 -0.057 0.090
0.205 -0.055 0.091
0.205 -0.053 0.091
0.204 -0.051 0.090
0.204 -0.049 0.090
0.207 -0.048 0.091
0.208 -0.046 0.091
0.210 -0.044 0.092
0.212 -0.043 0.093
0.212 -0.041 0.093
0.209 -0.038 0.092
0.206 -0.036 0.090
0.205 -0.034 0.090
0.204 -0.032 0.089
0.205 -0.030 0.090
0.218 -0.030 0.095
0.235 -0.030 0.103
0.237 -0.028 0.103
0.233 -0.025 0.102
0.177 -0.016 0.077
0.166 -0.013 0.072
0.163 -0.011 0.071
0.166 -0.010 0.072
0.169 -0.009 0.074
0.170 -0.007 0.074
0.169 -0.005 0.074
0.170 -0.004 0.074
0.167 -0.002 0.073
0.166 -0.001 0.072
0.165 0.001 0.072
0.169 0.002 0.074
0.175 0.004 0.076
0.172 0.006 0.075
0.163 0.007 0.071
0.163 0.008 0.071
0.165 0.010 0.072
0.166 0.012 0.072
0.156 0.013 0.068
0.154 0.014 0.067
0.155 0.015 0.068
0.156 0.017 0.068
0.161 0.019 0.070
0.157 0.020 0.069
0.151 0.021 0.066
0.144 0.021 0.063
0.131 0.020 0.057
0.144 0.024 0.063
0.145 0.025 0.063
0.142 0.026 0.062
0.202 0.043 0.089
0.206 0.046 0.091
0.204 0.047 0.090
0.200 0.048 0.088
0.195 0.049 0.087
0.190 0.050 0.084
0.192 0.052 0.085
0.193 0.054 0.086
0.192 0.056 0.086
0.192 0.058 0.086
0.192 0.060 0.086
0.192 0.062 0.086
0.191 0.063 0.085
0.190 0.065 0.085
0.190 0.067 0.085
0.190 0.069 0.086
0.190 0.071 0.086
0.190 0.073 0.086
0.188 0.074 0.085
0.190 0.077 0.086
0.189 0.078 0.086
0.187 0.080 0.085
0.187 0.081 0.085
0.186 0.083 0.085
0.185 0.085 0.085
0.185 0.087 0.085
0.190 0.091 0.088
0.188 0.092 0.087
0.184 0.092 0.085
0.179 0.092 0.083
0.175 0.092 0.081
0.169 0.091 0.079
0.156 0.085 0.073
0.155 0.086 0.072
0.161 0.091 0.075
0.166 0.097 0.078
0.175 0.104 0.083
0.180 0.109 0.085
0.181 0.111 0.086
0.181 0.114 0.086
0.181 0.116 0.087
0.182 0.119 0.087
0.180 0.120 0.087
0.176 0.119 0.085
0.178 0.123 0.086
0.179 0.126 0.087
0.186 0.134 0.091
0.197 0.145 0.097
0.180 0.134 0.089
0.177 0.134 0.088
0.173 0.134 0.086
0.167 0.132 0.083
0.165 0.133 0.083
0.167 0.136 0.084
0.171 0.142 0.087
0.176 0.149 0.089
0.178 0.153 0.091
0.178 0.156 0.091
0.169 0.151 0.087
0.167 0.151 0.087
0.166 0.153 0.087
0.165 0.155 0.087
0.165 0.158 0.087
0.164 0.160 0.087
0.165 0.164 0.088
0.164 0.165 0.088
0.163 0.167 0.088
0.162 0.169 0.088
0.161 0.170 0.088
0.160 0.172 0.088
0.160 0.175 0.088
0.160 0.179 0.089
0.159 0.180 0.089
0.159 0.182 0.089
0.159 0.185 0.090
0.157 0.187 0.089
0.157 0.190 0.090
0.157 0.192 0.090
0.155 0.193 0.090
0.155 0.195 0.090
0.155 0.199 0.091
0.153 0.199 0.090
0.120 -0.156 0.070
0.119 -0.153 0.069
0.120 -0.152 0.070
0.120 -0.150 0.070
0.121 -0.150 0.070
0.122 -0.148 0.070
0.121 -0.145 0.069
0.125 -0.147 0.071
0.127 -0.147 0.071
0.127 -0.145 0.071
0.126 -0.143 0.071
0.126 -0.140 0.070
0.124 -0.136 0.069
0.124 -0.134 0.068
0.124 -0.132 0.068
0.124 -0.130 0.068
0.119 -0.122 0.064
0.116 -0.117 0.062
0.108 -0.108 0.058
0.108 -0.106 0.058
0.109 -0.106 0.058
0.111 -0.106 0.059
0.116 -0.109 0.061
0.120 -0.111 0.063
0.170 -0.154 0.089
0.182 -0.162 0.095
0.184 -0.161 0.095
0.186 -0.161 0.096
0.188 -0.160 0.096
0.189 -0.158 0.097
0.189 -0.156 0.096
0.190 -0.153 0.096
0.189 -0.150 0.096
0.190 -0.148 0.095
0.190 -0.146 0.095
0.190 -0.143 0.095
0.189 -0.140 0.094
0.189 -0.138 0.094
0.189 -0.135 0.093
0.189 -0.133 0.093
0.188 -0.130 0.092
0.189 -0.128 0.093
0.190 -0.127 0.093
0.188 -0.123 0.091
0.189 -0.121 0.092
0.190 -0.119 0.092
0.189 -0.117 0.091
0.189 -0.115 0.091
0.190 -0.113 0.091
0.192 -0.112 0.092
0.193 -0.110 0.092
0.193 -0.108 0.092
0.194 -0.106 0.092
0.193 -0.104 0.091
0.193 -0.102 0.091
0.192 -0.099 0.090
0.193 -0.097 0.091
0.193 -0.095 0.090
0.191 -0.093 0.089
0.193 -0.091 0.090
0.195 -0.090 0.091
0.195 -0.088 0.091
0.195 -0.086 0.090
0.195 -0.084 0.090
0.195 -0.082 0.090
0.195 -0.080 0.090
0.196 -0.078 0.090
0.197 -0.077 0.090
0.197 -0.075 0.090
0.195 -0.072 0.089
0.196 -0.070 0.090
0.197 -0.069 0.090
0.197 -0.067 0.090
0.200 -0.066 0.091
0.200 -0.064 0.091
0.200 -0.062 0.091
0.199 -0.060 0.090
0.201 -0.058 0.091
0.202 -0.056 0.091
0.203 -0.055 0.092
0.201 -0.052 0.091
0.201 -0.050 0.091
0.203 -0.049 0.092
0.205 -0.047 0.092
0.209 -0.046 0.094
0.203 -0.043 0.091
0.202 -0.041 0.091
0.207 -0.040 0.093
0.202 -0.037 0.091
0.201 -0.035 0.090
0.200 -0.033 0.090
0.197 -0.030 0.088
0.201 -0.029 0.090
0.221 -0.030 0.099
0.230 -0.029 0.103
0.234 -0.027 0.104
0.226 -0.024 0.101
0.173 -0.017 0.077
0.166 -0.015 0.074
0.160 -0.013 0.071
0.166 -0.012 0.074
0.169 -0.010 0.075
0.172 -0.009 0.077
0.174 -0.007 0.078
0.172 -0.006 0.077
0.169 -0.004 0.076
0.171 -0.002 0.076
0.166 -0.001 0.074
0.162 0.001 0.072
0.168 0.002 0.075
0.172 0.004 0.077
0.171 0.006 0.076
0.165 0.007 0.074
0.160 0.008 0.072
0.167 0.010 0.075
0.153 0.011 0.068
0.154 0.012 0.069
0.152 0.014 0.068
0.158 0.016 0.071
0.155 0.017 0.069
0.153 0.018 0.069
0.162 0.021 0.072
0.151 0.021 0.068
0.144 0.021 0.064
0.150 0.023 0.067
0.147 0.026 0.066
0.145 0.027 0.065
0.146 0.028 0.066
0.202 0.043 0.091
0.198 0.044 0.089
0.197 0.046 0.089
0.196 0.047 0.089
0.193 0.049 0.088
0.189 0.050 0.086
0.189 0.051 0.086
