VERSION .7
FIELDS x y z
SIZE 4 4 4
TYPE F F F
COUNT 1 1 1
WIDTH     2586
HEIGHT 1
VIEWPOINT 0 0 0 1 0 0 0
POINTS     2586
DATA ascii
0.345 0.184 0.055
0.339 0.185 0.054
0.334 0.185 0.054
0.323 0.183 0.052
0.319 0.184 0.052
0.313 0.184 0.051
0.309 0.185 0.050
0.303 0.186 0.049
0.298 0.186 0.049
0.295 0.187 0.048
0.290 0.188 0.048
0.285 0.187 0.047
0.280 0.188 0.046
0.271 0.185 0.045
0.267 0.186 0.045
0.264 0.187 0.044
0.263 0.189 0.044
0.262 0.192 0.044
0.261 0.195 0.044
0.261 0.198 0.044
0.260 0.201 0.045
0.260 0.205 0.045
0.259 0.207 0.045
0.259 0.211 0.045
0.259 0.214 0.045
0.258 0.217 0.045
0.257 0.220 0.045
0.259 0.225 0.046
0.257 0.228 0.046
0.256 0.231 0.046
0.257 0.235 0.046
0.256 0.238 0.046
0.255 0.242 0.046
0.256 0.246 0.047
0.255 0.250 0.047
0.254 0.253 0.047
0.262 0.265 0.049
0.289 0.302 0.054
0.292 0.311 0.055
0.291 0.314 0.055
0.296 0.325 0.057
0.291 0.325 0.056
0.286 0.325 0.055
0.283 0.327 0.055
0.285 0.334 0.056
0.291 0.348 0.058
0.294 0.357 0.059
0.303 0.374 0.061
0.303 0.379 0.061
0.300 0.382 0.061
0.300 0.388 0.061
0.291 0.382 0.060
0.147 -0.204 0.032
0.174 -0.238 0.038
0.183 -0.247 0.039
0.191 -0.255 0.041
0.271 -0.352 0.058
0.280 -0.358 0.059
0.286 -0.361 0.060
0.288 -0.358 0.060
0.288 -0.353 0.060
0.287 -0.347 0.059
0.284 -0.339 0.058
0.289 -0.340 0.059
0.292 -0.337 0.059
0.292 -0.332 0.059
0.292 -0.328 0.059
0.296 -0.327 0.059
0.292 -0.318 0.058
0.293 -0.314 0.058
0.291 -0.307 0.057
0.290 -0.302 0.057
0.290 -0.297 0.056
0.292 -0.294 0.056
0.291 -0.289 0.056
0.290 -0.283 0.055
0.291 -0.280 0.055
0.291 -0.275 0.055
0.289 -0.269 0.054
0.286 -0.263 0.054
0.288 -0.260 0.054
0.289 -0.257 0.054
0.288 -0.252 0.053
0.285 -0.246 0.052
0.285 -0.241 0.052
0.283 -0.236 0.052
0.281 -0.231 0.051
0.278 -0.224 0.050
0.267 -0.212 0.048
0.257 -0.201 0.046
0.201 -0.152 0.036
0.205 -0.153 0.036
0.209 -0.153 0.037
0.205 -0.148 0.036
0.205 -0.145 0.036
0.211 -0.147 0.037
0.211 -0.145 0.037
0.209 -0.140 0.036
0.209 -0.138 0.036
0.212 -0.138 0.037
0.216 -0.138 0.037
0.208 -0.130 0.036
0.205 -0.126 0.035
0.210 -0.127 0.036
0.213 -0.126 0.036
0.210 -0.122 0.036
0.208 -0.119 0.035
0.208 -0.116 0.035
0.212 -0.116 0.036
0.202 -0.109 0.034
0.211 -0.111 0.036
0.217 -0.112 0.036
0.217 -0.110 0.036
0.214 -0.106 0.036
0.212 -0.103 0.035
0.203 -0.096 0.034
0.205 -0.095 0.034
0.208 -0.094 0.034
0.208 -0.093 0.035
0.205 -0.089 0.034
0.211 -0.089 0.035
0.203 -0.084 0.033
0.212 -0.086 0.035
0.216 -0.085 0.035
0.211 -0.081 0.035
0.214 -0.080 0.035
0.213 -0.078 0.035
0.221 -0.079 0.036
0.226 -0.078 0.037
0.227 -0.076 0.037
0.234 -0.076 0.038
0.238 -0.076 0.039
0.252 -0.078 0.041
0.252 -0.075 0.041
0.257 -0.074 0.042
0.272 -0.076 0.044
0.381 -0.103 0.061
0.392 -0.102 0.063
0.408 -0.102 0.066
0.416 -0.101 0.067
0.430 -0.100 0.069
0.417 -0.093 0.067
0.401 -0.086 0.064
0.379 -0.078 0.061
0.364 -0.071 0.058
0.351 -0.065 0.056
0.285 -0.048 0.046
0.284 -0.045 0.045
0.284 -0.042 0.045
0.287 -0.040 0.046
0.283 -0.037 0.045
0.283 -0.035 0.045
0.287 -0.033 0.046
0.292 -0.030 0.046
0.293 -0.028 0.047
0.289 -0.025 0.046
0.289 -0.022 0.046
0.290 -0.020 0.046
0.291 -0.017 0.046
0.290 -0.014 0.046
0.292 -0.012 0.047
0.294 -0.009 0.047
0.292 -0.007 0.046
0.290 -0.004 0.046
0.292 -0.001 0.046
0.306 0.001 0.049
0.296 0.004 0.047
0.292 0.007 0.047
0.291 0.009 0.046
0.292 0.012 0.046
0.306 0.015 0.049
0.313 0.018 0.050
0.316 0.021 0.050
0.308 0.024 0.049
0.304 0.029 0.048
0.304 0.032 0.049
0.296 0.033 0.047
0.303 0.037 0.048
0.301 0.039 0.048
0.304 0.043 0.049
0.302 0.045 0.048
0.305 0.048 0.049
0.294 0.049 0.047
0.324 0.057 0.052
0.320 0.060 0.051
0.313 0.061 0.050
0.309 0.063 0.050
0.310 0.066 0.050
0.302 0.067 0.049
0.289 0.067 0.047
0.284 0.069 0.046
0.294 0.074 0.047
0.314 0.082 0.051
0.315 0.085 0.051
0.306 0.086 0.050
0.292 0.085 0.047
0.292 0.088 0.048
0.300 0.093 0.049
0.298 0.095 0.049
0.291 0.096 0.048
0.295 0.100 0.048
0.307 0.107 0.050
0.312 0.112 0.051
0.313 0.115 0.051
0.308 0.116 0.051
0.325 0.126 0.054
0.334 0.133 0.055
0.343 0.140 0.057
0.352 0.147 0.058
0.363 0.155 0.060
0.375 0.164 0.062
0.381 0.171 0.063
0.381 0.175 0.064
0.381 0.179 0.064
0.375 0.180 0.063
0.370 0.181 0.062
0.365 0.183 0.062
0.359 0.184 0.061
0.352 0.184 0.060
0.346 0.185 0.059
0.338 0.184 0.058
0.330 0.183 0.056
0.323 0.183 0.055
0.318 0.184 0.054
0.312 0.184 0.054
0.308 0.185 0.053
0.303 0.186 0.052
0.298 0.186 0.052
0.294 0.187 0.051
0.291 0.188 0.051
0.285 0.188 0.050
0.279 0.187 0.049
0.271 0.185 0.048
0.267 0.186 0.047
0.264 0.187 0.047
0.262 0.189 0.047
0.262 0.192 0.047
0.261 0.195 0.047
0.261 0.198 0.047
0.262 0.202 0.047
0.260 0.205 0.047
0.260 0.208 0.048
0.259 0.211 0.048
0.258 0.214 0.048
0.259 0.218 0.048
0.260 0.222 0.048
0.259 0.225 0.048
0.257 0.228 0.048
0.257 0.231 0.049
0.257 0.235 0.049
0.256 0.238 0.049
0.255 0.241 0.049
0.255 0.246 0.049
0.256 0.250 0.050
0.254 0.253 0.050
0.257 0.260 0.051
0.279 0.287 0.055
0.287 0.300 0.057
0.293 0.312 0.059
0.296 0.321 0.060
0.281 0.314 0.057
0.270 0.308 0.056
0.275 0.318 0.057
0.285 0.335 0.059
0.290 0.347 0.061
0.292 0.354 0.062
0.300 0.371 0.064
0.299 0.375 0.064
0.299 0.380 0.064
0.299 0.387 0.065
0.296 0.389 0.065
0.116 -0.160 0.027
0.126 -0.170 0.029
0.271 -0.347 0.060
0.277 -0.350 0.061
0.284 -0.353 0.063
0.285 -0.350 0.062
0.287 -0.347 0.063
0.287 -0.342 0.062
0.288 -0.339 0.062
0.291 -0.337 0.062
0.293 -0.334 0.062
0.293 -0.329 0.062
0.289 -0.320 0.061
0.292 -0.318 0.061
0.293 -0.314 0.061
0.294 -0.310 0.061
0.289 -0.301 0.060
0.290 -0.298 0.060
0.292 -0.294 0.060
0.292 -0.290 0.059
0.291 -0.285 0.059
0.291 -0.280 0.058
0.292 -0.277 0.058
0.290 -0.270 0.058
0.289 -0.266 0.057
0.287 -0.260 0.057
0.288 -0.256 0.056
0.288 -0.252 0.056
0.284 -0.245 0.055
0.285 -0.242 0.055
0.283 -0.236 0.055
0.280 -0.230 0.054
0.279 -0.226 0.053
0.267 -0.213 0.051
0.257 -0.201 0.049
0.211 -0.163 0.040
0.200 -0.152 0.038
0.207 -0.154 0.039
0.207 -0.151 0.039
0.205 -0.147 0.038
0.205 -0.145 0.038
0.207 -0.144 0.038
0.210 -0.144 0.039
0.207 -0.139 0.038
0.211 -0.139 0.039
0.216 -0.140 0.040
0.218 -0.139 0.040
0.214 -0.134 0.039
0.205 -0.126 0.037
0.214 -0.129 0.039
0.212 -0.125 0.038
0.208 -0.121 0.037
0.206 -0.118 0.037
0.212 -0.119 0.038
0.202 -0.111 0.036
0.209 -0.113 0.037
0.200 -0.106 0.036
0.214 -0.110 0.038
0.217 -0.110 0.038
0.217 -0.108 0.038
0.218 -0.106 0.038
0.217 -0.103 0.038
0.203 -0.094 0.036
0.205 -0.093 0.036
0.204 -0.091 0.036
0.208 -0.090 0.036
0.198 -0.084 0.035
0.211 -0.088 0.037
0.203 -0.082 0.035
0.215 -0.085 0.037
0.214 -0.083 0.037
0.205 -0.077 0.035
0.205 -0.075 0.035
0.220 -0.078 0.038
0.222 -0.077 0.038
0.223 -0.075 0.038
0.230 -0.075 0.040
0.246 -0.078 0.042
0.256 -0.079 0.044
0.254 -0.076 0.043
0.251 -0.072 0.043
0.253 -0.071 0.043
0.376 -0.102 0.064
0.384 -0.100 0.065
0.403 -0.101 0.069
0.406 -0.098 0.069
0.403 -0.094 0.068
0.402 -0.090 0.068
0.394 -0.084 0.067
0.382 -0.078 0.065
0.370 -0.072 0.063
0.357 -0.066 0.060
0.292 -0.049 0.049
0.283 -0.045 0.048
0.283 -0.042 0.048
0.284 -0.040 0.048
0.284 -0.037 0.048
0.284 -0.035 0.048
0.287 -0.033 0.048
0.290 -0.030 0.049
0.291 -0.028 0.049
0.287 -0.025 0.048
0.287 -0.022 0.048
0.288 -0.020 0.048
0.289 -0.017 0.049
0.289 -0.014 0.049
0.292 -0.012 0.049
0.294 -0.009 0.049
0.292 -0.007 0.049
0.291 -0.004 0.049
0.292 -0.001 0.049
0.294 0.001 0.049
0.293 0.004 0.049
0.293 0.007 0.049
0.293 0.009 0.049
0.289 0.012 0.049
0.290 0.014 0.049
0.302 0.018 0.051
0.307 0.021 0.052
0.304 0.023 0.051
0.292 0.025 0.049
0.295 0.028 0.050
0.305 0.032 0.051
0.306 0.035 0.052
0.296 0.036 0.050
0.300 0.039 0.051
0.300 0.042 0.051
0.299 0.045 0.051
0.299 0.048 0.051
0.307 0.052 0.052
0.320 0.057 0.054
0.323 0.060 0.055
0.312 0.061 0.053
0.310 0.064 0.053
0.317 0.068 0.054
0.316 0.071 0.054
0.304 0.071 0.052
0.286 0.069 0.049
0.297 0.075 0.051
0.307 0.080 0.052
0.314 0.085 0.054
0.307 0.086 0.053
0.296 0.086 0.051
0.290 0.087 0.050
0.293 0.091 0.050
0.285 0.091 0.049
0.274 0.090 0.047
0.276 0.093 0.048
0.294 0.102 0.051
0.309 0.111 0.054
0.312 0.115 0.054
0.314 0.119 0.055
0.313 0.121 0.054
0.330 0.131 0.058
0.335 0.137 0.059
0.343 0.143 0.060
0.370 0.159 0.065
0.366 0.161 0.064
0.373 0.167 0.066
0.374 0.172 0.066
0.371 0.174 0.066
0.370 0.178 0.066
0.365 0.179 0.065
0.361 0.181 0.064
0.358 0.184 0.064
0.349 0.182 0.062
0.343 0.183 0.062
0.338 0.184 0.061
0.329 0.183 0.059
0.323 0.183 0.058
0.316 0.183 0.057
0.311 0.184 0.057
0.306 0.184 0.056
0.303 0.185 0.055
0.297 0.185 0.054
0.293 0.186 0.054
0.289 0.187 0.053
0.283 0.186 0.052
0.278 0.187 0.052
0.272 0.186 0.051
0.267 0.186 0.050
0.264 0.188 0.050
0.262 0.189 0.049
0.262 0.192 0.050
0.261 0.195 0.050
0.260 0.198 0.050
0.260 0.201 0.050
0.261 0.205 0.050
0.261 0.209 0.051
0.260 0.212 0.050
0.258 0.214 0.050
0.257 0.216 0.050
0.259 0.222 0.051
0.258 0.225 0.051
0.257 0.228 0.051
0.257 0.232 0.051
0.256 0.235 0.051
0.255 0.238 0.052
0.255 0.242 0.052
0.257 0.248 0.052
0.255 0.250 0.052
0.254 0.254 0.053
0.256 0.259 0.053
0.280 0.288 0.059
0.284 0.297 0.060
0.283 0.302 0.060
0.268 0.295 0.057
0.269 0.302 0.058
0.265 0.302 0.058
0.273 0.316 0.060
0.285 0.335 0.063
0.289 0.345 0.064
0.295 0.358 0.066
0.295 0.365 0.066
0.291 0.366 0.066
0.286 0.364 0.065
0.290 0.376 0.067
0.282 0.370 0.065
0.111 -0.155 0.027
0.107 -0.146 0.026
0.120 -0.163 0.029
0.278 -0.337 0.064
0.285 -0.340 0.065
0.287 -0.338 0.065
0.290 -0.336 0.065
0.292 -0.333 0.066
0.293 -0.330 0.065
0.294 -0.325 0.065
0.294 -0.320 0.065
0.294 -0.316 0.065
0.294 -0.311 0.064
0.292 -0.304 0.063
0.291 -0.299 0.063
0.292 -0.295 0.063
0.292 -0.290 0.062
0.292 -0.285 0.062
0.291 -0.281 0.062
0.292 -0.277 0.062
0.292 -0.273 0.061
0.290 -0.266 0.060
0.287 -0.260 0.060
0.288 -0.256 0.060
0.289 -0.253 0.059
0.287 -0.248 0.059
0.283 -0.241 0.058
0.284 -0.237 0.058
0.282 -0.232 0.057
0.280 -0.226 0.056
0.271 -0.216 0.054
0.260 -0.204 0.052
0.218 -0.168 0.043
0.211 -0.160 0.042
0.208 -0.155 0.041
0.209 -0.153 0.041
0.206 -0.148 0.040
0.204 -0.144 0.040
0.203 -0.141 0.040
0.205 -0.140 0.040
0.214 -0.144 0.042
0.212 -0.140 0.041
0.216 -0.140 0.042
0.219 -0.140 0.042
0.217 -0.136 0.042
0.216 -0.133 0.041
0.207 -0.125 0.040
0.209 -0.124 0.040
0.207 -0.120 0.039
0.206 -0.117 0.039
0.211 -0.118 0.040
0.217 -0.119 0.041
0.204 -0.110 0.038
0.208 -0.110 0.039
0.207 -0.107 0.039
0.214 -0.108 0.040
0.217 -0.108 0.040
0.214 -0.104 0.040
0.221 -0.105 0.041
0.205 -0.095 0.038
0.213 -0.097 0.039
0.212 -0.094 0.039
0.210 -0.091 0.039
0.219 -0.093 0.040
0.212 -0.088 0.039
0.214 -0.087 0.039
0.213 -0.084 0.039
0.212 -0.082 0.039
0.218 -0.082 0.040
0.222 -0.081 0.040
0.224 -0.080 0.041
0.217 -0.075 0.039
0.222 -0.075 0.040
0.233 -0.076 0.042
0.243 -0.077 0.044
0.248 -0.076 0.045
0.249 -0.074 0.045
0.249 -0.072 0.045
0.377 -0.102 0.068
0.388 -0.101 0.070
0.391 -0.098 0.070
0.396 -0.096 0.071
0.393 -0.091 0.070
0.388 -0.087 0.069
0.388 -0.083 0.069
0.380 -0.078 0.068
0.375 -0.073 0.067
0.362 -0.068 0.065
0.299 -0.050 0.053
0.283 -0.045 0.050
0.283 -0.042 0.050
0.282 -0.040 0.050
0.283 -0.037 0.050
0.286 -0.035 0.051
0.288 -0.033 0.051
0.286 -0.030 0.051
0.286 -0.027 0.051
0.286 -0.025 0.051
0.287 -0.022 0.051
0.288 -0.020 0.051
0.287 -0.017 0.051
0.290 -0.014 0.051
0.294 -0.012 0.052
0.295 -0.009 0.052
0.293 -0.007 0.052
0.294 -0.004 0.052
0.292 -0.001 0.052
0.291 0.001 0.052
0.292 0.004 0.052
0.295 0.007 0.052
0.295 0.009 0.052
0.292 0.012 0.052
0.292 0.014 0.052
0.297 0.017 0.053
0.300 0.020 0.053
0.299 0.023 0.053
0.297 0.025 0.053
0.295 0.028 0.052
0.298 0.031 0.053
0.304 0.034 0.054
0.299 0.037 0.053
0.296 0.039 0.053
0.298 0.042 0.053
0.302 0.045 0.054
0.302 0.048 0.054
0.304 0.051 0.054
0.315 0.056 0.056
0.312 0.058 0.056
0.306 0.060 0.055
0.305 0.063 0.055
0.311 0.067 0.056
0.318 0.071 0.057
0.313 0.073 0.056
0.302 0.073 0.054
0.298 0.075 0.054
0.307 0.080 0.055
0.309 0.084 0.056
0.306 0.086 0.055
0.299 0.087 0.054
0.294 0.088 0.053
0.292 0.090 0.053
0.286 0.091 0.052
0.275 0.091 0.050
0.270 0.091 0.049
0.266 0.093 0.048
0.304 0.112 0.056
0.308 0.117 0.056
0.316 0.123 0.058
0.317 0.126 0.058
0.329 0.134 0.061
0.336 0.141 0.062
0.334 0.143 0.062
0.354 0.155 0.066
0.364 0.164 0.068
0.366 0.168 0.068
0.366 0.172 0.068
0.364 0.175 0.068
0.361 0.177 0.068
0.355 0.178 0.067
0.351 0.180 0.066
0.345 0.181 0.065
0.341 0.182 0.065
0.333 0.182 0.063
0.326 0.181 0.062
0.322 0.183 0.061
0.314 0.182 0.060
0.307 0.182 0.059
0.305 0.183 0.059
0.301 0.185 0.058
0.295 0.185 0.057
0.291 0.185 0.056
0.287 0.186 0.056
0.283 0.187 0.055
0.277 0.186 0.054
0.272 0.186 0.054
0.267 0.186 0.053
0.264 0.188 0.052
0.263 0.190 0.052
0.261 0.192 0.052
0.261 0.195 0.052
0.260 0.198 0.052
0.260 0.202 0.053
0.261 0.205 0.053
0.261 0.209 0.053
0.260 0.212 0.053
0.258 0.214 0.053
0.257 0.217 0.053
0.258 0.221 0.054
0.258 0.226 0.054
0.258 0.229 0.054
0.257 0.232 0.054
0.256 0.235 0.054
0.256 0.239 0.054
0.257 0.244 0.055
0.256 0.247 0.055
0.255 0.251 0.055
0.254 0.254 0.055
0.257 0.260 0.056
0.281 0.290 0.062
0.277 0.291 0.062
0.268 0.285 0.060
0.264 0.287 0.059
0.266 0.294 0.060
0.262 0.294 0.060
0.268 0.306 0.061
0.271 0.314 0.063
0.285 0.335 0.066
0.285 0.342 0.067
0.289 0.352 0.068
0.293 0.362 0.069
0.287 0.360 0.068
0.283 0.361 0.068
0.282 0.365 0.068
0.285 0.375 0.069
0.105 -0.146 0.027
0.105 -0.144 0.027
0.105 -0.142 0.027
0.106 -0.141 0.027
0.109 -0.143 0.027
0.109 -0.142 0.027
0.288 -0.335 0.069
0.290 -0.331 0.069
0.291 -0.327 0.068
0.292 -0.324 0.068
0.294 -0.321 0.068
0.296 -0.318 0.068
0.293 -0.311 0.067
0.293 -0.305 0.067
0.293 -0.301 0.067
0.293 -0.296 0.066
0.291 -0.290 0.066
0.291 -0.285 0.065
0.291 -0.281 0.065
0.291 -0.277 0.065
0.292 -0.273 0.064
0.288 -0.265 0.063
0.289 -0.262 0.063
0.289 -0.258 0.063
0.289 -0.254 0.063
0.288 -0.249 0.062
0.287 -0.244 0.062
0.284 -0.238 0.061
0.284 -0.234 0.060
0.283 -0.229 0.060
0.272 -0.217 0.057
0.261 -0.205 0.055
0.217 -0.168 0.046
0.213 -0.162 0.045
0.208 -0.155 0.043
0.206 -0.151 0.043
0.208 -0.150 0.043
0.207 -0.147 0.043
0.206 -0.144 0.042
0.212 -0.145 0.043
0.208 -0.140 0.043
0.214 -0.142 0.044
0.213 -0.139 0.043
0.216 -0.138 0.044
0.217 -0.136 0.044
0.211 -0.130 0.043
0.209 -0.126 0.042
0.209 -0.124 0.042
0.208 -0.121 0.042
0.208 -0.119 0.041
0.208 -0.116 0.041
0.211 -0.116 0.042
0.204 -0.110 0.040
0.204 -0.108 0.040
0.206 -0.106 0.040
0.210 -0.107 0.041
0.214 -0.106 0.042
0.220 -0.107 0.043
0.215 -0.102 0.042
0.205 -0.095 0.040
0.208 -0.095 0.040
0.210 -0.093 0.041
0.205 -0.089 0.040
0.212 -0.090 0.041
0.197 -0.082 0.038
0.213 -0.086 0.041
0.207 -0.082 0.040
0.212 -0.082 0.041
0.219 -0.082 0.042
0.223 -0.082 0.043
0.222 -0.079 0.043
0.226 -0.078 0.043
0.226 -0.076 0.043
0.230 -0.075 0.044
0.234 -0.074 0.044
0.239 -0.074 0.046
0.243 -0.073 0.046
0.249 -0.072 0.047
0.254 -0.071 0.048
0.370 -0.100 0.070
0.380 -0.099 0.072
0.387 -0.097 0.073
0.388 -0.094 0.073
0.386 -0.090 0.073
0.381 -0.085 0.072
0.377 -0.081 0.071
0.377 -0.077 0.071
0.375 -0.073 0.070
0.294 -0.050 0.055
0.282 -0.045 0.053
0.283 -0.042 0.053
0.282 -0.040 0.053
0.283 -0.037 0.053
0.291 -0.036 0.054
0.287 -0.033 0.054
0.286 -0.030 0.054
0.286 -0.027 0.053
0.289 -0.025 0.054
0.291 -0.022 0.054
0.288 -0.020 0.054
0.288 -0.017 0.054
0.291 -0.015 0.054
0.296 -0.012 0.055
0.294 -0.009 0.055
0.292 -0.007 0.054
0.293 -0.004 0.055
0.289 -0.001 0.054
0.291 0.001 0.054
0.293 0.004 0.055
0.294 0.007 0.055
0.294 0.009 0.055
0.290 0.012 0.054
0.295 0.015 0.055
0.296 0.017 0.055
0.297 0.020 0.055
0.298 0.023 0.056
0.299 0.026 0.056
0.293 0.028 0.055
0.295 0.031 0.055
0.299 0.034 0.056
0.291 0.036 0.055
0.302 0.040 0.057
0.301 0.042 0.056
0.302 0.045 0.057
0.300 0.048 0.056
0.297 0.050 0.056
0.303 0.054 0.057
0.296 0.055 0.056
0.296 0.058 0.056
0.296 0.061 0.056
0.307 0.066 0.058
0.308 0.069 0.058
0.312 0.073 0.059
0.309 0.075 0.058
0.300 0.076 0.057
0.295 0.077 0.056
0.303 0.082 0.058
0.305 0.086 0.058
0.302 0.088 0.057
0.293 0.088 0.056
0.293 0.091 0.056
0.293 0.094 0.056
0.290 0.095 0.055
0.280 0.095 0.054
0.276 0.096 0.053
0.273 0.098 0.053
0.278 0.103 0.054
0.297 0.113 0.057
0.305 0.118 0.059
0.317 0.126 0.061
0.327 0.134 0.063
0.329 0.138 0.064
0.325 0.140 0.063
0.325 0.143 0.063
0.334 0.150 0.065
0.355 0.164 0.070
0.356 0.168 0.070
0.359 0.173 0.071
0.355 0.174 0.070
0.349 0.175 0.069
0.344 0.177 0.068
0.342 0.179 0.068
0.337 0.181 0.067
0.334 0.182 0.067
0.325 0.181 0.065
0.319 0.181 0.064
0.314 0.182 0.063
0.308 0.182 0.062
0.303 0.182 0.061
0.300 0.184 0.061
0.294 0.184 0.060
0.289 0.184 0.059
0.286 0.186 0.059
0.282 0.187 0.058
0.278 0.187 0.057
0.271 0.186 0.056
0.267 0.186 0.055
0.264 0.188 0.055
0.262 0.190 0.055
0.261 0.192 0.055
0.260 0.195 0.055
0.261 0.199 0.055
0.261 0.202 0.055
0.260 0.205 0.055
0.260 0.208 0.056
0.260 0.212 0.056
0.259 0.215 0.056
0.259 0.218 0.056
0.258 0.222 0.056
0.257 0.224 0.056
0.258 0.229 0.057
0.257 0.232 0.057
0.257 0.236 0.057
0.256 0.239 0.057
0.256 0.243 0.058
0.256 0.248 0.058
0.255 0.251 0.058
0.254 0.254 0.058
0.257 0.261 0.059
0.257 0.266 0.060
0.260 0.273 0.061
0.261 0.279 0.061
0.265 0.288 0.063
0.265 0.293 0.063
0.266 0.299 0.064
0.266 0.304 0.064
0.269 0.312 0.065
0.276 0.326 0.067
0.282 0.338 0.069
0.279 0.340 0.069
0.287 0.355 0.072
0.283 0.356 0.071
0.277 0.354 0.070
0.271 0.352 0.069
0.231 0.305 0.059
0.101 -0.141 0.027
0.106 -0.146 0.028
0.105 -0.142 0.028
0.105 -0.140 0.028
0.106 -0.139 0.028
0.106 -0.138 0.028
0.106 -0.136 0.027
0.106 -0.134 0.027
0.112 -0.139 0.029
0.116 -0.143 0.030
0.125 -0.152 0.032
0.131 -0.156 0.033
0.288 -0.324 0.071
0.289 -0.321 0.071
0.293 -0.320 0.071
0.293 -0.315 0.071
0.293 -0.310 0.071
0.294 -0.307 0.070
0.294 -0.302 0.070
0.293 -0.297 0.070
0.291 -0.290 0.069
0.293 -0.287 0.069
0.291 -0.281 0.068
0.292 -0.277 0.068
0.291 -0.272 0.067
0.291 -0.268 0.067
0.289 -0.262 0.066
0.289 -0.258 0.066
0.289 -0.254 0.066
0.289 -0.250 0.065
0.289 -0.246 0.065
0.286 -0.240 0.064
0.286 -0.236 0.064
0.285 -0.231 0.063
0.277 -0.221 0.061
0.265 -0.208 0.058
0.213 -0.162 0.047
0.207 -0.154 0.045
0.206 -0.151 0.045
0.206 -0.149 0.045
0.210 -0.149 0.045
0.212 -0.148 0.046
0.211 -0.145 0.045
0.211 -0.142 0.045
0.209 -0.138 0.045
0.211 -0.137 0.045
0.213 -0.136 0.045
0.217 -0.137 0.046
0.215 -0.132 0.045
0.214 -0.130 0.045
0.212 -0.126 0.045
0.210 -0.122 0.044
0.210 -0.120 0.044
0.210 -0.118 0.044
0.209 -0.115 0.044
0.209 -0.113 0.043
0.203 -0.107 0.042
0.206 -0.107 0.042
0.207 -0.105 0.043
0.217 -0.108 0.045
0.219 -0.107 0.045
0.219 -0.104 0.045
0.210 -0.098 0.043
0.200 -0.091 0.041
0.212 -0.094 0.043
0.214 -0.093 0.043
0.214 -0.089 0.043
0.199 -0.081 0.040
0.213 -0.084 0.043
0.210 -0.081 0.042
0.209 -0.079 0.042
0.226 -0.080 0.045
0.227 -0.079 0.046
0.229 -0.077 0.046
0.222 -0.073 0.044
0.230 -0.073 0.046
0.237 -0.073 0.047
0.244 -0.073 0.049
0.250 -0.072 0.050
0.255 -0.072 0.051
0.363 -0.098 0.072
0.372 -0.097 0.074
0.378 -0.095 0.075
0.379 -0.092 0.075
0.382 -0.089 0.076
0.369 -0.083 0.073
0.369 -0.079 0.073
0.372 -0.076 0.073
0.356 -0.070 0.070
0.351 -0.065 0.069
0.289 -0.049 0.057
0.287 -0.046 0.056
0.282 -0.042 0.056
0.282 -0.040 0.055
0.283 -0.037 0.056
0.287 -0.035 0.056
0.288 -0.033 0.057
0.285 -0.030 0.056
0.288 -0.027 0.056
0.291 -0.025 0.057
0.293 -0.023 0.057
0.292 -0.020 0.057
0.290 -0.017 0.057
0.291 -0.015 0.057
0.291 -0.012 0.057
0.290 -0.009 0.057
0.287 -0.007 0.056
0.288 -0.004 0.056
0.287 -0.001 0.056
0.291 0.001 0.057
0.292 0.004 0.057
0.294 0.007 0.057
0.285 0.009 0.056
0.288 0.012 0.056
0.292 0.015 0.057
0.296 0.017 0.058
0.301 0.020 0.059
0.304 0.023 0.060
0.299 0.026 0.059
0.294 0.028 0.058
0.290 0.030 0.057
0.299 0.034 0.059
0.305 0.037 0.060
0.306 0.040 0.060
0.305 0.043 0.060
0.300 0.045 0.059
0.297 0.047 0.059
0.296 0.050 0.058
0.296 0.053 0.058
0.290 0.054 0.057
0.290 0.057 0.057
0.295 0.061 0.058
0.295 0.063 0.058
0.298 0.067 0.059
0.303 0.071 0.060
0.303 0.074 0.060
0.297 0.075 0.059
0.294 0.077 0.058
0.296 0.081 0.059
0.312 0.088 0.062
0.307 0.089 0.061
0.289 0.087 0.058
0.289 0.090 0.058
0.296 0.095 0.059
0.299 0.099 0.060
0.290 0.098 0.058
0.287 0.100 0.058
0.283 0.102 0.057
0.279 0.103 0.056
0.329 0.135 0.067
0.333 0.139 0.068
0.327 0.141 0.067
0.320 0.141 0.065
0.318 0.143 0.065
0.322 0.149 0.066
0.330 0.156 0.068
0.341 0.168 0.071
0.340 0.171 0.071
0.338 0.174 0.070
0.335 0.176 0.070
0.334 0.179 0.070
0.329 0.180 0.069
0.322 0.180 0.068
0.318 0.181 0.067
0.316 0.183 0.067
0.309 0.183 0.065
0.303 0.182 0.064
0.299 0.184 0.064
0.294 0.184 0.063
0.288 0.184 0.062
0.285 0.185 0.061
0.281 0.186 0.061
0.277 0.187 0.060
0.269 0.185 0.059
0.266 0.186 0.058
0.264 0.188 0.058
0.263 0.190 0.058
0.262 0.193 0.058
0.260 0.195 0.058
0.259 0.198 0.058
0.261 0.202 0.058
0.261 0.206 0.058
0.261 0.209 0.059
0.259 0.212 0.059
0.259 0.216 0.059
0.259 0.219 0.059
0.257 0.221 0.059
0.258 0.226 0.059
0.258 0.229 0.060
0.257 0.232 0.060
0.255 0.235 0.060
0.255 0.239 0.060
0.256 0.244 0.061
0.256 0.247 0.061
0.255 0.250 0.061
0.257 0.257 0.062
0.252 0.256 0.061
0.254 0.262 0.062
0.257 0.270 0.063
0.264 0.283 0.065
0.267 0.290 0.066
0.269 0.297 0.067
0.264 0.297 0.066
0.258 0.295 0.065
0.263 0.306 0.067
0.273 0.322 0.070
0.274 0.329 0.071
0.199 0.254 0.053
0.190 0.247 0.051
0.187 0.247 0.050
0.114 -0.158 0.032
0.111 -0.153 0.031
0.112 -0.152 0.031
0.114 -0.153 0.031
0.116 -0.154 0.032
0.115 -0.150 0.031
0.112 -0.144 0.030
0.113 -0.144 0.031
0.114 -0.143 0.031
0.117 -0.145 0.031
0.118 -0.143 0.031
0.127 -0.152 0.034
0.131 -0.155 0.034
0.135 -0.156 0.035
0.288 -0.316 0.074
0.290 -0.312 0.074
0.292 -0.310 0.074
0.293 -0.306 0.074
0.292 -0.300 0.073
0.292 -0.296 0.072
0.292 -0.291 0.072
0.291 -0.286 0.072
0.293 -0.284 0.072
0.292 -0.278 0.071
0.291 -0.273 0.070
0.291 -0.268 0.070
0.291 -0.264 0.070
0.289 -0.259 0.069
0.289 -0.254 0.069
0.289 -0.250 0.068
0.288 -0.245 0.068
0.287 -0.241 0.068
0.286 -0.236 0.067
0.286 -0.232 0.067
0.277 -0.221 0.064
0.207 -0.157 0.048
0.205 -0.153 0.047
0.203 -0.149 0.046
0.202 -0.146 0.046
0.204 -0.145 0.046
0.208 -0.145 0.047
0.209 -0.144 0.047
0.208 -0.140 0.047
0.207 -0.137 0.046
0.208 -0.136 0.046
0.214 -0.137 0.048
0.220 -0.139 0.049
0.221 -0.136 0.049
0.217 -0.131 0.048
0.217 -0.129 0.048
0.213 -0.124 0.047
0.207 -0.118 0.045
0.211 -0.119 0.046
0.211 -0.116 0.046
0.207 -0.112 0.045
0.205 -0.108 0.044
0.203 -0.105 0.044
0.214 -0.109 0.046
0.210 -0.104 0.045
0.217 -0.106 0.047
0.215 -0.103 0.046
0.210 -0.098 0.045
0.210 -0.096 0.045
0.211 -0.094 0.045
0.214 -0.093 0.046
0.215 -0.092 0.046
0.211 -0.088 0.045
0.212 -0.086 0.045
0.207 -0.082 0.044
0.211 -0.082 0.045
0.214 -0.080 0.045
0.217 -0.080 0.046
0.222 -0.079 0.047
0.226 -0.079 0.048
0.222 -0.075 0.047
0.226 -0.074 0.047
0.229 -0.073 0.048
0.238 -0.073 0.050
0.246 -0.073 0.051
0.251 -0.073 0.052
0.260 -0.073 0.054
0.361 -0.094 0.075
0.368 -0.093 0.076
0.369 -0.089 0.076
0.360 -0.084 0.074
0.361 -0.081 0.075
0.353 -0.076 0.073
0.345 -0.071 0.071
0.360 -0.070 0.074
0.294 -0.049 0.061
0.284 -0.045 0.058
0.283 -0.042 0.058
0.281 -0.040 0.058
0.282 -0.037 0.058
0.288 -0.035 0.059
0.286 -0.032 0.059
0.285 -0.030 0.058
0.287 -0.027 0.059
0.291 -0.025 0.060
0.293 -0.023 0.060
0.292 -0.020 0.060
0.289 -0.017 0.059
0.288 -0.014 0.059
0.289 -0.012 0.059
0.290 -0.009 0.059
0.286 -0.007 0.059
0.288 -0.004 0.059
0.294 -0.001 0.060
0.293 0.001 0.060
0.298 0.004 0.061
0.292 0.007 0.060
0.293 0.009 0.060
0.294 0.012 0.060
0.295 0.015 0.061
0.298 0.018 0.061
0.305 0.021 0.063
0.307 0.024 0.063
0.300 0.026 0.062
0.295 0.028 0.061
0.299 0.031 0.061
0.291 0.033 0.060
0.303 0.037 0.062
0.318 0.042 0.066
0.296 0.042 0.061
0.291 0.044 0.060
0.299 0.048 0.062
0.292 0.049 0.060
0.292 0.052 0.060
0.300 0.056 0.062
0.302 0.059 0.063
0.295 0.061 0.061
0.295 0.063 0.061
0.288 0.065 0.060
0.295 0.069 0.061
0.300 0.073 0.062
0.296 0.075 0.062
0.292 0.077 0.061
0.297 0.081 0.062
0.308 0.087 0.064
0.305 0.089 0.064
0.296 0.089 0.062
0.291 0.090 0.061
0.303 0.097 0.064
0.297 0.098 0.062
0.301 0.102 0.063
0.300 0.105 0.063
0.296 0.106 0.062
0.280 0.103 0.059
0.279 0.111 0.059
0.324 0.133 0.069
0.333 0.140 0.071
0.331 0.142 0.071
0.317 0.140 0.068
0.320 0.144 0.069
0.324 0.149 0.070
0.320 0.151 0.069
0.319 0.154 0.069
0.321 0.158 0.070
0.322 0.162 0.070
0.326 0.167 0.071
0.326 0.171 0.071
0.324 0.174 0.071
0.325 0.178 0.071
0.317 0.177 0.070
0.315 0.179 0.069
0.312 0.181 0.069
0.308 0.183 0.068
0.304 0.183 0.068
0.300 0.184 0.067
0.293 0.183 0.065
0.288 0.184 0.065
0.284 0.185 0.064
0.280 0.185 0.063
0.276 0.186 0.062
0.268 0.185 0.061
0.265 0.185 0.060
0.263 0.187 0.060
0.263 0.191 0.060
0.262 0.194 0.061
0.261 0.196 0.061
0.260 0.199 0.061
0.260 0.202 0.061
0.260 0.205 0.061
0.260 0.209 0.061
0.260 0.213 0.061
0.259 0.216 0.062
0.259 0.219 0.062
0.258 0.222 0.062
0.258 0.226 0.062
0.256 0.228 0.062
0.256 0.232 0.062
0.255 0.235 0.062
0.254 0.238 0.063
0.255 0.243 0.063
0.257 0.249 0.064
0.257 0.253 0.064
0.250 0.251 0.063
0.247 0.251 0.062
0.244 0.253 0.062
0.257 0.270 0.066
0.264 0.283 0.068
0.263 0.287 0.068
0.192 0.239 0.053
0.192 0.242 0.053
0.196 0.251 0.054
0.186 0.242 0.052
0.184 0.243 0.052
0.113 -0.157 0.033
0.112 -0.154 0.032
0.112 -0.153 0.033
0.114 -0.152 0.033
0.113 -0.149 0.032
0.112 -0.146 0.032
0.111 -0.143 0.032
0.112 -0.142 0.032
0.117 -0.146 0.033
0.115 -0.142 0.032
0.118 -0.144 0.033
0.121 -0.145 0.033
0.127 -0.150 0.035
0.130 -0.151 0.035
0.135 -0.154 0.037
0.290 -0.308 0.077
0.290 -0.303 0.076
0.289 -0.298 0.075
0.290 -0.294 0.075
0.290 -0.289 0.075
0.289 -0.284 0.074
0.291 -0.282 0.074
0.291 -0.278 0.074
0.291 -0.273 0.074
0.291 -0.269 0.073
0.291 -0.264 0.073
0.290 -0.260 0.073
0.290 -0.256 0.072
0.288 -0.250 0.071
0.288 -0.246 0.071
0.287 -0.241 0.070
0.286 -0.236 0.070
0.285 -0.232 0.070
0.273 -0.219 0.066
0.266 -0.209 0.064
0.202 -0.154 0.048
0.200 -0.150 0.048
0.201 -0.148 0.048
0.203 -0.147 0.048
0.203 -0.144 0.048
0.202 -0.142 0.048
0.204 -0.140 0.048
0.204 -0.138 0.048
0.205 -0.136 0.048
0.208 -0.135 0.048
0.215 -0.138 0.050
0.215 -0.135 0.050
0.214 -0.132 0.049
0.215 -0.130 0.049
0.214 -0.127 0.049
0.210 -0.123 0.048
0.204 -0.117 0.047
0.205 -0.116 0.047
0.211 -0.116 0.048
0.205 -0.111 0.047
0.201 -0.107 0.046
0.205 -0.106 0.046
0.204 -0.104 0.046
0.206 -0.103 0.046
0.213 -0.104 0.048
0.212 -0.101 0.048
0.204 -0.095 0.046
0.203 -0.093 0.045
0.199 -0.089 0.044
0.204 -0.089 0.045
0.206 -0.088 0.046
0.201 -0.084 0.045
0.206 -0.084 0.046
0.206 -0.082 0.045
0.210 -0.081 0.046
0.207 -0.078 0.046
0.211 -0.077 0.046
0.212 -0.076 0.047
0.220 -0.076 0.048
0.220 -0.074 0.048
0.227 -0.074 0.050
0.226 -0.072 0.049
0.230 -0.071 0.050
0.247 -0.074 0.054
0.253 -0.073 0.055
0.258 -0.072 0.056
0.352 -0.092 0.076
0.358 -0.090 0.078
0.358 -0.087 0.078
0.355 -0.083 0.077
0.346 -0.078 0.075
0.340 -0.073 0.073
0.335 -0.069 0.072
0.338 -0.066 0.073
0.349 -0.065 0.075
0.291 -0.049 0.063
0.278 -0.044 0.060
0.279 -0.042 0.060
0.282 -0.040 0.061
0.283 -0.037 0.061
0.285 -0.035 0.061
0.287 -0.033 0.062
0.286 -0.030 0.061
0.288 -0.027 0.062
0.289 -0.025 0.062
0.290 -0.022 0.062
0.290 -0.020 0.062
0.287 -0.017 0.061
0.284 -0.014 0.061
0.287 -0.012 0.061
0.288 -0.009 0.062
0.290 -0.007 0.062
0.292 -0.004 0.062
0.286 -0.001 0.061
0.303 0.001 0.065
0.301 0.004 0.064
0.298 0.007 0.064
0.298 0.009 0.064
0.303 0.012 0.065
0.297 0.015 0.064
0.299 0.018 0.064
0.303 0.021 0.065
0.303 0.023 0.065
0.301 0.026 0.065
0.299 0.029 0.064
0.289 0.030 0.062
0.288 0.033 0.062
0.281 0.035 0.060
0.313 0.041 0.067
0.326 0.046 0.070
0.312 0.047 0.067
0.293 0.047 0.063
0.286 0.048 0.062
0.299 0.053 0.065
0.301 0.057 0.065
0.301 0.059 0.065
0.292 0.060 0.063
0.288 0.062 0.062
0.283 0.064 0.061
0.286 0.067 0.062
0.292 0.071 0.063
0.288 0.073 0.063
0.290 0.076 0.063
0.295 0.080 0.064
0.298 0.084 0.065
0.300 0.088 0.066
0.294 0.089 0.064
0.295 0.092 0.065
0.294 0.094 0.065
0.298 0.098 0.065
0.305 0.104 0.067
0.309 0.108 0.068
0.303 0.109 0.067
0.299 0.110 0.066
0.302 0.115 0.067
0.285 0.111 0.063
0.271 0.108 0.060
0.318 0.140 0.071
0.323 0.146 0.072
0.327 0.151 0.074
0.321 0.151 0.072
0.316 0.153 0.071
0.313 0.155 0.071
0.311 0.157 0.071
0.312 0.161 0.071
0.315 0.166 0.072
0.318 0.171 0.073
0.318 0.174 0.073
0.309 0.173 0.071
0.306 0.174 0.070
0.306 0.178 0.071
0.305 0.181 0.071
0.303 0.183 0.070
0.299 0.184 0.070
0.295 0.185 0.069
0.287 0.183 0.067
0.281 0.183 0.066
0.279 0.185 0.066
0.274 0.185 0.065
0.269 0.185 0.064
0.264 0.185 0.063
0.263 0.187 0.063
0.263 0.191 0.063
0.262 0.194 0.063
0.261 0.196 0.063
0.261 0.199 0.063
0.259 0.202 0.063
0.259 0.205 0.063
0.259 0.208 0.064
0.259 0.212 0.064
0.258 0.215 0.064
0.258 0.219 0.064
0.258 0.222 0.065
0.256 0.225 0.065
0.255 0.227 0.065
0.255 0.231 0.065
0.254 0.234 0.065
0.255 0.240 0.066
0.255 0.243 0.066
0.251 0.244 0.065
0.249 0.246 0.065
0.248 0.249 0.065
0.241 0.246 0.064
0.233 0.242 0.062
0.203 0.229 0.056
0.198 0.227 0.055
0.198 0.231 0.055
0.196 0.232 0.055
0.195 0.235 0.055
0.190 0.232 0.054
0.183 0.228 0.052
0.192 0.243 0.055
0.194 0.249 0.056
0.194 0.253 0.057
0.231 0.305 0.068
0.098 -0.136 0.030
0.098 -0.135 0.030
0.099 -0.135 0.030
0.099 -0.133 0.030
0.099 -0.131 0.030
0.100 -0.130 0.030
0.100 -0.129 0.030
0.100 -0.128 0.030
0.101 -0.126 0.029
0.101 -0.124 0.029
0.101 -0.123 0.029
0.102 -0.122 0.029
0.103 -0.121 0.029
0.108 -0.126 0.031
0.119 -0.133 0.033
0.121 -0.133 0.034
0.131 -0.142 0.036
0.277 -0.286 0.076
0.283 -0.288 0.077
0.283 -0.283 0.076
0.286 -0.282 0.077
0.288 -0.279 0.077
0.290 -0.276 0.077
0.290 -0.273 0.077
0.291 -0.269 0.076
0.291 -0.265 0.076
0.289 -0.259 0.075
0.289 -0.255 0.075
0.290 -0.251 0.075
0.287 -0.246 0.074
0.287 -0.242 0.074
0.284 -0.235 0.073
0.279 -0.227 0.071
0.273 -0.218 0.069
0.200 -0.152 0.050
0.197 -0.148 0.049
0.201 -0.148 0.050
0.203 -0.147 0.050
0.202 -0.144 0.050
0.200 -0.140 0.049
0.200 -0.138 0.049
0.202 -0.137 0.049
0.205 -0.136 0.050
0.210 -0.137 0.051
0.209 -0.134 0.051
0.210 -0.132 0.051
0.211 -0.131 0.051
0.210 -0.128 0.051
0.208 -0.124 0.050
0.201 -0.118 0.048
0.200 -0.115 0.048
0.204 -0.115 0.049
0.202 -0.111 0.048
0.207 -0.112 0.049
0.207 -0.110 0.049
0.177 -0.090 0.042
0.175 -0.087 0.041
0.173 -0.084 0.041
0.172 -0.082 0.040
0.172 -0.080 0.040
0.174 -0.079 0.040
0.175 -0.078 0.041
0.176 -0.077 0.041
0.177 -0.075 0.041
0.178 -0.074 0.041
0.181 -0.073 0.042
0.186 -0.074 0.043
0.191 -0.074 0.044
0.208 -0.078 0.048
0.211 -0.077 0.048
0.214 -0.076 0.049
0.215 -0.075 0.049
0.222 -0.075 0.051
0.223 -0.073 0.051
0.226 -0.072 0.052
0.234 -0.072 0.053
0.248 -0.074 0.056
0.253 -0.073 0.058
0.340 -0.089 0.077
0.345 -0.087 0.078
0.347 -0.084 0.078
0.345 -0.081 0.078
0.340 -0.076 0.077
0.332 -0.071 0.075
0.330 -0.068 0.074
0.330 -0.065 0.074
0.329 -0.062 0.074
0.320 -0.057 0.072
0.277 -0.044 0.062
0.277 -0.042 0.062
0.282 -0.040 0.063
0.283 -0.037 0.063
0.283 -0.035 0.063
0.286 -0.033 0.064
0.290 -0.030 0.065
0.289 -0.028 0.065
0.285 -0.025 0.064
0.284 -0.022 0.064
0.286 -0.020 0.064
0.286 -0.017 0.064
0.285 -0.014 0.064
0.284 -0.012 0.063
0.288 -0.009 0.064
0.290 -0.007 0.065
0.291 -0.004 0.065
0.295 -0.001 0.066
0.296 0.001 0.066
0.297 0.004 0.066
0.298 0.007 0.067
0.289 0.009 0.065
0.288 0.012 0.064
0.298 0.015 0.067
0.298 0.018 0.067
0.296 0.020 0.066
0.300 0.023 0.067
0.296 0.026 0.066
0.288 0.028 0.065
0.292 0.031 0.065
0.282 0.032 0.063
0.277 0.034 0.062
0.281 0.037 0.063
0.317 0.045 0.071
0.307 0.046 0.069
0.293 0.047 0.066
0.296 0.050 0.067
0.304 0.054 0.069
0.303 0.057 0.068
0.292 0.058 0.066
0.284 0.059 0.064
0.287 0.062 0.065
0.285 0.064 0.065
0.285 0.067 0.065
0.288 0.076 0.065
0.290 0.079 0.066
0.292 0.082 0.067
0.288 0.084 0.066
0.286 0.086 0.065
0.296 0.092 0.068
0.299 0.096 0.068
0.298 0.099 0.068
0.306 0.104 0.070
0.315 0.110 0.072
0.306 0.110 0.071
0.300 0.111 0.069
0.296 0.113 0.068
0.290 0.113 0.067
0.295 0.118 0.068
0.285 0.117 0.066
0.311 0.137 0.073
0.319 0.144 0.075
0.320 0.148 0.075
0.320 0.151 0.075
0.316 0.153 0.075
0.310 0.153 0.073
0.304 0.153 0.072
0.302 0.156 0.072
0.307 0.161 0.073
0.311 0.167 0.074
0.310 0.170 0.074
0.310 0.173 0.074
0.302 0.173 0.073
0.300 0.175 0.072
0.300 0.178 0.073
0.300 0.181 0.073
0.297 0.183 0.072
0.291 0.183 0.071
0.286 0.183 0.070
0.280 0.183 0.069
0.276 0.184 0.068
0.274 0.185 0.068
0.266 0.184 0.066
0.264 0.185 0.066
0.263 0.188 0.066
0.262 0.190 0.066
0.261 0.193 0.066
0.261 0.196 0.066
0.260 0.199 0.066
0.260 0.202 0.066
0.258 0.205 0.066
0.258 0.208 0.066
0.258 0.212 0.067
0.256 0.214 0.067
0.254 0.216 0.066
0.252 0.218 0.066
0.254 0.223 0.067
0.255 0.228 0.067
0.256 0.232 0.068
0.255 0.236 0.068
0.248 0.233 0.067
0.246 0.236 0.067
0.240 0.234 0.065
0.239 0.236 0.065
0.240 0.242 0.066
0.228 0.233 0.063
0.230 0.240 0.064
0.216 0.228 0.060
0.203 0.218 0.057
0.200 0.219 0.057
0.201 0.223 0.057
0.197 0.222 0.056
0.194 0.223 0.056
0.192 0.224 0.056
0.193 0.229 0.056
0.193 0.232 0.057
0.200 0.245 0.059
0.248 0.328 0.076
0.099 -0.136 0.031
0.099 -0.135 0.031
0.100 -0.134 0.031
0.099 -0.132 0.031
0.100 -0.130 0.031
0.100 -0.129 0.031
0.099 -0.127 0.030
0.100 -0.126 0.031
0.101 -0.125 0.031
0.101 -0.123 0.031
0.102 -0.122 0.030
0.102 -0.121 0.030
0.101 -0.118 0.030
0.101 -0.116 0.030
0.102 -0.115 0.030
0.118 -0.132 0.035
0.119 -0.131 0.034
0.120 -0.130 0.035
0.270 -0.279 0.077
0.273 -0.278 0.077
0.275 -0.276 0.077
0.279 -0.275 0.078
0.281 -0.273 0.078
0.280 -0.267 0.077
0.278 -0.262 0.077
0.286 -0.265 0.078
0.288 -0.263 0.079
0.284 -0.255 0.077
0.286 -0.252 0.077
0.287 -0.250 0.077
0.286 -0.244 0.077
0.284 -0.239 0.076
0.280 -0.232 0.074
0.277 -0.226 0.073
0.271 -0.217 0.072
0.202 -0.154 0.053
0.201 -0.150 0.052
0.206 -0.152 0.053
0.206 -0.150 0.053
0.204 -0.145 0.052
0.199 -0.140 0.051
0.200 -0.138 0.051
0.201 -0.136 0.051
0.209 -0.139 0.053
0.206 -0.135 0.052
0.208 -0.134 0.053
0.209 -0.132 0.053
0.208 -0.129 0.052
0.206 -0.125 0.052
0.214 -0.127 0.053
0.209 -0.122 0.052
0.205 -0.118 0.051
0.212 -0.120 0.053
0.199 -0.110 0.049
0.170 -0.092 0.042
0.168 -0.089 0.041
0.169 -0.088 0.041
0.170 -0.087 0.042
0.172 -0.082 0.042
0.172 -0.081 0.042
0.173 -0.079 0.042
0.174 -0.078 0.042
0.175 -0.077 0.042
0.176 -0.075 0.043
0.178 -0.074 0.043
0.179 -0.073 0.043
0.180 -0.071 0.043
0.180 -0.070 0.043
0.182 -0.069 0.043
0.186 -0.068 0.044
0.188 -0.067 0.045
0.210 -0.073 0.050
0.218 -0.074 0.052
0.224 -0.074 0.053
0.230 -0.073 0.055
0.235 -0.073 0.056
0.247 -0.074 0.058
0.256 -0.074 0.060
0.267 -0.075 0.063
0.336 -0.088 0.079
0.333 -0.084 0.079
0.333 -0.081 0.078
0.332 -0.078 0.078
0.325 -0.073 0.076
0.328 -0.071 0.077
0.328 -0.067 0.077
0.325 -0.064 0.076
0.315 -0.059 0.074
0.310 -0.055 0.073
0.300 -0.051 0.070
0.282 -0.045 0.066
0.281 -0.042 0.066
0.283 -0.040 0.066
0.283 -0.037 0.066
0.284 -0.035 0.066
0.287 -0.033 0.067
0.288 -0.030 0.067
0.284 -0.027 0.066
0.280 -0.024 0.065
0.281 -0.022 0.066
0.288 -0.020 0.067
0.290 -0.017 0.067
0.287 -0.014 0.067
0.288 -0.012 0.067
0.286 -0.009 0.066
0.286 -0.007 0.067
0.287 -0.004 0.067
0.291 -0.001 0.068
0.291 0.001 0.068
0.292 0.004 0.068
0.285 0.006 0.066
0.281 0.009 0.066
0.284 0.012 0.066
0.289 0.014 0.067
0.295 0.017 0.069
0.292 0.020 0.068
0.288 0.022 0.067
0.285 0.025 0.066
0.288 0.028 0.067
0.285 0.030 0.067
0.287 0.033 0.067
0.284 0.035 0.066
0.283 0.037 0.066
0.287 0.041 0.067
0.294 0.044 0.069
0.298 0.048 0.070
0.299 0.051 0.070
0.304 0.054 0.071
0.300 0.056 0.070
0.285 0.056 0.067
0.286 0.059 0.067
0.288 0.062 0.068
0.289 0.065 0.068
0.296 0.069 0.070
0.284 0.072 0.067
0.286 0.075 0.068
0.285 0.078 0.068
0.281 0.079 0.067
0.280 0.082 0.066
0.295 0.089 0.070
0.303 0.094 0.072
0.298 0.096 0.071
0.298 0.099 0.071
0.310 0.106 0.074
0.303 0.106 0.073
0.301 0.108 0.072
0.298 0.111 0.072
0.297 0.113 0.071
0.297 0.116 0.072
0.301 0.121 0.073
0.300 0.123 0.073
0.291 0.122 0.071
0.278 0.120 0.068
0.283 0.125 0.069
0.307 0.139 0.075
0.308 0.142 0.075
0.309 0.146 0.076
0.308 0.149 0.076
0.301 0.149 0.074
0.294 0.148 0.072
0.297 0.153 0.073
0.300 0.158 0.074
0.303 0.163 0.075
0.304 0.167 0.076
0.302 0.169 0.075
0.298 0.170 0.075
0.296 0.173 0.074
0.294 0.175 0.074
0.292 0.177 0.074
0.289 0.178 0.073
0.285 0.179 0.072
0.281 0.180 0.072
0.278 0.182 0.071
0.275 0.183 0.071
0.271 0.184 0.070
0.267 0.184 0.069
0.264 0.186 0.069
0.262 0.188 0.068
0.261 0.190 0.068
0.261 0.193 0.068
0.260 0.196 0.069
0.260 0.200 0.069
0.259 0.202 0.069
0.259 0.206 0.069
0.259 0.209 0.069
0.257 0.211 0.069
0.256 0.214 0.069
0.254 0.216 0.069
0.253 0.219 0.069
0.254 0.224 0.070
0.255 0.228 0.070
0.253 0.230 0.070
0.244 0.226 0.068
0.239 0.225 0.067
0.237 0.227 0.067
0.233 0.227 0.066
0.225 0.223 0.064
0.221 0.223 0.063
0.215 0.220 0.062
0.210 0.218 0.061
0.204 0.216 0.060
0.198 0.213 0.058
0.196 0.214 0.058
0.198 0.221 0.059
0.199 0.226 0.060
0.198 0.228 0.060
0.219 0.260 0.067
0.227 0.275 0.070
0.225 0.281 0.070
0.212 0.281 0.067
0.099 -0.136 0.032
0.100 -0.136 0.033
0.100 -0.134 0.032
0.101 -0.134 0.033
0.100 -0.132 0.032
0.101 -0.130 0.032
0.101 -0.129 0.032
0.101 -0.127 0.032
0.102 -0.126 0.032
0.103 -0.126 0.032
0.102 -0.122 0.032
0.101 -0.120 0.031
0.101 -0.118 0.031
0.101 -0.117 0.031
0.102 -0.115 0.031
0.102 -0.114 0.031
0.117 -0.129 0.035
0.109 -0.118 0.033
0.109 -0.117 0.033
0.269 -0.274 0.079
0.272 -0.273 0.080
0.276 -0.273 0.080
0.278 -0.271 0.081
0.279 -0.267 0.080
0.277 -0.261 0.079
0.278 -0.258 0.079
0.283 -0.259 0.080
0.283 -0.254 0.080
0.280 -0.247 0.079
0.282 -0.246 0.079
0.282 -0.241 0.079
0.281 -0.237 0.078
0.280 -0.232 0.078
0.278 -0.227 0.077
0.267 -0.215 0.073
0.207 -0.158 0.056
0.203 -0.152 0.055
0.201 -0.149 0.054
0.206 -0.150 0.055
0.203 -0.145 0.054
0.199 -0.140 0.053
0.199 -0.137 0.053
0.207 -0.141 0.055
0.205 -0.137 0.054
0.210 -0.137 0.055
0.210 -0.135 0.055
0.209 -0.132 0.055
0.207 -0.128 0.054
0.204 -0.124 0.053
0.204 -0.122 0.053
0.215 -0.126 0.056
0.169 -0.095 0.044
0.169 -0.093 0.043
0.168 -0.091 0.043
0.168 -0.090 0.043
0.169 -0.088 0.043
0.169 -0.086 0.043
0.171 -0.085 0.043
0.173 -0.085 0.044
0.175 -0.084 0.044
0.184 -0.086 0.046
0.187 -0.086 0.047
0.193 -0.085 0.049
0.188 -0.080 0.047
0.186 -0.078 0.047
0.182 -0.074 0.046
0.182 -0.072 0.045
0.180 -0.070 0.045
0.181 -0.069 0.045
0.184 -0.068 0.046
0.186 -0.066 0.046
0.186 -0.065 0.046
0.190 -0.064 0.047
0.198 -0.065 0.049
0.228 -0.073 0.056
0.236 -0.073 0.058
0.248 -0.074 0.061
0.247 -0.072 0.061
0.251 -0.070 0.062
0.317 -0.083 0.078
0.324 -0.082 0.080
0.325 -0.079 0.080
0.321 -0.075 0.079
0.319 -0.072 0.078
0.320 -0.069 0.078
0.321 -0.066 0.078
0.316 -0.062 0.077
0.309 -0.058 0.075
0.300 -0.053 0.073
0.290 -0.049 0.070
0.283 -0.045 0.069
0.280 -0.042 0.068
0.279 -0.039 0.068
0.280 -0.037 0.068
0.283 -0.035 0.069
0.284 -0.032 0.069
0.282 -0.030 0.068
0.275 -0.026 0.067
0.281 -0.024 0.068
0.285 -0.022 0.069
0.288 -0.020 0.070
0.291 -0.017 0.070
0.292 -0.015 0.071
0.288 -0.012 0.070
0.287 -0.009 0.070
0.283 -0.006 0.069
0.281 -0.004 0.068
0.285 -0.001 0.069
0.292 0.001 0.071
0.292 0.004 0.071
0.290 0.007 0.070
0.278 0.009 0.067
0.280 0.011 0.068
0.286 0.014 0.069
0.288 0.017 0.070
0.283 0.019 0.069
0.279 0.022 0.068
0.286 0.025 0.069
0.282 0.027 0.068
0.290 0.030 0.070
0.290 0.033 0.071
0.290 0.036 0.070
0.283 0.037 0.069
0.285 0.040 0.069
0.291 0.044 0.071
0.298 0.048 0.073
0.300 0.051 0.073
0.296 0.053 0.072
0.296 0.056 0.072
0.296 0.058 0.072
0.295 0.061 0.072
0.291 0.063 0.071
0.292 0.066 0.072
0.294 0.069 0.072
0.286 0.070 0.070
0.287 0.073 0.071
0.279 0.074 0.069
0.271 0.074 0.067
0.260 0.074 0.064
0.266 0.078 0.066
0.283 0.086 0.070
0.297 0.092 0.073
0.298 0.096 0.074
0.295 0.098 0.073
0.295 0.100 0.073
0.303 0.106 0.075
0.296 0.107 0.074
0.295 0.109 0.074
0.295 0.112 0.074
0.295 0.115 0.074
0.297 0.119 0.075
0.298 0.123 0.075
0.296 0.125 0.075
0.290 0.125 0.073
0.281 0.124 0.071
0.299 0.139 0.076
0.301 0.143 0.077
0.297 0.144 0.076
0.287 0.142 0.074
0.288 0.145 0.074
0.288 0.149 0.074
0.293 0.155 0.076
0.297 0.160 0.077
0.296 0.163 0.077
0.295 0.165 0.077
0.293 0.168 0.076
0.292 0.170 0.076
0.289 0.172 0.076
0.285 0.173 0.075
0.284 0.175 0.075
0.281 0.177 0.074
0.278 0.178 0.074
0.276 0.180 0.073
0.273 0.182 0.073
0.271 0.184 0.073
0.269 0.186 0.072
0.265 0.186 0.071
0.262 0.188 0.071
0.261 0.190 0.071
0.261 0.193 0.071
0.261 0.197 0.071
0.260 0.200 0.071
0.259 0.202 0.072
0.259 0.206 0.072
0.258 0.209 0.072
0.257 0.211 0.072
0.255 0.214 0.072
0.254 0.217 0.072
0.252 0.219 0.072
0.251 0.221 0.072
0.244 0.219 0.070
0.245 0.223 0.071
0.240 0.222 0.069
0.236 0.223 0.069
0.233 0.223 0.068
0.229 0.224 0.068
0.220 0.218 0.065
0.209 0.211 0.062
0.212 0.217 0.063
0.211 0.220 0.063
0.199 0.211 0.060
0.210 0.227 0.064
0.206 0.226 0.063
0.201 0.224 0.062
0.205 0.232 0.064
0.212 0.244 0.066
0.214 0.251 0.067
0.219 0.261 0.070
0.221 0.267 0.071
0.207 0.255 0.067
0.203 0.254 0.066
0.203 0.258 0.066
0.208 0.268 0.068
0.211 0.276 0.070
0.221 0.294 0.073
0.099 -0.137 0.034
0.099 -0.135 0.034
0.101 -0.135 0.034
0.101 -0.135 0.034
0.102 -0.133 0.034
0.102 -0.131 0.034
0.102 -0.131 0.034
0.102 -0.128 0.034
0.102 -0.126 0.033
0.102 -0.125 0.033
0.104 -0.125 0.034
0.102 -0.121 0.033
0.105 -0.122 0.033
0.103 -0.119 0.033
0.102 -0.116 0.032
0.102 -0.115 0.032
0.104 -0.114 0.033
0.106 -0.115 0.033
0.105 -0.113 0.033
0.108 -0.114 0.033
0.271 -0.272 0.082
0.275 -0.272 0.083
0.277 -0.270 0.083
0.278 -0.267 0.083
0.278 -0.262 0.083
0.277 -0.257 0.082
0.279 -0.255 0.082
0.279 -0.251 0.082
0.281 -0.249 0.082
0.276 -0.241 0.080
0.278 -0.239 0.081
0.278 -0.235 0.080
0.279 -0.232 0.080
0.276 -0.226 0.079
0.269 -0.216 0.077
0.207 -0.159 0.058
0.200 -0.151 0.056
0.199 -0.147 0.056
0.198 -0.144 0.055
0.201 -0.144 0.056
0.199 -0.140 0.055
0.200 -0.138 0.055
0.202 -0.137 0.056
0.206 -0.137 0.057
0.209 -0.137 0.057
0.216 -0.139 0.059
0.209 -0.132 0.057
0.208 -0.129 0.056
0.205 -0.125 0.056
0.199 -0.119 0.054
0.171 -0.100 0.046
0.169 -0.097 0.045
0.169 -0.095 0.045
0.168 -0.093 0.045
0.169 -0.092 0.045
0.170 -0.091 0.045
0.172 -0.089 0.046
0.211 -0.105 0.056
0.208 -0.102 0.055
0.209 -0.100 0.055
0.209 -0.098 0.055
0.209 -0.096 0.055
0.211 -0.095 0.055
0.216 -0.092 0.056
0.211 -0.088 0.055
0.215 -0.088 0.056
0.214 -0.085 0.055
0.207 -0.080 0.054
0.196 -0.074 0.051
0.187 -0.069 0.048
0.185 -0.066 0.048
0.186 -0.065 0.048
0.186 -0.063 0.048
0.188 -0.062 0.048
0.189 -0.060 0.048
0.197 -0.061 0.051
0.248 -0.072 0.063
0.244 -0.069 0.062
0.310 -0.081 0.079
0.316 -0.080 0.081
0.318 -0.077 0.081
0.313 -0.073 0.079
0.310 -0.070 0.079
0.303 -0.065 0.077
0.308 -0.064 0.078
0.309 -0.061 0.078
0.303 -0.057 0.077
0.296 -0.053 0.075
0.288 -0.049 0.073
0.277 -0.044 0.070
0.276 -0.042 0.070
0.276 -0.039 0.070
0.277 -0.037 0.070
0.279 -0.034 0.070
0.279 -0.032 0.070
0.276 -0.029 0.069
0.281 -0.027 0.071
0.283 -0.024 0.071
0.285 -0.022 0.072
0.286 -0.020 0.072
0.285 -0.017 0.072
0.289 -0.014 0.073
0.291 -0.012 0.073
0.289 -0.009 0.073
0.286 -0.007 0.072
0.283 -0.004 0.071
0.289 -0.001 0.073
0.293 0.001 0.074
0.297 0.004 0.075
0.291 0.007 0.073
0.281 0.009 0.071
0.271 0.011 0.068
0.281 0.014 0.071
0.280 0.017 0.071
0.278 0.019 0.070
0.284 0.022 0.071
0.288 0.025 0.073
0.287 0.028 0.072
0.291 0.031 0.073
0.292 0.033 0.074
0.289 0.036 0.073
0.282 0.037 0.071
0.285 0.040 0.072
0.291 0.044 0.074
0.294 0.047 0.074
0.294 0.050 0.075
0.291 0.052 0.074
0.291 0.055 0.074
0.295 0.058 0.075
0.293 0.061 0.075
0.291 0.063 0.074
0.290 0.066 0.074
0.279 0.066 0.071
0.282 0.069 0.072
0.276 0.070 0.070
0.274 0.072 0.070
0.258 0.071 0.066
0.249 0.070 0.064
0.251 0.074 0.064
0.265 0.080 0.068
0.278 0.087 0.071
0.294 0.094 0.076
0.292 0.097 0.075
0.289 0.099 0.075
0.290 0.102 0.075
0.290 0.105 0.075
0.289 0.107 0.075
0.288 0.110 0.075
0.286 0.112 0.075
0.290 0.116 0.076
0.290 0.119 0.076
0.293 0.123 0.077
0.288 0.124 0.076
0.283 0.125 0.074
0.279 0.127 0.074
0.267 0.124 0.070
0.271 0.128 0.072
0.271 0.131 0.072
0.284 0.141 0.075
0.280 0.142 0.075
0.280 0.145 0.075
0.278 0.147 0.075
0.284 0.153 0.076
0.284 0.157 0.077
0.287 0.161 0.078
0.288 0.165 0.078
0.284 0.166 0.077
0.281 0.167 0.076
0.276 0.167 0.075
0.277 0.172 0.076
0.277 0.175 0.076
0.275 0.177 0.076
0.272 0.178 0.075
0.269 0.179 0.075
0.270 0.183 0.075
0.267 0.185 0.075
0.265 0.187 0.074
0.263 0.188 0.074
0.260 0.189 0.073
0.260 0.193 0.074
0.260 0.197 0.074
0.259 0.199 0.074
0.257 0.201 0.074
0.256 0.204 0.074
0.257 0.208 0.074
0.256 0.211 0.074
0.254 0.213 0.074
0.252 0.215 0.074
0.248 0.215 0.073
0.244 0.215 0.072
0.245 0.220 0.073
0.240 0.220 0.072
0.239 0.222 0.072
0.236 0.223 0.071
0.232 0.223 0.071
0.229 0.223 0.070
0.227 0.225 0.070
0.216 0.218 0.067
0.214 0.220 0.067
0.211 0.220 0.066
0.210 0.223 0.066
0.217 0.235 0.069
0.207 0.227 0.066
0.204 0.228 0.065
0.211 0.239 0.068
0.211 0.244 0.069
0.210 0.247 0.069
0.207 0.247 0.068
0.203 0.246 0.067
0.198 0.244 0.066
0.196 0.245 0.066
0.204 0.260 0.069
0.199 0.257 0.068
0.203 0.266 0.069
0.222 0.295 0.076
0.098 -0.136 0.035
0.100 -0.136 0.035
0.101 -0.136 0.035
0.101 -0.135 0.035
0.101 -0.133 0.035
0.102 -0.132 0.035
0.103 -0.131 0.035
0.103 -0.130 0.035
0.102 -0.127 0.035
0.102 -0.125 0.035
0.102 -0.123 0.034
0.105 -0.125 0.035
0.104 -0.122 0.035
0.103 -0.119 0.034
0.103 -0.118 0.034
0.103 -0.116 0.034
0.104 -0.115 0.034
0.105 -0.114 0.034
0.105 -0.113 0.034
0.104 -0.110 0.033
0.108 -0.112 0.034
0.270 -0.268 0.085
0.271 -0.265 0.085
0.272 -0.262 0.085
0.273 -0.258 0.084
0.275 -0.256 0.085
0.276 -0.253 0.085
0.279 -0.252 0.085
0.278 -0.246 0.084
0.276 -0.241 0.083
0.274 -0.236 0.083
0.276 -0.233 0.083
0.274 -0.228 0.082
0.272 -0.222 0.081
0.270 -0.217 0.080
0.206 -0.158 0.060
0.199 -0.150 0.058
0.197 -0.146 0.057
0.195 -0.142 0.057
0.197 -0.141 0.057
0.200 -0.141 0.058
0.201 -0.139 0.058
0.202 -0.138 0.058
0.205 -0.137 0.058
0.210 -0.138 0.060
0.211 -0.136 0.060
0.214 -0.135 0.060
0.212 -0.132 0.060
0.182 -0.111 0.051
0.170 -0.102 0.048
0.169 -0.099 0.047
0.168 -0.097 0.047
0.169 -0.095 0.047
0.170 -0.094 0.047
0.202 -0.108 0.056
0.211 -0.110 0.058
0.211 -0.108 0.058
0.209 -0.105 0.057
0.209 -0.102 0.057
0.208 -0.100 0.057
0.207 -0.097 0.056
0.208 -0.096 0.057
0.211 -0.095 0.057
0.211 -0.093 0.057
0.203 -0.087 0.055
0.212 -0.089 0.057
0.211 -0.086 0.057
0.213 -0.085 0.057
0.213 -0.083 0.057
0.219 -0.083 0.059
0.219 -0.081 0.059
0.213 -0.076 0.057
0.191 -0.067 0.051
0.189 -0.064 0.050
0.187 -0.062 0.050
0.188 -0.060 0.050
0.189 -0.059 0.050
0.190 -0.057 0.051
0.194 -0.057 0.051
0.204 -0.057 0.054
0.303 -0.077 0.080
0.305 -0.074 0.080
0.308 -0.072 0.081
0.302 -0.068 0.080
0.297 -0.064 0.078
0.298 -0.062 0.078
0.299 -0.059 0.079
0.296 -0.056 0.078
0.294 -0.053 0.077
0.287 -0.049 0.075
0.280 -0.045 0.073
0.274 -0.041 0.072
0.276 -0.039 0.072
0.274 -0.036 0.072
0.276 -0.034 0.072
0.276 -0.032 0.072
0.279 -0.029 0.073
0.280 -0.027 0.073
0.285 -0.025 0.074
0.283 -0.022 0.074
0.283 -0.019 0.074
0.276 -0.016 0.072
0.276 -0.014 0.072
0.290 -0.012 0.076
0.292 -0.009 0.076
0.288 -0.007 0.075
0.287 -0.004 0.075
0.289 -0.001 0.075
0.293 0.001 0.076
0.291 0.004 0.076
0.288 0.007 0.075
0.281 0.009 0.073
0.281 0.011 0.073
0.279 0.014 0.073
0.281 0.017 0.073
0.279 0.019 0.073
0.277 0.021 0.072
0.286 0.025 0.075
0.281 0.027 0.074
0.286 0.030 0.075
0.286 0.033 0.075
0.288 0.036 0.075
0.280 0.037 0.073
0.279 0.040 0.073
0.281 0.042 0.074
0.284 0.046 0.075
0.288 0.049 0.076
0.289 0.052 0.076
0.290 0.055 0.076
0.293 0.058 0.077
0.292 0.060 0.077
0.287 0.062 0.076
0.283 0.064 0.075
0.283 0.067 0.075
0.266 0.065 0.070
0.266 0.068 0.071
0.269 0.071 0.071
0.258 0.071 0.069
0.243 0.069 0.064
0.255 0.075 0.068
0.265 0.080 0.071
0.276 0.086 0.074
0.288 0.093 0.077
0.288 0.096 0.077
0.285 0.097 0.076
0.283 0.099 0.076
0.284 0.103 0.076
0.282 0.105 0.076
0.281 0.107 0.076
0.281 0.110 0.076
0.282 0.113 0.076
0.287 0.119 0.078
0.283 0.119 0.077
0.284 0.123 0.077
0.284 0.126 0.078
0.281 0.128 0.077
0.270 0.125 0.074
0.260 0.124 0.071
0.267 0.129 0.073
0.269 0.134 0.074
0.272 0.138 0.075
0.270 0.140 0.075
0.272 0.144 0.076
0.273 0.147 0.076
0.281 0.155 0.078
0.281 0.158 0.079
0.279 0.160 0.078
0.280 0.164 0.079
0.273 0.163 0.077
0.273 0.166 0.077
0.273 0.169 0.078
0.272 0.172 0.078
0.271 0.174 0.077
0.267 0.175 0.077
0.265 0.177 0.076
0.262 0.178 0.076
0.265 0.183 0.077
0.264 0.186 0.077
0.261 0.187 0.076
0.257 0.188 0.075
0.257 0.191 0.076
0.257 0.195 0.076
0.256 0.197 0.076
0.254 0.199 0.076
0.253 0.202 0.076
0.253 0.205 0.076
0.253 0.209 0.076
0.252 0.212 0.076
0.249 0.213 0.076
0.247 0.215 0.076
0.244 0.216 0.075
0.244 0.219 0.075
0.239 0.219 0.074
0.237 0.220 0.074
0.235 0.223 0.074
