VERSION .7
FIELDS x y z
SIZE 4 4 4
TYPE F F F
COUNT 1 1 1
WIDTH     2586
HEIGHT 1
VIEWPOINT 0 0 0 1 0 0 0
POINTS     2586
DATA ascii
0.254 0.209 0.074
0.253 0.212 0.074
0.251 0.214 0.074
0.250 0.217 0.074
0.246 0.217 0.073
0.243 0.218 0.072
0.236 0.216 0.071
0.230 0.214 0.069
0.227 0.215 0.069
0.225 0.217 0.069
0.222 0.217 0.068
0.215 0.213 0.066
0.203 0.206 0.063
0.197 0.203 0.061
0.197 0.206 0.062
0.203 0.215 0.064
0.206 0.223 0.065
0.208 0.229 0.066
0.208 0.232 0.067
0.207 0.235 0.067
0.201 0.232 0.065
0.199 0.233 0.065
0.198 0.236 0.065
0.202 0.245 0.067
0.200 0.247 0.067
0.197 0.247 0.066
0.195 0.248 0.066
0.197 0.254 0.067
0.196 0.256 0.067
0.197 0.262 0.068
0.099 -0.136 0.035
0.100 -0.136 0.035
0.101 -0.136 0.035
0.101 -0.135 0.035
0.101 -0.132 0.035
0.102 -0.132 0.035
0.102 -0.131 0.035
0.102 -0.129 0.035
0.102 -0.127 0.035
0.103 -0.126 0.035
0.103 -0.124 0.035
0.103 -0.123 0.035
0.103 -0.121 0.034
0.104 -0.120 0.034
0.104 -0.118 0.034
0.103 -0.116 0.034
0.104 -0.115 0.034
0.105 -0.114 0.034
0.105 -0.113 0.034
0.106 -0.112 0.034
0.109 -0.113 0.035
0.266 -0.263 0.083
0.267 -0.260 0.083
0.270 -0.259 0.084
0.274 -0.259 0.085
0.271 -0.253 0.083
0.275 -0.252 0.084
0.276 -0.248 0.084
0.272 -0.241 0.082
0.272 -0.238 0.082
0.272 -0.233 0.082
0.268 -0.227 0.080
0.265 -0.220 0.079
0.266 -0.217 0.079
0.262 -0.211 0.078
0.194 -0.149 0.057
0.191 -0.144 0.056
0.195 -0.144 0.057
0.201 -0.147 0.058
0.201 -0.144 0.058
0.201 -0.141 0.058
0.205 -0.142 0.059
0.204 -0.139 0.058
0.202 -0.135 0.058
0.198 -0.130 0.056
0.198 -0.127 0.056
0.204 -0.129 0.058
0.209 -0.130 0.059
0.182 -0.111 0.051
0.171 -0.102 0.048
0.167 -0.098 0.047
0.168 -0.097 0.047
0.168 -0.095 0.047
0.169 -0.094 0.047
0.181 -0.098 0.050
0.204 -0.109 0.056
0.203 -0.106 0.056
0.203 -0.104 0.056
0.205 -0.103 0.056
0.208 -0.102 0.057
0.207 -0.099 0.056
0.206 -0.097 0.056
0.206 -0.095 0.056
0.206 -0.092 0.056
0.208 -0.091 0.056
0.206 -0.088 0.056
0.208 -0.087 0.056
0.208 -0.085 0.056
0.209 -0.083 0.056
0.208 -0.081 0.056
0.210 -0.080 0.056
0.213 -0.079 0.057
0.214 -0.077 0.057
0.191 -0.067 0.051
0.189 -0.064 0.050
0.187 -0.062 0.050
0.188 -0.060 0.050
0.190 -0.059 0.050
0.191 -0.057 0.051
0.192 -0.056 0.051
0.204 -0.057 0.054
0.297 -0.075 0.079
0.301 -0.073 0.079
0.300 -0.070 0.079
0.297 -0.067 0.078
0.291 -0.063 0.076
0.290 -0.060 0.076
0.293 -0.058 0.077
0.296 -0.056 0.078
0.285 -0.051 0.075
0.280 -0.047 0.073
0.274 -0.044 0.072
0.271 -0.041 0.071
0.275 -0.039 0.072
0.268 -0.035 0.070
0.268 -0.033 0.070
0.276 -0.031 0.072
0.278 -0.029 0.073
0.280 -0.027 0.073
0.280 -0.024 0.073
0.279 -0.022 0.073
0.279 -0.019 0.073
0.280 -0.017 0.073
0.274 -0.014 0.071
0.274 -0.011 0.072
0.279 -0.009 0.073
0.284 -0.006 0.074
0.284 -0.004 0.074
0.279 -0.001 0.073
0.279 0.001 0.073
0.284 0.004 0.074
0.282 0.006 0.073
0.276 0.009 0.072
0.268 0.011 0.070
0.266 0.013 0.070
0.266 0.016 0.069
0.270 0.018 0.070
0.268 0.021 0.070
0.281 0.024 0.074
0.268 0.026 0.070
0.264 0.028 0.069
0.268 0.031 0.070
0.272 0.034 0.071
0.276 0.037 0.072
0.278 0.039 0.073
0.280 0.042 0.074
0.276 0.044 0.073
0.276 0.047 0.072
0.278 0.050 0.073
0.284 0.053 0.075
0.289 0.057 0.076
0.289 0.060 0.076
0.292 0.063 0.077
0.289 0.065 0.076
0.279 0.066 0.074
0.270 0.066 0.072
0.268 0.068 0.071
0.263 0.069 0.070
0.248 0.068 0.066
0.228 0.065 0.061
0.243 0.071 0.065
0.284 0.089 0.076
0.287 0.093 0.077
0.286 0.095 0.076
0.282 0.096 0.076
0.282 0.099 0.076
0.283 0.102 0.076
0.284 0.106 0.076
0.282 0.108 0.076
0.280 0.110 0.076
0.279 0.112 0.076
0.279 0.115 0.076
0.278 0.117 0.076
0.280 0.121 0.076
0.281 0.125 0.077
0.276 0.125 0.075
0.262 0.122 0.072
0.256 0.122 0.070
0.259 0.126 0.071
0.261 0.130 0.072
0.261 0.132 0.072
0.265 0.137 0.073
0.275 0.145 0.076
0.278 0.150 0.077
0.276 0.152 0.077
0.276 0.155 0.077
0.279 0.160 0.078
0.279 0.163 0.078
0.277 0.165 0.078
0.277 0.168 0.078
0.275 0.170 0.078
0.271 0.171 0.077
0.266 0.171 0.076
0.264 0.173 0.076
0.264 0.176 0.076
0.264 0.180 0.076
0.266 0.184 0.077
0.262 0.185 0.076
0.257 0.184 0.075
0.255 0.187 0.075
0.255 0.190 0.075
0.253 0.192 0.075
0.252 0.194 0.075
0.253 0.198 0.075
0.254 0.203 0.076
0.254 0.206 0.076
0.251 0.207 0.076
0.249 0.209 0.075
0.247 0.211 0.075
0.245 0.213 0.075
0.243 0.215 0.075
0.237 0.213 0.073
0.239 0.218 0.074
0.234 0.218 0.073
0.223 0.211 0.070
0.218 0.210 0.069
0.220 0.215 0.070
0.215 0.214 0.069
0.206 0.208 0.066
0.197 0.203 0.064
0.198 0.207 0.064
0.203 0.216 0.066
0.206 0.223 0.068
0.204 0.224 0.067
0.201 0.225 0.067
0.200 0.228 0.067
0.197 0.228 0.067
0.192 0.225 0.065
0.188 0.224 0.064
0.194 0.236 0.067
0.198 0.245 0.069
0.198 0.248 0.069
0.192 0.244 0.067
0.191 0.246 0.067
0.197 0.259 0.070
0.191 0.254 0.068
0.100 -0.136 0.036
0.101 -0.136 0.036
0.101 -0.135 0.037
0.101 -0.132 0.036
0.101 -0.131 0.036
0.102 -0.131 0.036
0.103 -0.130 0.036
0.104 -0.129 0.036
0.104 -0.128 0.036
0.104 -0.126 0.036
0.103 -0.123 0.036
0.103 -0.121 0.036
0.103 -0.119 0.035
0.104 -0.118 0.035
0.104 -0.117 0.035
0.103 -0.114 0.035
0.110 -0.119 0.037
0.106 -0.114 0.035
0.105 -0.111 0.035
0.107 -0.111 0.035
0.112 -0.115 0.037
0.263 -0.257 0.085
0.266 -0.255 0.085
0.267 -0.253 0.085
0.266 -0.248 0.085
0.268 -0.246 0.085
0.267 -0.241 0.084
0.272 -0.242 0.085
0.268 -0.235 0.084
0.268 -0.231 0.084
0.268 -0.227 0.083
0.268 -0.223 0.083
0.265 -0.217 0.082
0.257 -0.207 0.079
0.251 -0.199 0.077
0.200 -0.153 0.061
0.196 -0.148 0.059
0.201 -0.149 0.060
0.204 -0.149 0.061
0.196 -0.141 0.059
0.197 -0.139 0.059
0.203 -0.141 0.060
0.204 -0.139 0.060
0.205 -0.137 0.060
0.201 -0.132 0.059
0.199 -0.129 0.058
0.200 -0.127 0.059
0.182 -0.113 0.053
0.171 -0.104 0.050
0.171 -0.102 0.050
0.171 -0.101 0.049
0.173 -0.100 0.050
0.206 -0.114 0.059
0.205 -0.112 0.059
0.203 -0.108 0.058
0.205 -0.107 0.058
0.205 -0.105 0.058
0.207 -0.104 0.059
0.207 -0.102 0.059
0.208 -0.100 0.059
0.206 -0.097 0.058
0.205 -0.094 0.058
0.205 -0.092 0.058
0.205 -0.090 0.058
0.201 -0.086 0.056
0.205 -0.086 0.057
0.207 -0.085 0.058
0.209 -0.083 0.058
0.211 -0.082 0.059
0.213 -0.081 0.059
0.214 -0.079 0.059
0.215 -0.077 0.059
0.213 -0.074 0.059
0.213 -0.072 0.059
0.215 -0.071 0.059
0.193 -0.062 0.053
0.189 -0.059 0.052
0.191 -0.058 0.053
0.192 -0.056 0.053
0.193 -0.054 0.053
0.194 -0.053 0.053
0.197 -0.052 0.054
0.203 -0.051 0.056
0.288 -0.062 0.078
0.288 -0.060 0.078
0.289 -0.057 0.079
0.287 -0.054 0.078
0.277 -0.049 0.075
0.274 -0.046 0.074
0.272 -0.044 0.074
0.276 -0.042 0.075
0.273 -0.039 0.074
0.269 -0.036 0.073
0.267 -0.033 0.072
0.271 -0.031 0.073
0.275 -0.029 0.074
0.278 -0.027 0.075
0.276 -0.024 0.075
0.278 -0.022 0.075
0.278 -0.019 0.075
0.276 -0.016 0.075
0.278 -0.014 0.075
0.281 -0.012 0.076
0.283 -0.009 0.077
0.285 -0.007 0.077
0.281 -0.004 0.076
0.280 -0.001 0.076
0.281 0.001 0.076
0.284 0.004 0.077
0.284 0.006 0.077
0.280 0.009 0.076
0.275 0.011 0.074
0.274 0.014 0.074
0.268 0.016 0.072
0.264 0.018 0.071
0.269 0.021 0.073
0.272 0.024 0.074
0.266 0.026 0.072
0.263 0.028 0.071
0.271 0.031 0.074
0.269 0.033 0.073
0.275 0.037 0.075
0.280 0.040 0.076
0.278 0.042 0.076
0.275 0.044 0.075
0.272 0.046 0.074
0.278 0.050 0.076
0.286 0.054 0.078
0.288 0.057 0.079
0.288 0.060 0.079
0.283 0.061 0.077
0.281 0.064 0.077
0.272 0.064 0.074
0.261 0.064 0.072
0.256 0.065 0.070
0.250 0.066 0.069
0.245 0.067 0.067
0.236 0.067 0.065
0.246 0.072 0.068
0.269 0.082 0.074
0.282 0.088 0.078
0.288 0.093 0.080
0.282 0.094 0.078
0.274 0.094 0.076
0.277 0.098 0.077
0.279 0.101 0.078
0.276 0.103 0.077
0.275 0.105 0.077
0.275 0.108 0.077
0.273 0.110 0.077
0.272 0.112 0.076
0.271 0.115 0.076
0.269 0.116 0.076
0.271 0.120 0.077
0.266 0.121 0.075
0.261 0.121 0.074
0.261 0.124 0.074
0.262 0.127 0.075
0.260 0.129 0.074
0.255 0.130 0.073
0.252 0.131 0.072
0.255 0.135 0.073
0.258 0.139 0.074
0.266 0.147 0.077
0.267 0.150 0.077
0.267 0.154 0.078
0.267 0.156 0.078
0.272 0.163 0.080
0.266 0.162 0.078
0.258 0.160 0.076
0.255 0.161 0.075
0.253 0.163 0.075
0.251 0.165 0.075
0.257 0.172 0.077
0.258 0.176 0.077
0.258 0.179 0.078
0.253 0.179 0.076
0.253 0.182 0.077
0.253 0.185 0.077
0.252 0.188 0.077
0.250 0.190 0.077
0.249 0.192 0.076
0.250 0.197 0.077
0.252 0.201 0.078
0.251 0.204 0.078
0.249 0.206 0.078
0.246 0.207 0.077
0.245 0.210 0.077
0.242 0.211 0.077
0.236 0.209 0.075
0.233 0.210 0.075
0.225 0.207 0.073
0.224 0.208 0.072
0.218 0.207 0.071
0.213 0.205 0.070
0.209 0.205 0.069
0.208 0.207 0.069
0.203 0.206 0.068
0.197 0.203 0.066
0.197 0.207 0.066
0.201 0.214 0.068
0.200 0.217 0.068
0.197 0.217 0.068
0.194 0.217 0.067
0.197 0.224 0.068
0.197 0.228 0.069
0.191 0.225 0.067
0.188 0.225 0.067
0.195 0.237 0.070
0.200 0.248 0.072
0.198 0.248 0.071
0.198 0.252 0.072
0.197 0.255 0.072
0.203 0.267 0.075
0.192 0.256 0.071
0.099 -0.136 0.037
0.100 -0.135 0.038
0.102 -0.135 0.038
0.101 -0.132 0.037
0.102 -0.132 0.038
0.102 -0.131 0.038
0.103 -0.130 0.038
0.104 -0.129 0.038
0.105 -0.128 0.038
0.103 -0.124 0.037
0.103 -0.123 0.037
0.104 -0.122 0.037
0.102 -0.119 0.036
0.103 -0.118 0.036
0.103 -0.115 0.036
0.109 -0.120 0.038
0.110 -0.121 0.038
0.106 -0.114 0.037
0.105 -0.111 0.036
0.110 -0.114 0.037
0.108 -0.110 0.037
0.130 -0.131 0.044
0.259 -0.254 0.087
0.262 -0.253 0.087
0.262 -0.249 0.087
0.262 -0.245 0.087
0.262 -0.241 0.086
0.265 -0.240 0.087
0.264 -0.235 0.086
0.265 -0.232 0.086
0.265 -0.229 0.086
0.266 -0.226 0.085
0.265 -0.221 0.085
0.262 -0.215 0.083
0.258 -0.208 0.082
0.200 -0.154 0.063
0.200 -0.151 0.063
0.206 -0.153 0.064
0.205 -0.150 0.064
0.201 -0.144 0.062
0.198 -0.140 0.061
0.203 -0.141 0.062
0.205 -0.139 0.063
0.204 -0.136 0.062
0.200 -0.132 0.061
0.197 -0.127 0.060
0.187 -0.119 0.057
0.172 -0.107 0.052
0.171 -0.105 0.052
0.171 -0.103 0.051
0.178 -0.105 0.053
0.204 -0.118 0.061
0.206 -0.116 0.061
0.207 -0.115 0.062
0.205 -0.112 0.061
0.204 -0.109 0.060
0.203 -0.106 0.060
0.204 -0.105 0.060
0.206 -0.104 0.061
0.207 -0.102 0.061
0.209 -0.100 0.061
0.206 -0.097 0.060
0.204 -0.094 0.060
0.205 -0.092 0.060
0.205 -0.090 0.059
0.205 -0.088 0.059
0.199 -0.084 0.058
0.210 -0.086 0.061
0.209 -0.084 0.060
0.211 -0.082 0.061
0.214 -0.081 0.062
0.213 -0.079 0.061
0.213 -0.077 0.061
0.214 -0.075 0.061
0.216 -0.073 0.062
0.216 -0.071 0.062
0.225 -0.072 0.064
0.224 -0.070 0.064
0.195 -0.057 0.055
0.193 -0.054 0.055
0.193 -0.053 0.055
0.194 -0.051 0.055
0.195 -0.049 0.055
0.195 -0.048 0.055
0.198 -0.046 0.056
0.200 -0.045 0.057
0.201 -0.043 0.057
0.213 -0.044 0.060
0.262 -0.044 0.074
0.271 -0.043 0.076
0.273 -0.041 0.077
0.272 -0.039 0.076
0.268 -0.036 0.075
0.268 -0.033 0.075
0.271 -0.031 0.076
0.274 -0.029 0.077
0.274 -0.026 0.077
0.274 -0.024 0.077
0.275 -0.021 0.077
0.275 -0.019 0.077
0.275 -0.016 0.077
0.277 -0.014 0.078
0.282 -0.012 0.079
0.286 -0.009 0.080
0.282 -0.006 0.079
0.279 -0.004 0.078
0.278 -0.001 0.078
0.281 0.001 0.078
0.281 0.004 0.079
0.281 0.006 0.079
0.281 0.009 0.079
0.282 0.012 0.079
0.274 0.014 0.077
0.265 0.016 0.074
0.257 0.018 0.072
0.261 0.020 0.073
0.259 0.022 0.073
0.253 0.024 0.071
0.261 0.028 0.073
0.269 0.031 0.075
0.271 0.034 0.076
0.275 0.037 0.077
0.281 0.040 0.079
0.280 0.042 0.079
0.276 0.044 0.078
0.279 0.048 0.079
0.282 0.051 0.079
0.283 0.054 0.080
0.285 0.057 0.081
0.281 0.058 0.080
0.277 0.060 0.078
0.269 0.061 0.076
0.262 0.062 0.074
0.256 0.063 0.073
0.252 0.064 0.072
0.243 0.064 0.069
0.232 0.064 0.066
0.244 0.069 0.070
0.258 0.076 0.074
0.272 0.082 0.078
0.283 0.089 0.081
0.287 0.093 0.082
0.279 0.093 0.080
0.266 0.091 0.077
0.268 0.094 0.077
0.268 0.097 0.077
0.268 0.100 0.078
0.260 0.100 0.075
0.264 0.104 0.076
0.267 0.107 0.077
0.262 0.108 0.076
0.261 0.110 0.076
0.266 0.115 0.078
0.254 0.113 0.074
0.255 0.116 0.075
0.258 0.120 0.076
0.257 0.122 0.076
0.262 0.127 0.077
0.260 0.130 0.077
0.256 0.130 0.076
0.253 0.131 0.075
0.253 0.134 0.075
0.254 0.138 0.076
0.255 0.141 0.076
0.256 0.145 0.077
0.252 0.145 0.076
0.253 0.149 0.076
0.249 0.149 0.076
0.250 0.152 0.076
0.249 0.155 0.076
0.249 0.158 0.076
0.249 0.161 0.076
0.252 0.166 0.078
0.250 0.167 0.077
0.255 0.174 0.079
0.251 0.175 0.078
0.249 0.176 0.078
0.250 0.180 0.078
0.251 0.184 0.079
0.250 0.186 0.079
0.248 0.188 0.078
0.247 0.191 0.079
0.247 0.194 0.079
0.249 0.199 0.080
0.246 0.200 0.079
0.247 0.205 0.080
0.243 0.205 0.079
0.238 0.204 0.078
0.231 0.202 0.076
0.226 0.200 0.075
0.223 0.201 0.074
0.221 0.203 0.074
0.211 0.197 0.071
0.206 0.195 0.069
0.209 0.202 0.071
0.208 0.204 0.071
0.199 0.199 0.068
0.196 0.199 0.068
0.196 0.202 0.068
0.195 0.205 0.068
0.198 0.211 0.070
0.201 0.219 0.071
0.195 0.215 0.069
0.194 0.218 0.070
0.195 0.223 0.070
0.195 0.227 0.071
0.194 0.229 0.071
0.197 0.236 0.072
0.196 0.239 0.073
0.196 0.243 0.073
0.202 0.254 0.075
0.198 0.253 0.075
0.201 0.260 0.076
0.200 0.264 0.076
0.174 0.232 0.067
0.099 -0.136 0.039
0.101 -0.137 0.039
0.101 -0.134 0.039
0.102 -0.134 0.039
0.101 -0.132 0.039
0.103 -0.132 0.039
0.103 -0.131 0.039
0.104 -0.130 0.039
0.105 -0.129 0.039
0.105 -0.127 0.039
0.103 -0.124 0.038
0.104 -0.123 0.038
0.105 -0.121 0.038
0.105 -0.120 0.038
0.103 -0.116 0.037
0.113 -0.125 0.041
0.108 -0.119 0.039
0.106 -0.114 0.038
0.102 -0.108 0.036
0.110 -0.115 0.039
0.113 -0.116 0.040
0.119 -0.120 0.042
0.122 -0.122 0.043
0.257 -0.248 0.089
0.257 -0.244 0.088
0.257 -0.240 0.088
0.261 -0.240 0.089
0.262 -0.237 0.089
0.263 -0.234 0.089
0.262 -0.230 0.088
0.262 -0.226 0.087
0.262 -0.223 0.087
0.261 -0.218 0.087
0.258 -0.212 0.085
0.257 -0.208 0.084
0.209 -0.163 0.068
0.203 -0.156 0.066
0.202 -0.153 0.065
0.205 -0.153 0.066
0.206 -0.151 0.066
0.204 -0.146 0.065
0.201 -0.142 0.064
0.202 -0.141 0.064
0.202 -0.138 0.064
0.201 -0.135 0.064
0.202 -0.133 0.064
0.194 -0.125 0.061
0.174 -0.111 0.054
0.174 -0.108 0.054
0.174 -0.107 0.054
0.194 -0.116 0.060
0.202 -0.119 0.062
0.205 -0.118 0.063
0.209 -0.118 0.064
0.208 -0.116 0.064
0.207 -0.113 0.063
0.203 -0.109 0.062
0.204 -0.107 0.062
0.205 -0.105 0.062
0.206 -0.104 0.063
0.207 -0.102 0.063
0.208 -0.100 0.063
0.208 -0.098 0.063
0.207 -0.095 0.062
0.206 -0.093 0.062
0.206 -0.091 0.062
0.205 -0.088 0.062
0.206 -0.086 0.062
0.203 -0.083 0.061
0.205 -0.082 0.061
0.208 -0.081 0.062
0.206 -0.078 0.061
0.208 -0.077 0.062
0.207 -0.075 0.062
0.215 -0.075 0.064
0.216 -0.073 0.064
0.219 -0.073 0.065
0.223 -0.072 0.066
0.225 -0.070 0.066
0.227 -0.068 0.067
0.250 -0.073 0.073
0.249 -0.070 0.073
0.205 -0.054 0.060
0.199 -0.051 0.058
0.198 -0.049 0.058
0.200 -0.047 0.058
0.200 -0.045 0.058
0.198 -0.043 0.058
0.200 -0.041 0.058
0.202 -0.040 0.059
0.206 -0.039 0.060
0.206 -0.037 0.060
0.207 -0.035 0.060
0.210 -0.034 0.061
0.212 -0.032 0.062
0.225 -0.032 0.065
0.269 -0.033 0.078
0.274 -0.031 0.079
0.272 -0.029 0.079
0.272 -0.026 0.079
0.271 -0.024 0.078
0.274 -0.021 0.079
0.275 -0.019 0.080
0.269 -0.016 0.078
0.270 -0.014 0.078
0.277 -0.011 0.080
0.280 -0.009 0.081
0.278 -0.006 0.080
0.274 -0.004 0.079
0.274 -0.001 0.079
0.275 0.001 0.079
0.276 0.004 0.080
0.279 0.006 0.081
0.281 0.009 0.081
0.276 0.011 0.080
0.275 0.014 0.080
0.262 0.016 0.076
0.259 0.018 0.075
0.255 0.020 0.074
0.254 0.022 0.073
0.250 0.024 0.072
0.256 0.027 0.074
0.272 0.031 0.079
0.274 0.034 0.080
0.276 0.037 0.080
0.277 0.039 0.080
0.277 0.042 0.081
0.278 0.045 0.081
0.280 0.048 0.082
0.281 0.051 0.082
0.278 0.053 0.081
0.276 0.055 0.081
0.275 0.057 0.080
0.267 0.058 0.078
0.259 0.059 0.076
0.254 0.060 0.074
0.245 0.060 0.072
0.243 0.062 0.071
0.233 0.062 0.069
0.228 0.063 0.067
0.250 0.071 0.074
0.263 0.077 0.078
0.269 0.082 0.080
0.281 0.088 0.083
0.280 0.091 0.083
0.275 0.092 0.082
0.267 0.092 0.079
0.259 0.091 0.077
0.258 0.094 0.077
0.248 0.093 0.074
0.246 0.094 0.074
0.250 0.098 0.075
0.254 0.103 0.076
0.253 0.105 0.076
0.249 0.106 0.075
0.247 0.107 0.075
0.249 0.111 0.075
0.251 0.114 0.076
0.251 0.117 0.076
0.252 0.120 0.077
0.251 0.122 0.077
0.255 0.127 0.078
0.255 0.130 0.078
0.254 0.132 0.078
0.253 0.134 0.078
0.251 0.136 0.078
0.252 0.140 0.078
0.250 0.141 0.078
0.246 0.142 0.077
0.242 0.142 0.076
0.248 0.148 0.078
0.245 0.150 0.077
0.245 0.152 0.077
0.247 0.157 0.078
0.250 0.161 0.079
0.250 0.165 0.080
0.252 0.169 0.081
0.250 0.171 0.080
0.248 0.173 0.080
0.247 0.175 0.080
0.246 0.178 0.080
0.247 0.182 0.080
0.247 0.185 0.081
0.245 0.187 0.080
0.246 0.191 0.081
0.249 0.196 0.082
0.245 0.197 0.081
0.244 0.199 0.081
0.234 0.194 0.078
0.230 0.194 0.077
0.225 0.194 0.076
0.219 0.191 0.074
0.216 0.192 0.074
0.210 0.190 0.072
0.206 0.189 0.071
0.205 0.192 0.071
0.201 0.192 0.070
0.202 0.195 0.071
0.205 0.202 0.072
0.198 0.199 0.070
0.195 0.199 0.070
0.194 0.201 0.070
0.194 0.204 0.070
0.196 0.210 0.071
0.196 0.214 0.072
0.199 0.221 0.073
0.203 0.228 0.075
0.199 0.228 0.074
0.196 0.228 0.074
0.195 0.231 0.074
0.197 0.237 0.075
0.195 0.238 0.074
0.191 0.237 0.073
0.193 0.243 0.075
0.194 0.249 0.076
0.195 0.253 0.076
0.190 0.250 0.075
0.205 0.275 0.081
0.101 -0.137 0.041
0.102 -0.137 0.041
0.101 -0.134 0.040
0.102 -0.133 0.040
0.103 -0.133 0.041
0.105 -0.133 0.041
0.105 -0.131 0.041
0.105 -0.129 0.041
0.105 -0.128 0.040
0.104 -0.125 0.040
0.104 -0.123 0.040
0.105 -0.122 0.040
0.103 -0.118 0.039
0.106 -0.120 0.040
0.110 -0.122 0.041
0.104 -0.114 0.039
0.103 -0.111 0.038
0.100 -0.107 0.037
0.110 -0.115 0.040
0.120 -0.124 0.044
0.116 -0.118 0.042
0.118 -0.118 0.042
0.119 -0.116 0.042
0.249 -0.237 0.088
0.253 -0.237 0.089
0.256 -0.236 0.090
0.260 -0.236 0.091
0.259 -0.231 0.090
0.259 -0.228 0.090
0.256 -0.222 0.088
0.259 -0.220 0.089
0.258 -0.216 0.088
0.256 -0.211 0.087
0.252 -0.204 0.086
0.247 -0.197 0.083
0.208 -0.160 0.070
0.203 -0.154 0.068
0.203 -0.151 0.068
0.202 -0.148 0.067
0.203 -0.146 0.067
0.203 -0.143 0.067
0.204 -0.142 0.067
0.202 -0.138 0.066
0.200 -0.135 0.065
0.194 -0.128 0.063
0.180 -0.117 0.058
0.176 -0.112 0.057
0.176 -0.110 0.057
0.191 -0.117 0.062
0.203 -0.122 0.065
0.206 -0.122 0.066
0.206 -0.120 0.066
0.208 -0.118 0.066
0.208 -0.116 0.066
0.206 -0.113 0.065
0.205 -0.110 0.065
0.206 -0.108 0.065
0.206 -0.106 0.065
0.206 -0.103 0.065
0.205 -0.101 0.064
0.205 -0.099 0.064
0.206 -0.097 0.064
0.207 -0.095 0.064
0.207 -0.093 0.064
0.206 -0.091 0.064
0.205 -0.088 0.064
0.205 -0.086 0.063
0.202 -0.083 0.062
0.201 -0.080 0.062
0.198 -0.077 0.061
0.198 -0.075 0.061
0.203 -0.075 0.062
0.205 -0.074 0.063
0.211 -0.074 0.065
0.215 -0.073 0.066
0.218 -0.072 0.066
0.221 -0.071 0.067
0.224 -0.070 0.068
0.229 -0.069 0.070
0.243 -0.071 0.074
0.248 -0.070 0.075
0.258 -0.071 0.078
0.272 -0.072 0.082
0.273 -0.070 0.083
0.273 -0.067 0.082
0.258 -0.061 0.078
0.210 -0.043 0.063
0.209 -0.041 0.063
0.208 -0.039 0.062
0.207 -0.037 0.062
0.207 -0.035 0.062
0.206 -0.033 0.062
0.207 -0.031 0.062
0.209 -0.030 0.062
0.213 -0.028 0.064
0.214 -0.027 0.064
0.218 -0.025 0.065
0.227 -0.024 0.068
0.265 -0.025 0.079
0.271 -0.024 0.081
0.268 -0.021 0.080
0.270 -0.019 0.081
0.268 -0.016 0.080
0.266 -0.013 0.079
0.271 -0.011 0.081
0.273 -0.009 0.082
0.271 -0.006 0.081
0.269 -0.004 0.080
0.268 -0.001 0.080
0.268 0.001 0.080
0.273 0.004 0.081
0.275 0.006 0.082
0.282 0.009 0.084
0.283 0.012 0.084
0.273 0.014 0.081
0.263 0.016 0.079
0.258 0.018 0.077
0.259 0.020 0.077
0.256 0.022 0.077
0.255 0.025 0.076
0.259 0.027 0.078
0.268 0.031 0.080
0.271 0.034 0.081
0.273 0.036 0.082
0.272 0.039 0.082
0.272 0.041 0.082
0.274 0.044 0.082
0.280 0.048 0.084
0.278 0.050 0.084
0.274 0.052 0.083
0.270 0.054 0.081
0.265 0.055 0.080
0.259 0.056 0.078
0.250 0.057 0.076
0.234 0.055 0.071
0.234 0.058 0.071
0.211 0.054 0.064
0.220 0.058 0.067
0.236 0.065 0.072
0.249 0.071 0.076
0.262 0.077 0.080
0.270 0.082 0.083
0.273 0.086 0.083
0.275 0.089 0.084
0.268 0.089 0.082
0.258 0.089 0.079
0.251 0.089 0.077
0.246 0.089 0.076
0.243 0.091 0.075
0.243 0.093 0.075
0.243 0.096 0.075
0.244 0.099 0.076
0.244 0.101 0.076
0.244 0.104 0.076
0.245 0.106 0.076
0.250 0.111 0.078
0.250 0.114 0.078
0.248 0.116 0.078
0.245 0.117 0.077
0.246 0.120 0.078
0.249 0.124 0.079
0.250 0.127 0.079
0.250 0.130 0.079
0.248 0.132 0.079
0.248 0.134 0.079
0.248 0.137 0.079
0.248 0.140 0.079
0.245 0.141 0.079
0.243 0.143 0.078
0.244 0.146 0.079
0.244 0.150 0.079
0.244 0.152 0.079
0.245 0.156 0.080
0.246 0.159 0.081
0.249 0.164 0.082
0.250 0.168 0.082
0.247 0.169 0.082
0.244 0.170 0.081
0.245 0.174 0.082
0.244 0.176 0.082
0.244 0.179 0.082
0.247 0.185 0.083
0.247 0.188 0.084
0.247 0.192 0.084
0.244 0.193 0.083
0.233 0.187 0.080
0.222 0.181 0.076
0.230 0.191 0.079
0.209 0.180 0.073
0.211 0.185 0.074
0.205 0.183 0.073
0.211 0.191 0.075
0.202 0.187 0.072
0.200 0.188 0.072
0.197 0.188 0.071
0.198 0.192 0.072
0.199 0.196 0.072
0.197 0.197 0.072
0.191 0.195 0.071
0.189 0.197 0.070
0.190 0.200 0.071
0.194 0.208 0.073
0.197 0.215 0.075
0.199 0.221 0.076
0.201 0.227 0.077
0.201 0.230 0.077
0.197 0.229 0.076
0.197 0.234 0.077
0.196 0.236 0.077
0.191 0.234 0.076
0.192 0.239 0.076
0.193 0.244 0.077
0.192 0.246 0.077
0.189 0.246 0.077
0.191 0.252 0.078
0.200 0.268 0.082
0.101 -0.138 0.042
0.102 -0.136 0.042
0.102 -0.135 0.042
0.103 -0.134 0.042
0.104 -0.133 0.042
0.104 -0.132 0.042
0.105 -0.131 0.042
0.105 -0.130 0.042
0.105 -0.128 0.042
0.105 -0.126 0.042
0.105 -0.124 0.041
0.103 -0.120 0.040
0.110 -0.127 0.043
0.110 -0.125 0.043
0.105 -0.117 0.041
0.102 -0.111 0.039
0.099 -0.107 0.038
0.100 -0.106 0.038
0.100 -0.105 0.038
0.118 -0.121 0.044
0.115 -0.117 0.043
0.112 -0.112 0.042
0.111 -0.109 0.041
0.239 -0.228 0.088
0.247 -0.231 0.090
0.249 -0.230 0.090
0.251 -0.228 0.091
0.250 -0.224 0.090
0.252 -0.222 0.090
0.253 -0.219 0.090
0.254 -0.217 0.090
0.255 -0.214 0.090
0.252 -0.208 0.089
0.251 -0.203 0.088
0.245 -0.195 0.085
0.215 -0.166 0.074
0.204 -0.155 0.070
0.196 -0.146 0.067
0.197 -0.145 0.067
0.200 -0.144 0.068
0.201 -0.143 0.068
0.203 -0.141 0.069
0.202 -0.138 0.068
0.197 -0.132 0.066
0.184 -0.122 0.062
0.180 -0.117 0.060
0.178 -0.113 0.059
0.190 -0.119 0.063
0.205 -0.126 0.068
0.206 -0.124 0.068
0.204 -0.121 0.067
0.207 -0.120 0.068
0.205 -0.117 0.068
0.207 -0.115 0.068
0.208 -0.114 0.068
0.207 -0.111 0.068
0.205 -0.108 0.067
0.207 -0.106 0.067
0.201 -0.102 0.065
0.201 -0.099 0.065
0.203 -0.098 0.065
0.205 -0.097 0.066
0.205 -0.095 0.066
0.206 -0.093 0.066
0.205 -0.091 0.066
0.206 -0.089 0.066
0.203 -0.085 0.065
0.204 -0.084 0.065
0.201 -0.081 0.064
0.199 -0.078 0.063
0.200 -0.076 0.063
0.212 -0.079 0.067
0.210 -0.076 0.066
0.209 -0.073 0.066
0.210 -0.072 0.066
0.215 -0.071 0.068
0.221 -0.071 0.069
0.226 -0.071 0.071
0.230 -0.070 0.072
0.238 -0.070 0.075
0.250 -0.071 0.078
0.259 -0.071 0.081
0.267 -0.071 0.083
0.271 -0.069 0.085
0.271 -0.066 0.084
0.270 -0.064 0.084
0.263 -0.059 0.082
0.267 -0.058 0.083
0.267 -0.055 0.083
0.265 -0.053 0.082
0.265 -0.050 0.082
0.264 -0.047 0.082
0.254 -0.043 0.079
0.250 -0.040 0.077
0.222 -0.032 0.069
0.213 -0.028 0.066
0.214 -0.026 0.066
0.214 -0.025 0.066
0.214 -0.023 0.066
0.217 -0.021 0.067
0.220 -0.019 0.068
0.266 -0.018 0.082
0.263 -0.016 0.081
0.264 -0.013 0.081
0.265 -0.011 0.082
0.266 -0.009 0.082
0.265 -0.006 0.082
0.263 -0.004 0.081
0.264 -0.001 0.081
0.270 0.001 0.083
0.271 0.004 0.083
0.279 0.006 0.086
0.284 0.009 0.088
0.283 0.012 0.087
0.273 0.014 0.084
0.257 0.015 0.079
0.256 0.018 0.079
0.259 0.020 0.080
0.263 0.023 0.081
0.262 0.025 0.081
0.262 0.028 0.081
0.259 0.030 0.080
0.266 0.033 0.082
0.272 0.036 0.084
0.270 0.039 0.084
0.267 0.041 0.083
0.269 0.043 0.084
0.274 0.047 0.085
0.276 0.050 0.086
0.272 0.052 0.084
0.263 0.052 0.082
0.254 0.053 0.079
0.249 0.054 0.078
0.235 0.053 0.073
0.219 0.052 0.068
0.202 0.050 0.063
0.209 0.053 0.065
0.223 0.059 0.070
0.236 0.065 0.074
0.249 0.071 0.078
0.265 0.078 0.084
0.272 0.083 0.086
0.273 0.086 0.086
0.268 0.087 0.085
0.261 0.087 0.083
0.242 0.083 0.077
0.239 0.085 0.076
0.241 0.088 0.077
0.244 0.091 0.078
0.242 0.093 0.077
0.241 0.095 0.077
0.242 0.098 0.078
0.241 0.100 0.077
0.241 0.103 0.077
0.241 0.105 0.078
0.243 0.108 0.078
0.248 0.113 0.080
0.242 0.113 0.078
0.241 0.115 0.078
0.242 0.118 0.079
0.244 0.122 0.079
0.242 0.124 0.079
0.241 0.126 0.079
0.242 0.129 0.079
0.242 0.132 0.080
0.245 0.136 0.081
0.245 0.139 0.081
0.243 0.141 0.081
0.242 0.143 0.081
0.242 0.145 0.081
0.243 0.149 0.081
0.242 0.151 0.081
0.242 0.154 0.082
0.243 0.158 0.082
0.246 0.162 0.083
0.247 0.167 0.084
0.243 0.166 0.083
0.241 0.168 0.083
0.243 0.173 0.084
0.243 0.176 0.084
0.244 0.180 0.085
0.250 0.188 0.087
0.247 0.189 0.086
0.235 0.183 0.083
0.232 0.184 0.082
0.217 0.175 0.077
0.211 0.173 0.075
0.200 0.167 0.072
0.195 0.166 0.070
0.202 0.174 0.073
0.204 0.179 0.074
0.210 0.187 0.077
0.195 0.177 0.072
0.199 0.184 0.073
0.198 0.186 0.073
0.197 0.189 0.073
0.196 0.191 0.073
0.200 0.198 0.075
0.196 0.197 0.074
0.189 0.194 0.072
0.187 0.195 0.072
0.195 0.206 0.075
0.193 0.208 0.075
0.196 0.214 0.076
0.196 0.218 0.077
0.195 0.220 0.077
0.194 0.223 0.077
0.201 0.235 0.081
0.199 0.236 0.080
0.195 0.235 0.079
0.192 0.235 0.078
0.193 0.240 0.079
0.193 0.245 0.080
0.193 0.248 0.080
0.191 0.249 0.080
0.189 0.250 0.079
0.187 0.251 0.079
0.101 -0.137 0.043
0.101 -0.136 0.043
0.102 -0.135 0.043
0.103 -0.135 0.043
0.104 -0.134 0.043
0.104 -0.132 0.043
0.105 -0.132 0.043
0.105 -0.130 0.043
0.106 -0.129 0.043
0.105 -0.126 0.043
0.105 -0.124 0.043
0.114 -0.133 0.046
0.116 -0.134 0.047
0.112 -0.126 0.045
0.103 -0.115 0.041
0.100 -0.110 0.040
0.099 -0.107 0.039
0.099 -0.106 0.039
0.100 -0.105 0.039
0.117 -0.121 0.045
0.112 -0.114 0.043
0.108 -0.108 0.041
0.108 -0.106 0.041
0.238 -0.224 0.089
0.239 -0.222 0.090
0.241 -0.220 0.090
0.246 -0.221 0.091
0.248 -0.219 0.091
0.247 -0.215 0.091
0.249 -0.212 0.091
0.248 -0.208 0.090
0.248 -0.205 0.090
0.244 -0.198 0.088
0.247 -0.197 0.089
0.195 -0.148 0.069
0.191 -0.143 0.068
0.195 -0.143 0.069
0.200 -0.144 0.070
0.201 -0.143 0.071
0.203 -0.142 0.071
0.200 -0.137 0.070
0.192 -0.130 0.067
0.185 -0.122 0.064
0.182 -0.118 0.063
0.185 -0.118 0.064
0.201 -0.126 0.069
0.203 -0.125 0.070
0.202 -0.122 0.069
0.209 -0.124 0.071
0.204 -0.119 0.069
0.206 -0.118 0.070
0.212 -0.119 0.072
0.214 -0.117 0.072
0.209 -0.112 0.070
0.206 -0.108 0.069
0.200 -0.103 0.067
0.197 -0.099 0.066
0.199 -0.098 0.066
0.204 -0.098 0.068
0.204 -0.097 0.068
0.205 -0.095 0.068
0.205 -0.093 0.068
0.206 -0.091 0.068
0.206 -0.089 0.068
0.206 -0.087 0.068
0.203 -0.083 0.067
0.204 -0.082 0.067
0.204 -0.080 0.067
0.203 -0.077 0.066
0.204 -0.076 0.067
0.206 -0.075 0.067
0.208 -0.073 0.068
0.207 -0.071 0.067
0.208 -0.069 0.068
0.223 -0.072 0.072
0.232 -0.072 0.075
0.236 -0.071 0.076
0.241 -0.071 0.078
0.249 -0.071 0.080
0.255 -0.070 0.082
0.260 -0.069 0.084
0.267 -0.068 0.086
0.268 -0.066 0.086
0.263 -0.062 0.085
0.263 -0.060 0.084
0.265 -0.058 0.085
0.265 -0.055 0.085
0.262 -0.052 0.084
0.261 -0.049 0.084
0.260 -0.047 0.083
0.254 -0.043 0.081
0.254 -0.041 0.081
0.258 -0.039 0.082
0.258 -0.037 0.082
0.256 -0.034 0.082
0.254 -0.032 0.081
0.251 -0.029 0.080
0.218 -0.023 0.069
0.216 -0.021 0.069
0.218 -0.019 0.069
0.219 -0.017 0.070
0.221 -0.015 0.070
0.260 -0.013 0.083
0.263 -0.011 0.083
0.262 -0.008 0.083
0.261 -0.006 0.083
0.259 -0.004 0.082
0.262 -0.001 0.083
0.272 0.001 0.087
0.276 0.004 0.088
0.277 0.006 0.088
0.278 0.009 0.088
0.268 0.011 0.085
0.248 0.013 0.079
0.262 0.016 0.083
0.248 0.017 0.079
0.252 0.020 0.080
0.257 0.022 0.082
0.260 0.025 0.083
0.264 0.028 0.084
0.260 0.030 0.083
0.260 0.032 0.083
0.268 0.036 0.086
0.270 0.039 0.086
0.265 0.040 0.085
0.267 0.043 0.085
0.271 0.046 0.087
0.271 0.049 0.087
0.268 0.051 0.086
0.257 0.051 0.082
0.251 0.052 0.080
0.242 0.053 0.078
0.227 0.052 0.073
0.206 0.049 0.066
0.204 0.050 0.066
0.213 0.055 0.069
0.228 0.061 0.074
0.242 0.067 0.078
0.253 0.072 0.082
0.272 0.080 0.088
0.272 0.083 0.088
0.264 0.083 0.086
0.262 0.085 0.086
0.253 0.085 0.082
0.241 0.083 0.079
0.240 0.085 0.078
0.242 0.088 0.079
0.239 0.090 0.079
0.239 0.092 0.079
0.239 0.094 0.079
0.240 0.097 0.079
0.239 0.099 0.079
0.238 0.101 0.079
0.237 0.104 0.079
0.238 0.106 0.079
0.239 0.109 0.080
0.240 0.112 0.080
0.238 0.114 0.080
0.239 0.117 0.080
0.239 0.119 0.080
0.235 0.120 0.079
0.235 0.123 0.079
0.235 0.126 0.080
0.236 0.128 0.080
0.239 0.133 0.082
0.242 0.137 0.083
0.240 0.139 0.082
0.239 0.141 0.082
0.239 0.144 0.083
0.239 0.147 0.083
0.238 0.149 0.083
0.238 0.152 0.083
0.236 0.153 0.082
0.242 0.160 0.085
0.242 0.164 0.085
0.239 0.164 0.084
0.233 0.163 0.083
0.232 0.166 0.083
0.246 0.179 0.088
0.249 0.184 0.089
0.249 0.187 0.089
0.230 0.176 0.083
0.229 0.178 0.083
0.206 0.166 0.075
0.200 0.164 0.073
0.194 0.162 0.072
0.193 0.164 0.071
0.195 0.168 0.072
0.203 0.179 0.076
0.200 0.179 0.075
0.192 0.175 0.073
0.190 0.176 0.072
0.196 0.185 0.075
0.197 0.189 0.076
0.201 0.196 0.078
0.200 0.198 0.078
0.195 0.196 0.076
0.189 0.194 0.074
0.195 0.204 0.077
0.198 0.210 0.079
0.197 0.212 0.079
0.195 0.214 0.079
0.193 0.215 0.078
0.191 0.216 0.078
0.193 0.222 0.079
0.194 0.227 0.080
0.195 0.232 0.081
0.194 0.234 0.081
0.193 0.237 0.081
0.191 0.238 0.081
0.191 0.242 0.081
0.190 0.245 0.081
0.188 0.246 0.081
0.186 0.247 0.081
0.185 0.249 0.081
0.101 -0.136 0.044
0.103 -0.136 0.045
0.104 -0.135 0.045
0.104 -0.134 0.045
0.105 -0.134 0.045
0.105 -0.132 0.045
0.106 -0.131 0.045
0.106 -0.129 0.045
0.107 -0.129 0.045
0.117 -0.138 0.049
0.113 -0.133 0.047
0.111 -0.128 0.046
0.103 -0.117 0.042
0.104 -0.116 0.042
0.098 -0.108 0.040
0.098 -0.106 0.040
0.099 -0.106 0.040
0.100 -0.105 0.040
0.112 -0.116 0.045
0.106 -0.108 0.042
0.105 -0.105 0.041
0.104 -0.103 0.041
0.112 -0.109 0.044
0.233 -0.219 0.090
0.235 -0.218 0.091
0.238 -0.217 0.091
0.239 -0.215 0.091
0.239 -0.211 0.091
0.237 -0.206 0.090
0.240 -0.205 0.091
0.243 -0.204 0.091
0.243 -0.201 0.091
0.241 -0.197 0.090
0.237 -0.190 0.088
0.218 -0.172 0.080
0.213 -0.165 0.078
0.200 -0.152 0.073
0.194 -0.145 0.071
0.197 -0.145 0.072
0.200 -0.145 0.073
0.201 -0.143 0.073
0.200 -0.140 0.072
0.199 -0.137 0.072
0.185 -0.125 0.066
0.185 -0.123 0.066
0.186 -0.121 0.066
0.203 -0.130 0.072
0.201 -0.126 0.071
0.203 -0.125 0.072
0.207 -0.125 0.073
0.208 -0.123 0.073
0.206 -0.120 0.072
0.209 -0.119 0.073
0.214 -0.120 0.075
0.216 -0.118 0.075
0.211 -0.114 0.073
0.203 -0.107 0.070
0.197 -0.102 0.068
0.196 -0.099 0.067
0.201 -0.099 0.069
0.204 -0.099 0.070
0.204 -0.097 0.070
0.204 -0.094 0.070
0.204 -0.092 0.069
0.205 -0.091 0.070
0.208 -0.090 0.071
0.206 -0.087 0.070
0.202 -0.083 0.068
0.205 -0.082 0.069
0.205 -0.080 0.069
0.204 -0.078 0.069
0.204 -0.076 0.069
0.205 -0.074 0.069
0.210 -0.074 0.071
0.208 -0.071 0.070
0.208 -0.069 0.069
0.222 -0.072 0.074
0.233 -0.073 0.078
0.239 -0.072 0.080
0.242 -0.071 0.081
0.244 -0.069 0.081
0.249 -0.068 0.083
0.254 -0.067 0.084
0.260 -0.066 0.086
0.262 -0.064 0.087
0.261 -0.062 0.086
0.260 -0.059 0.086
0.260 -0.057 0.086
0.259 -0.054 0.086
0.255 -0.051 0.084
0.254 -0.048 0.084
0.252 -0.045 0.083
0.253 -0.043 0.083
0.253 -0.041 0.083
0.254 -0.039 0.083
0.256 -0.036 0.084
0.255 -0.034 0.084
0.254 -0.032 0.084
0.256 -0.029 0.084
0.256 -0.027 0.084
0.253 -0.024 0.083
0.228 -0.020 0.075
0.218 -0.017 0.071
0.219 -0.015 0.072
0.219 -0.013 0.072
0.222 -0.011 0.073
0.259 -0.011 0.085
0.260 -0.008 0.085
0.257 -0.006 0.084
0.258 -0.004 0.085
0.271 -0.001 0.089
0.277 0.001 0.091
0.276 0.004 0.090
0.270 0.006 0.089
0.248 0.008 0.081
0.243 0.010 0.080
0.250 0.013 0.082
0.249 0.015 0.082
0.249 0.017 0.082
0.242 0.019 0.079
0.245 0.021 0.080
0.251 0.024 0.082
0.261 0.028 0.086
0.263 0.030 0.086
0.258 0.032 0.085
0.262 0.035 0.086
0.266 0.038 0.088
0.264 0.040 0.087
0.264 0.043 0.087
0.264 0.045 0.087
0.262 0.047 0.087
0.261 0.050 0.086
0.251 0.050 0.083
0.241 0.050 0.080
0.237 0.052 0.078
0.218 0.050 0.072
0.208 0.050 0.069
0.208 0.051 0.069
0.222 0.057 0.074
0.234 0.062 0.078
0.248 0.069 0.083
0.265 0.076 0.089
0.263 0.078 0.088
0.261 0.080 0.088
0.258 0.081 0.087
0.251 0.082 0.084
0.246 0.083 0.083
0.239 0.082 0.080
0.238 0.085 0.080
0.238 0.087 0.080
0.236 0.089 0.080
0.235 0.091 0.080
0.235 0.093 0.080
0.235 0.095 0.080
0.235 0.098 0.080
0.235 0.100 0.080
0.235 0.103 0.080
0.235 0.105 0.080
0.233 0.107 0.080
0.236 0.111 0.081
0.233 0.112 0.080
0.234 0.115 0.081
0.231 0.116 0.080
0.231 0.118 0.080
0.229 0.120 0.080
0.230 0.123 0.080
0.231 0.126 0.081
0.231 0.128 0.081
0.235 0.133 0.083
0.234 0.136 0.083
0.234 0.139 0.083
0.236 0.142 0.084
0.235 0.145 0.084
0.236 0.148 0.084
0.234 0.149 0.084
0.232 0.151 0.083
0.233 0.154 0.084
0.239 0.162 0.087
0.234 0.161 0.085
0.228 0.160 0.083
0.231 0.165 0.085
0.244 0.177 0.090
0.249 0.185 0.092
0.237 0.179 0.088
0.225 0.173 0.084
0.214 0.167 0.080
0.203 0.161 0.076
0.196 0.158 0.074
0.193 0.159 0.073
0.191 0.160 0.073
0.189 0.161 0.072
0.192 0.167 0.074
0.198 0.174 0.076
0.198 0.177 0.077
0.192 0.175 0.075
0.189 0.175 0.074
0.190 0.180 0.075
0.196 0.188 0.078
0.197 0.192 0.078
0.197 0.196 0.079
0.194 0.196 0.078
0.191 0.196 0.077
0.191 0.199 0.078
0.196 0.208 0.080
0.196 0.212 0.081
0.194 0.213 0.080
0.189 0.211 0.079
0.188 0.213 0.079
0.188 0.218 0.080
0.189 0.222 0.081
0.189 0.225 0.081
0.190 0.230 0.082
0.189 0.233 0.082
0.188 0.236 0.082
0.188 0.239 0.083
0.187 0.241 0.082
0.183 0.239 0.081
0.182 0.241 0.081
0.179 0.242 0.080
0.102 -0.137 0.046
0.103 -0.137 0.046
0.105 -0.138 0.047
0.104 -0.135 0.046
0.105 -0.134 0.046
0.104 -0.130 0.046
0.106 -0.132 0.047
0.109 -0.134 0.048
0.110 -0.131 0.047
0.109 -0.128 0.047
0.101 -0.117 0.043
0.102 -0.116 0.043
0.096 -0.108 0.041
0.096 -0.106 0.040
0.098 -0.106 0.041
0.098 -0.105 0.041
0.101 -0.106 0.042
0.108 -0.112 0.044
0.105 -0.107 0.043
0.104 -0.104 0.042
0.104 -0.103 0.042
0.110 -0.107 0.044
0.118 -0.114 0.047
0.232 -0.215 0.092
0.232 -0.212 0.092
0.233 -0.210 0.092
0.231 -0.204 0.090
0.234 -0.204 0.091
0.236 -0.202 0.092
0.238 -0.201 0.092
0.238 -0.197 0.092
0.235 -0.191 0.090
0.234 -0.187 0.089
0.227 -0.179 0.086
0.210 -0.163 0.080
0.199 -0.152 0.075
0.198 -0.148 0.074
0.201 -0.148 0.075
0.202 -0.147 0.076
0.201 -0.143 0.075
0.196 -0.137 0.073
0.190 -0.131 0.070
0.186 -0.126 0.069
0.187 -0.124 0.069
0.205 -0.134 0.075
0.202 -0.130 0.074
0.200 -0.126 0.073
0.203 -0.125 0.074
0.205 -0.124 0.074
0.205 -0.122 0.074
0.207 -0.120 0.074
0.208 -0.119 0.075
0.212 -0.119 0.076
0.215 -0.118 0.077
0.208 -0.112 0.074
0.202 -0.107 0.072
0.199 -0.103 0.071
0.201 -0.102 0.071
0.208 -0.103 0.074
0.204 -0.099 0.072
0.204 -0.097 0.072
0.203 -0.094 0.071
0.202 -0.092 0.071
0.204 -0.090 0.071
0.205 -0.089 0.072
0.208 -0.088 0.073
0.203 -0.084 0.071
0.201 -0.081 0.070
0.206 -0.081 0.072
0.205 -0.079 0.071
0.206 -0.077 0.071
0.209 -0.076 0.072
0.211 -0.074 0.073
0.211 -0.072 0.073
0.213 -0.071 0.073
0.221 -0.072 0.076
0.231 -0.072 0.079
0.237 -0.072 0.081
0.239 -0.070 0.082
0.240 -0.068 0.082
0.243 -0.067 0.083
0.249 -0.066 0.085
0.255 -0.065 0.087
0.257 -0.063 0.088
0.257 -0.061 0.088
0.257 -0.058 0.087
0.256 -0.056 0.087
0.252 -0.052 0.085
0.249 -0.049 0.084
0.247 -0.047 0.084
0.247 -0.044 0.084
0.248 -0.042 0.084
0.249 -0.040 0.084
0.250 -0.038 0.085
0.251 -0.036 0.085
0.253 -0.034 0.085
0.253 -0.031 0.085
0.253 -0.029 0.085
0.251 -0.027 0.085
0.252 -0.024 0.085
0.251 -0.022 0.085
0.249 -0.019 0.084
0.231 -0.016 0.078
0.220 -0.013 0.074
0.218 -0.011 0.074
0.219 -0.009 0.074
0.234 -0.008 0.079
0.251 -0.006 0.085
0.264 -0.004 0.089
0.272 -0.001 0.092
0.276 0.001 0.093
0.268 0.004 0.090
0.247 0.006 0.083
0.239 0.008 0.080
0.236 0.010 0.079
0.239 0.012 0.081
0.243 0.015 0.082
0.239 0.017 0.081
0.239 0.019 0.081
0.238 0.021 0.081
0.243 0.024 0.082
0.256 0.027 0.086
0.259 0.030 0.088
0.257 0.032 0.087
0.258 0.035 0.087
0.261 0.037 0.088
0.266 0.041 0.090
0.258 0.042 0.087
0.253 0.043 0.086
0.253 0.046 0.086
0.243 0.046 0.083
0.217 0.043 0.074
0.221 0.048 0.075
0.213 0.049 0.073
0.210 0.050 0.072
0.217 0.054 0.074
0.227 0.058 0.078
0.245 0.065 0.084
0.257 0.071 0.088
0.258 0.074 0.089
0.258 0.076 0.089
0.254 0.078 0.088
0.251 0.079 0.087
0.244 0.079 0.084
0.238 0.080 0.082
0.234 0.081 0.081
0.233 0.083 0.081
0.232 0.085 0.081
0.232 0.087 0.081
0.232 0.090 0.081
0.230 0.091 0.081
0.229 0.093 0.080
0.231 0.096 0.081
0.230 0.098 0.081
0.231 0.101 0.081
0.230 0.103 0.081
0.227 0.104 0.080
0.226 0.106 0.080
0.227 0.109 0.081
0.225 0.110 0.080
0.225 0.113 0.080
0.225 0.116 0.081
0.226 0.119 0.081
0.226 0.121 0.081
0.226 0.123 0.081
0.228 0.127 0.082
0.229 0.130 0.083
0.230 0.133 0.084
0.228 0.135 0.083
0.229 0.139 0.084
0.233 0.143 0.085
0.232 0.146 0.085
0.230 0.147 0.085
0.229 0.150 0.085
0.230 0.153 0.086
0.236 0.160 0.088
0.234 0.161 0.088
0.230 0.162 0.086
0.235 0.168 0.089
0.243 0.177 0.092
0.235 0.175 0.089
0.227 0.171 0.087
0.216 0.166 0.083
0.204 0.160 0.079
0.193 0.153 0.074
0.189 0.153 0.073
0.190 0.156 0.074
0.189 0.158 0.074
0.187 0.160 0.074
0.189 0.164 0.075
0.193 0.171 0.077
0.195 0.175 0.078
0.194 0.177 0.078
0.192 0.178 0.077
0.189 0.179 0.077
0.191 0.184 0.078
0.193 0.189 0.079
0.193 0.192 0.080
0.192 0.194 0.080
0.189 0.195 0.079
0.187 0.196 0.079
0.187 0.199 0.079
0.190 0.206 0.081
0.191 0.210 0.082
0.187 0.209 0.080
0.187 0.212 0.081
0.187 0.216 0.081
0.185 0.218 0.081
0.185 0.221 0.082
0.186 0.226 0.083
0.185 0.229 0.083
0.184 0.231 0.083
0.185 0.235 0.084
0.182 0.235 0.083
0.179 0.235 0.082
0.179 0.238 0.082
0.182 0.246 0.084
0.103 -0.138 0.047
0.103 -0.137 0.047
0.104 -0.136 0.047
0.104 -0.135 0.047
0.105 -0.134 0.048
0.111 -0.140 0.050
0.116 -0.144 0.052
0.118 -0.144 0.053
0.106 -0.128 0.047
0.102 -0.122 0.045
0.102 -0.119 0.045
0.101 -0.117 0.044
0.096 -0.109 0.042
0.098 -0.110 0.043
0.097 -0.107 0.042
0.096 -0.105 0.041
0.100 -0.107 0.043
0.113 -0.120 0.048
0.104 -0.108 0.044
0.104 -0.107 0.044
0.100 -0.100 0.042
0.103 -0.103 0.043
0.105 -0.103 0.044
0.112 -0.107 0.046
0.224 -0.208 0.091
0.225 -0.206 0.092
0.226 -0.204 0.092
0.228 -0.202 0.092
0.228 -0.199 0.092
0.231 -0.199 0.092
0.231 -0.195 0.092
0.230 -0.191 0.091
0.230 -0.188 0.091
0.230 -0.185 0.091
0.229 -0.181 0.090
0.217 -0.168 0.084
0.205 -0.157 0.080
0.201 -0.151 0.078
0.202 -0.149 0.078
0.204 -0.148 0.079
0.195 -0.139 0.075
0.192 -0.134 0.073
0.189 -0.130 0.072
0.191 -0.130 0.073
0.202 -0.134 0.076
0.203 -0.133 0.077
0.205 -0.131 0.077
0.202 -0.127 0.076
0.201 -0.124 0.075
0.202 -0.122 0.075
0.202 -0.120 0.075
0.203 -0.118 0.075
0.205 -0.117 0.076
0.203 -0.114 0.075
0.204 -0.112 0.075
0.208 -0.112 0.076
0.203 -0.107 0.074
0.202 -0.104 0.074
0.205 -0.104 0.075
0.207 -0.102 0.075
0.209 -0.102 0.076
0.203 -0.097 0.074
0.203 -0.095 0.074
0.201 -0.092 0.073
0.202 -0.090 0.073
0.204 -0.088 0.073
0.203 -0.086 0.073
0.205 -0.085 0.073
0.200 -0.081 0.072
0.204 -0.080 0.073
0.206 -0.079 0.074
0.207 -0.077 0.074
0.206 -0.075 0.073
0.207 -0.073 0.074
0.213 -0.073 0.075
0.214 -0.071 0.076
0.219 -0.071 0.078
0.228 -0.072 0.081
0.233 -0.071 0.082
0.236 -0.069 0.083
0.237 -0.067 0.083
0.240 -0.066 0.084
0.244 -0.065 0.086
0.250 -0.064 0.088
0.252 -0.062 0.088
0.253 -0.060 0.089
0.252 -0.057 0.088
0.250 -0.055 0.087
0.245 -0.051 0.085
0.243 -0.048 0.085
0.243 -0.046 0.085
0.242 -0.044 0.084
0.242 -0.041 0.084
0.246 -0.040 0.086
0.248 -0.038 0.086
0.247 -0.035 0.086
0.246 -0.033 0.086
0.248 -0.031 0.086
0.246 -0.028 0.085
0.246 -0.026 0.085
0.248 -0.024 0.086
0.248 -0.022 0.086
0.246 -0.019 0.085
0.246 -0.017 0.085
0.248 -0.015 0.086
0.221 -0.011 0.077
0.217 -0.009 0.075
0.217 -0.007 0.075
0.256 -0.004 0.089
0.266 -0.001 0.092
0.263 0.001 0.091
0.241 0.003 0.084
0.239 0.006 0.083
0.236 0.008 0.082
0.236 0.010 0.082
0.236 0.012 0.082
0.237 0.014 0.082
0.234 0.016 0.081
0.228 0.018 0.079
0.229 0.020 0.079
0.253 0.025 0.088
0.254 0.027 0.088
0.251 0.029 0.087
0.252 0.032 0.088
0.254 0.034 0.089
0.258 0.037 0.090
0.255 0.039 0.089
0.253 0.041 0.088
0.242 0.042 0.084
0.237 0.043 0.083
0.236 0.045 0.083
0.205 0.041 0.072
0.200 0.042 0.070
0.206 0.045 0.072
0.205 0.047 0.072
0.212 0.051 0.075
0.226 0.056 0.079
0.235 0.061 0.083
0.251 0.067 0.088
0.256 0.071 0.090
0.253 0.073 0.090
0.249 0.074 0.088
0.247 0.076 0.088
0.243 0.077 0.086
0.237 0.077 0.084
0.231 0.078 0.082
0.231 0.080 0.082
0.230 0.082 0.082
0.228 0.083 0.082
0.228 0.086 0.082
0.229 0.088 0.082
0.225 0.089 0.081
0.225 0.092 0.081
0.226 0.094 0.081
0.227 0.097 0.082
0.226 0.099 0.082
0.226 0.101 0.082
0.224 0.103 0.081
0.221 0.104 0.081
0.221 0.107 0.081
0.221 0.109 0.081
0.220 0.111 0.081
0.220 0.113 0.081
0.222 0.117 0.082
0.223 0.120 0.083
0.223 0.122 0.083
0.224 0.125 0.083
0.223 0.127 0.083
0.222 0.129 0.083
0.226 0.134 0.085
0.227 0.138 0.086
0.226 0.140 0.085
0.227 0.143 0.086
0.225 0.144 0.086
0.223 0.146 0.085
0.230 0.153 0.088
0.232 0.158 0.089
0.231 0.160 0.089
0.234 0.165 0.091
0.236 0.169 0.091
0.236 0.172 0.092
0.228 0.170 0.089
0.220 0.167 0.086
0.211 0.162 0.083
0.196 0.154 0.078
0.185 0.147 0.073
0.184 0.149 0.073
0.186 0.154 0.075
0.188 0.158 0.076
0.189 0.161 0.076
0.191 0.166 0.078
0.191 0.169 0.078
0.194 0.175 0.080
0.194 0.178 0.080
0.193 0.180 0.080
0.190 0.180 0.079
0.189 0.183 0.080
0.189 0.186 0.080
0.191 0.191 0.081
0.190 0.193 0.081
0.187 0.193 0.081
0.186 0.195 0.080
0.186 0.199 0.081
0.185 0.201 0.081
0.184 0.203 0.081
0.183 0.206 0.081
0.183 0.209 0.082
0.184 0.213 0.082
0.182 0.214 0.082
0.181 0.217 0.082
0.182 0.222 0.083
0.181 0.224 0.083
0.180 0.227 0.083
0.179 0.229 0.083
0.178 0.231 0.083
0.177 0.233 0.083
0.177 0.236 0.084
0.103 -0.137 0.049
0.103 -0.135 0.048
0.106 -0.137 0.050
0.114 -0.146 0.053
0.110 -0.139 0.051
0.108 -0.134 0.050
0.105 -0.129 0.048
0.099 -0.120 0.045
0.098 -0.117 0.045
0.095 -0.111 0.043
0.095 -0.110 0.043
0.097 -0.111 0.044
0.099 -0.112 0.044
0.106 -0.118 0.047
0.104 -0.113 0.046
0.102 -0.110 0.045
0.102 -0.108 0.045
0.103 -0.108 0.045
0.099 -0.102 0.043
0.101 -0.102 0.043
0.103 -0.103 0.044
0.105 -0.102 0.045
0.112 -0.108 0.047
0.115 -0.109 0.048
0.217 -0.199 0.091
0.219 -0.198 0.091
0.222 -0.197 0.092
0.223 -0.195 0.092
0.224 -0.192 0.092
0.225 -0.190 0.092
0.225 -0.188 0.092
0.224 -0.183 0.091
0.221 -0.178 0.089
0.221 -0.175 0.089
0.212 -0.165 0.085
0.209 -0.160 0.083
0.206 -0.155 0.082
0.203 -0.150 0.081
0.193 -0.140 0.076
0.191 -0.136 0.075
0.191 -0.134 0.075
0.196 -0.135 0.077
0.199 -0.135 0.078
0.199 -0.133 0.078
0.202 -0.132 0.079
0.202 -0.130 0.078
0.202 -0.127 0.078
0.201 -0.124 0.077
0.201 -0.122 0.077
0.202 -0.120 0.077
0.198 -0.116 0.076
0.200 -0.115 0.076
0.202 -0.113 0.077
0.200 -0.110 0.076
0.201 -0.108 0.076
0.199 -0.106 0.075
0.198 -0.102 0.074
0.207 -0.105 0.078
0.202 -0.100 0.076
0.203 -0.099 0.076
0.205 -0.098 0.076
0.205 -0.095 0.076
0.203 -0.092 0.075
0.203 -0.090 0.075
0.203 -0.088 0.075
0.203 -0.086 0.075
0.204 -0.085 0.075
0.206 -0.083 0.076
0.206 -0.081 0.076
0.205 -0.079 0.075
0.205 -0.077 0.075
0.204 -0.074 0.075
0.203 -0.072 0.074
0.207 -0.071 0.075
0.217 -0.072 0.079
0.216 -0.070 0.079
0.224 -0.071 0.082
0.230 -0.070 0.084
0.232 -0.068 0.084
0.234 -0.067 0.085
0.237 -0.065 0.086
0.243 -0.065 0.088
0.245 -0.063 0.088
0.245 -0.061 0.088
0.245 -0.058 0.088
0.245 -0.056 0.088
0.244 -0.053 0.088
0.239 -0.050 0.086
0.239 -0.048 0.086
0.239 -0.045 0.086
0.237 -0.043 0.085
0.237 -0.041 0.085
0.240 -0.039 0.086
0.245 -0.037 0.088
0.243 -0.035 0.087
0.242 -0.032 0.087
0.240 -0.030 0.086
0.240 -0.028 0.086
0.241 -0.026 0.086
0.242 -0.023 0.086
0.242 -0.021 0.086
0.242 -0.019 0.086
0.243 -0.017 0.087
0.244 -0.015 0.087
0.252 -0.013 0.090
0.240 -0.005 0.086
0.245 -0.003 0.087
0.252 -0.001 0.090
0.246 0.001 0.088
0.239 0.003 0.085
0.232 0.005 0.083
0.231 0.007 0.082
0.229 0.010 0.082
0.231 0.012 0.082
0.232 0.014 0.083
0.227 0.016 0.081
0.225 0.018 0.080
0.232 0.020 0.083
0.246 0.024 0.088
0.249 0.027 0.089
0.247 0.029 0.088
0.245 0.031 0.088
0.247 0.033 0.089
0.246 0.035 0.088
0.245 0.038 0.088
0.237 0.039 0.085
0.222 0.038 0.080
0.200 0.040 0.072
0.195 0.041 0.070
0.196 0.043 0.071
0.200 0.046 0.072
0.211 0.050 0.076
0.223 0.055 0.081
0.247 0.064 0.089
0.243 0.065 0.088
0.252 0.070 0.092
0.250 0.072 0.091
0.243 0.072 0.089
0.237 0.073 0.086
0.234 0.074 0.086
0.231 0.075 0.084
0.225 0.076 0.082
0.215 0.074 0.079
0.226 0.081 0.083
0.224 0.082 0.082
0.223 0.084 0.082
0.220 0.085 0.081
0.221 0.088 0.082
0.221 0.090 0.082
0.222 0.093 0.082
0.222 0.095 0.083
0.224 0.098 0.083
0.221 0.100 0.083
0.218 0.100 0.082
0.217 0.102 0.081
0.217 0.105 0.082
0.217 0.107 0.082
0.216 0.109 0.082
0.216 0.111 0.082
0.215 0.113 0.082
0.217 0.117 0.083
0.220 0.121 0.084
0.218 0.122 0.084
0.218 0.125 0.084
0.218 0.127 0.084
0.217 0.129 0.084
0.221 0.134 0.085
0.220 0.136 0.085
0.221 0.139 0.086
0.219 0.141 0.086
0.218 0.143 0.086
0.227 0.151 0.089
0.221 0.150 0.087
0.225 0.156 0.089
0.230 0.162 0.091
0.244 0.175 0.097
0.232 0.169 0.093
0.219 0.163 0.088
0.214 0.162 0.086
0.214 0.165 0.087
0.186 0.146 0.076
0.182 0.146 0.075
0.184 0.150 0.076
0.188 0.155 0.078
0.190 0.160 0.079
0.190 0.163 0.079
0.191 0.166 0.080
0.189 0.168 0.080
0.190 0.171 0.080
0.190 0.175 0.081
0.190 0.178 0.081
0.188 0.179 0.081
0.186 0.180 0.080
0.185 0.181 0.080
0.185 0.185 0.081
0.186 0.189 0.082
0.185 0.191 0.082
0.184 0.193 0.082
0.184 0.197 0.082
0.183 0.199 0.082
0.182 0.201 0.082
0.181 0.203 0.082
0.180 0.206 0.083
0.179 0.209 0.083
0.178 0.211 0.083
0.178 0.213 0.083
0.179 0.218 0.084
0.178 0.221 0.084
0.176 0.222 0.084
0.175 0.224 0.084
0.175 0.227 0.084
0.174 0.230 0.084
0.176 0.236 0.086
0.109 -0.145 0.053
0.113 -0.148 0.055
0.114 -0.147 0.055
0.104 -0.133 0.050
0.102 -0.130 0.049
0.103 -0.128 0.049
0.104 -0.128 0.049
0.095 -0.115 0.045
0.095 -0.113 0.044
0.094 -0.111 0.044
0.100 -0.116 0.046
0.104 -0.118 0.048
0.105 -0.118 0.048
0.099 -0.110 0.045
0.100 -0.109 0.045
0.101 -0.109 0.046
0.103 -0.109 0.046
0.098 -0.102 0.044
0.101 -0.104 0.045
0.102 -0.103 0.045
0.103 -0.102 0.045
0.105 -0.103 0.046
0.107 -0.103 0.047
0.111 -0.105 0.048
0.212 -0.195 0.091
0.215 -0.194 0.092
0.216 -0.192 0.092
0.217 -0.190 0.092
0.218 -0.188 0.092
0.221 -0.187 0.093
0.222 -0.185 0.093
0.218 -0.179 0.091
0.218 -0.176 0.091
0.213 -0.169 0.088
0.210 -0.164 0.087
0.206 -0.158 0.085
0.196 -0.148 0.080
0.193 -0.143 0.079
0.192 -0.140 0.078
0.191 -0.137 0.077
0.195 -0.137 0.079
0.196 -0.135 0.079
0.196 -0.133 0.079
0.200 -0.134 0.080
0.201 -0.131 0.080
0.201 -0.129 0.080
0.202 -0.127 0.080
0.202 -0.125 0.080
0.199 -0.121 0.078
0.200 -0.120 0.079
0.201 -0.118 0.079
0.199 -0.115 0.078
0.201 -0.113 0.079
0.204 -0.112 0.079
0.199 -0.108 0.077
0.203 -0.107 0.078
0.205 -0.106 0.079
0.202 -0.103 0.078
0.202 -0.101 0.078
0.203 -0.099 0.078
0.203 -0.097 0.078
0.204 -0.095 0.078
0.204 -0.093 0.078
0.201 -0.089 0.076
0.200 -0.087 0.076
0.205 -0.087 0.078
0.206 -0.085 0.078
0.204 -0.083 0.077
0.201 -0.079 0.076
0.203 -0.078 0.076
0.204 -0.076 0.077
0.202 -0.074 0.076
0.203 -0.072 0.076
0.208 -0.072 0.078
0.209 -0.070 0.078
0.220 -0.071 0.082
0.225 -0.071 0.084
0.226 -0.069 0.084
0.228 -0.067 0.085
0.230 -0.066 0.086
0.233 -0.064 0.087
0.238 -0.063 0.088
0.241 -0.062 0.089
0.239 -0.059 0.089
0.238 -0.057 0.088
0.239 -0.054 0.088
0.237 -0.052 0.088
0.236 -0.049 0.087
0.236 -0.047 0.087
0.236 -0.045 0.087
0.235 -0.042 0.086
0.235 -0.040 0.086
0.235 -0.038 0.086
0.237 -0.036 0.087
0.237 -0.034 0.087
0.235 -0.032 0.086
0.233 -0.029 0.086
0.235 -0.027 0.086
0.236 -0.025 0.087
0.237 -0.023 0.087
0.237 -0.021 0.087
0.240 -0.019 0.088
0.241 -0.017 0.088
0.247 -0.015 0.090
0.257 -0.013 0.094
0.259 -0.011 0.095
0.256 -0.008 0.094
0.243 -0.006 0.089
0.236 -0.003 0.086
0.236 -0.001 0.086
0.238 0.001 0.087
0.233 0.003 0.085
0.229 0.005 0.084
0.226 0.007 0.083
0.221 0.009 0.081
0.220 0.011 0.081
0.224 0.014 0.082
0.231 0.016 0.085
0.229 0.018 0.084
0.230 0.020 0.084
0.241 0.023 0.088
0.245 0.026 0.090
0.243 0.028 0.089
0.243 0.030 0.089
0.238 0.032 0.088
0.234 0.034 0.086
0.232 0.036 0.085
0.223 0.036 0.082
0.210 0.036 0.078
0.195 0.035 0.072
0.185 0.035 0.069
0.191 0.038 0.071
0.190 0.040 0.070
0.191 0.042 0.071
0.204 0.047 0.076
0.214 0.051 0.080
0.238 0.059 0.088
0.243 0.063 0.091
0.249 0.067 0.093
0.242 0.067 0.090
0.247 0.071 0.092
0.240 0.071 0.090
0.230 0.071 0.086
0.225 0.071 0.084
0.224 0.073 0.084
0.219 0.074 0.083
0.213 0.074 0.080
0.208 0.074 0.078
0.215 0.079 0.081
0.215 0.081 0.082
0.218 0.085 0.083
0.217 0.086 0.082
0.216 0.088 0.082
0.219 0.092 0.083
0.216 0.093 0.083
0.213 0.094 0.082
0.211 0.095 0.081
0.213 0.098 0.082
0.212 0.100 0.082
0.213 0.103 0.082
0.206 0.102 0.080
0.210 0.106 0.082
0.211 0.109 0.082
0.212 0.112 0.083
0.214 0.115 0.084
0.214 0.118 0.084
0.207 0.116 0.082
0.210 0.123 0.083
0.211 0.125 0.084
0.206 0.125 0.082
0.205 0.127 0.082
0.212 0.134 0.085
0.211 0.136 0.085
0.209 0.137 0.084
0.208 0.139 0.084
0.209 0.142 0.085
0.214 0.148 0.087
0.227 0.160 0.093
